# .PCD v0.7 - Point Cloud Data file format
VERSION 0.7
FIELDS x y z intensities
SIZE 4 4 4 4
TYPE F F F F
COUNT 1 1 1 1
WIDTH 917
HEIGHT 1
VIEWPOINT 0 0 0 1 0 0 0
POINTS 917
DATA ascii
-11.83041954 -3.693188429 -0.6236937046 0.9515751004 
-36.04828644 -16.79873466 -2.001416922 0.8527554274 
-34.41255188 -19.93622589 -2.001416922 0.8527554274 
-32.50448608 -22.91583443 -2.001416922 0.8527554274 
-24.46482277 -20.73536491 -1.613902211 0.8794643879 
-23.38207436 -28.34628868 -1.849197388 0.8631488681 
-20.97943878 -27.87227058 -1.755594134 0.8696027994 
-9.92134285 -15.95815372 -0.9456378818 0.927503705 
-8.976830482 -15.98340321 -0.9225341678 0.9292107224 
-7.211484432 -16.03062057 -0.8846025467 0.9320200086 
-1.529199243 -13.68913078 -0.6931826472 0.9463272691 
0.3057421744 -13.73821259 -0.6915388107 0.9464510679 
2.801923752 -13.80497551 -0.7088926435 0.9451448321 
3.45212388 -13.82235813 -0.7169685364 0.94453758 
4.118652344 -13.84019947 -0.726685822 0.9438073635 
8.257787704 -13.28237724 -0.7870771885 0.9392820001 
9.18367672 -13.4027977 -0.8176356554 0.9370005131 
11.03971195 -13.38341808 -0.8730829358 0.9328748584 
18.29053497 -18.53627396 -1.310501814 0.9009584785 
18.33176422 -16.99503326 -1.257994652 0.9047312737 
18.36989021 -15.56954098 -1.211829662 0.9080613852 
18.40537834 -14.24268532 -1.171179056 0.9110039473 
21.28071976 -13.62780476 -1.271711349 0.9037441611 
24.27563477 -14.06356907 -1.411857843 0.8937202096 
27.12147331 -14.13969231 -1.539224267 0.8847068548 
30.53840828 -14.23108864 -1.695505619 0.8737713099 
34.0276947 -14.0502491 -1.852658749 0.8629111052 
38.45275879 -10.15076923 -2.001401663 0.8527564406 
38.86627579 -8.430033684 -2.001401663 0.8527564406 
39.20277023 -6.692939281 -2.001401663 0.8527564406 
39.74480438 -1.415412545 -2.001401663 0.8527564406 
39.76842499 0.3538329899 -2.001401663 0.8527564406 
39.71331024 2.122680664 -2.001401663 0.8527564406 
39.57958221 3.887016535 -2.001401663 0.8527564406 
32.94280243 16.07141876 -1.844593167 0.8634651899 
32.16908646 17.50648689 -1.843088984 0.863568604 
30.3913269 18.3368206 -1.786249042 0.8674838543 
29.49539185 21.59057236 -1.839514732 0.8638142347 
27.81748962 22.32859802 -1.795093298 0.8668734431 
27.42531013 24.09643555 -1.837211013 0.8639726639 
26.31059837 25.2773304 -1.83611083 0.8640482426 
25.14573479 26.40774918 -1.835066676 0.8641200662 
22.6735611 28.50608635 -1.833006501 0.8642620444 
11.48122978 15.83204556 -0.9841892719 0.9246624112 
8.778095245 16.30250359 -0.9317855835 0.9285268188 
7.970121861 16.52343178 -0.9232121706 0.9291605949 
7.930859089 18.5030117 -1.013084412 0.9225384593 
12.80885983 33.98482513 -1.827708602 0.8646262288 
11.28154278 34.51166153 -1.827218533 0.864659965 
9.732788086 34.97133636 -1.826798201 0.8646888733 
2.764184475 19.91064453 -1.011601329 0.922647357 
3.385361195 36.1228714 -1.825828075 0.8647556305 
1.775253892 36.2360878 -1.82574904 0.8647612333 
0.1613867134 36.27645874 -1.825609684 0.8647707105 
-0.8008642197 9.449726105 -0.4772566259 0.9627298713 
-9.296327591 25.34638596 -1.358627796 0.8975141644 
-3.136664867 7.501567364 -0.409186244 0.9679595828 
-4.148876667 7.872197151 -0.4478163123 0.9649882317 
-4.513178825 7.711049557 -0.4496340752 0.9648486376 
-6.932065487 7.410898209 -0.5106757879 0.960172832 
-8.882768631 7.260917664 -0.577359736 0.9550905228 
-9.935688019 7.409574986 -0.6237373352 0.9515718222 
-10.93834496 7.423671722 -0.6652699113 0.9484317899 
-12.0947504 7.445019245 -0.7147318721 0.9447056055 
-13.13766098 7.3017869 -0.7563981414 0.9415782094 
-14.50545406 7.237060547 -0.8157889843 0.937138319 
-16.81341743 7.473793983 -0.9259560704 0.9289578795 
-19.35924339 7.593198299 -1.046501875 0.9200882316 
-26.25390053 7.685839653 -1.376663327 0.8962268829 
-38.62767792 9.464692116 -2.001416922 0.8527553678 
-39.01040268 7.737182617 -2.001416683 0.8527554274 
-17.64058113 2.689453125 -0.8980099559 0.9310261011 
-17.79504776 1.907753825 -0.9006567001 0.9308299422 
-17.95076561 1.119726539 -0.9051175714 0.9304995537 
-39.75593185 -1.06172359 -2.001407623 0.852756083 
-39.6693306 -2.829330921 -2.001406908 0.852756083 
-38.93978119 -8.083920479 -2.001404285 0.8527562618 
-11.70560074 -4.116889477 -0.6244476438 0.9515179992 
-36.19634247 -16.47734833 -2.001416922 0.8527553678 
-35.42759323 -18.07102013 -2.001416922 0.8527554274 
-33.68125534 -21.14828491 -2.001416922 0.8527554274 
-32.70706558 -22.62575722 -2.001416922 0.8527553678 
-20.14119148 -20.05179214 -1.43026042 0.8924122453 
-23.63309479 -28.13659668 -1.849167705 0.863150835 
-16.23786163 -21.17802238 -1.342990041 0.8986320496 
-7.39043951 -14.33081055 -0.811442852 0.9374625087 
-6.543105125 -16.04849052 -0.8721764088 0.9329422116 
-5.732397556 -16.07016563 -0.858633697 0.9339482784 
-3.981049776 -12.95501423 -0.6820420623 0.9471666813 
-3.362587929 -12.97155762 -0.6743638515 0.9477456808 
-2.897680521 -13.65253353 -0.7023603916 0.9456362724 
-2.271171808 -13.66929626 -0.6973297 0.9460149407 
-1.652236342 -13.68584442 -0.6937329173 0.9462857842 
0.7963769436 -13.75133228 -0.6931892037 0.9463269114 
1.414091706 -13.76786137 -0.6965044737 0.9460771084 
2.673603535 -13.801548 -0.7074671984 0.9452520609 
3.320859194 -13.81885719 -0.7152245641 0.9446686506 
4.665849686 -13.85482407 -0.735712409 0.9431296587 
5.370551586 -13.8736763 -0.7486706972 0.9421574473 
6.864687443 -13.91365242 -0.7807807922 0.9397528768 
8.092133522 -13.27794933 -0.7825191617 0.939622879 
9.009931564 -13.40355396 -0.8127567768 0.9373643994 
11.86072731 -13.37874985 -0.899764061 0.930896163 
18.36249161 -15.84613705 -1.220594645 0.907428205 
18.88413811 -13.56656456 -1.170150995 0.9110784531 
20.85196495 -13.61633492 -1.253279209 0.9050708413 
29.80061531 -14.21135235 -1.661497712 0.8761394024 
34.48373795 -12.82200432 -1.851454735 0.8629938364 
34.98614502 -11.26460934 -1.849668026 0.8631165028 
39.14167404 -7.041460037 -2.001401663 0.8527564406 
39.77000427 -7.324218586e-06 -2.001401663 0.8527564406 
34.58946228 3.086496592 -1.747611046 0.8701554537 
12.3506422 2.221840858 -0.6315165758 0.9509829879 
11.17377377 2.527968645 -0.5765252709 0.9551540017 
11.0623436 3.025771379 -0.577154994 0.9551061392 
34.99338913 11.26692486 -1.850051284 0.8630902171 
34.42569351 12.80037785 -1.848337173 0.8632079363 
33.09067917 15.78032112 -1.844931483 0.8634419441 
30.62896156 20.00071526 -1.840911865 0.863718152 
25.38250923 26.18590927 -1.835270762 0.8641059995 
22.92879868 28.30633163 -1.833203197 0.8642482162 
10.90063953 16.21624565 -0.9833120704 0.924726963 
8.960189819 16.29175186 -0.9356910586 0.9282382727 
8.084033012 16.38506889 -0.9194672704 0.9294375181 
7.932704926 18.06183624 -0.9927539825 0.9240323901 
11.30649853 33.57361221 -1.782809973 0.8677213788 
8.480669022 35.29005432 -1.826512694 0.8647085428 
5.309072018 35.89404297 -1.825998664 0.8647438884 
3.706655264 36.09174347 -1.825849295 0.8647542 
2.097563505 36.21935654 -1.825772047 0.8647595048 
0.4841943383 36.27415085 -1.825642943 0.8647687435 
-3.49599123 7.590009689 -0.4205338955 0.9670857787 
-5.817856312 7.58771944 -0.4811732471 0.9624298215 
-6.225571156 7.411884785 -0.4871183634 0.9619746208 
-8.85781765 7.373085976 -0.5799828768 0.9548911452 
-16.51223564 7.516723633 -0.9130164981 0.9299147725 
-38.06743622 11.51291466 -2.001416922 0.8527554274 
-38.54192734 9.807983398 -2.001416922 0.8527554274 
-17.76408577 2.064457893 -0.8999836445 0.9308798313 
-18.29092789 0.4884765446 -0.9208080173 0.929338336 
-39.54347992 -4.239340782 -2.001405954 0.8527561426 
-38.62737656 -9.464653015 -2.00140357 0.852756381 
-11.98189926 -3.507700205 -0.6282883883 0.9512271881 
-11.72265148 -4.005947113 -0.6234294176 0.9515951276 
-11.81276798 -4.633290768 -0.6385620236 0.9504497647 
-35.58696747 -17.75513077 -2.001416922 0.8527554274 
-24.2799263 -19.84719276 -1.578153491 0.8819699883 
-22.16154671 -19.82375526 -1.496350169 0.8877307177 
-20.13147354 -19.68861771 -1.417075276 0.8933492303 
-23.88209915 -27.92477417 -1.84913826 0.8631529212 
-16.34778786 -20.93266106 -1.336610079 0.8990883827 
-19.44933128 -27.32847023 -1.688023806 0.8742917776 
-17.67458916 -27.33156204 -1.637984872 0.8777804375 
-9.349033356 -15.97345638 -0.931417346 0.9285539985 
-6.708554745 -16.04405785 -0.8751482368 0.9327215552 
-5.89250946 -16.06589317 -0.8611719608 0.9337595701 
-3.485156059 -12.96827126 -0.6757777333 0.9476389885 
-0.5495312214 -13.71533203 -0.6907699704 0.946508944 
0.06108886749 -13.73166466 -0.6910452247 0.9464882612 
0.6735156178 -13.74805164 -0.692692101 0.9463641644 
2.545659065 -13.79812431 -0.7061015368 0.9453548193 
3.190278292 -13.81536102 -0.7135467529 0.9447948337 
3.84982419 -13.83300781 -0.7225949168 0.9441146851 
4.527802467 -13.85114193 -0.7333480716 0.9433071017 
5.227534294 -13.86985779 -0.7459226847 0.9423635602 
7.44529295 -13.82723141 -0.7903112769 0.9390405416 
8.838266373 -13.40422821 -0.8079980016 0.9377194643 
11.64477062 -13.37296867 -0.892372787 0.9314439893 
18.31568146 -17.59638214 -1.278180838 0.9032791853 
18.52027512 -13.55683327 -1.15503943 0.9121747613 
25.9235096 -14.10765076 -1.485255957 0.8885148764 
29.09117126 -14.19236755 -1.6289258 0.8784134984 
34.8898735 -11.57721424 -1.849951267 0.8630970716 
38.71003723 -9.1206007 -2.001401663 0.8527564406 
39.71330643 -2.122548819 -2.001401663 0.8527565002 
39.74470901 1.415354013 -2.001401663 0.8527567387 
39.46171188 4.942260742 -2.001401663 0.8527564406 
11.23354912 2.436537981 -0.5784670711 0.9550064206 
11.22698212 3.504750967 -0.5918810964 0.9539874196 
34.54460907 12.49591064 -1.848679423 0.8631843925 
33.92309952 14.00738239 -1.846970201 0.8633018732 
30.31568718 15.80532646 -1.720513105 0.8720340729 
25.61758232 25.96175385 -1.835477352 0.8640918136 
24.42333031 27.06031036 -1.834433436 0.8641636372 
23.18248177 28.10407829 -1.833402634 0.8642345071 
12.14818859 16.13949203 -1.01658082 0.9222818613 
11.07874966 16.16832542 -0.9863501787 0.924503386 
7.932079792 17.63263702 -0.9730035663 0.925485909 
8.461796761 33.88175583 -1.757454634 0.8694743514 
5.628329754 35.846138 -1.826037049 0.8647412658 
4.027968884 36.05777359 -1.825873375 0.8647525311 
2.419745922 36.19945908 -1.825781703 0.8647587895 
0.8072509766 36.26882172 -1.825665593 0.864767313 
-0.7183398008 10.74628353 -0.5420074463 0.9577814937 
-1.045019507 9.354799271 -0.473703146 0.9630022049 
-2.774008751 9.321679115 -0.4894399941 0.9617969394 
-2.655268431 7.65842247 -0.4079147279 0.9680575728 
-3.105883837 7.81607914 -0.4232578874 0.9668762088 
-3.878217697 7.687363148 -0.433305949 0.9661033154 
-9.520853996 16.95186043 -0.9784342647 0.9250860214 
-4.61105442 7.416718483 -0.4394958317 0.9656274319 
-6.097260475 7.39166975 -0.4822053313 0.9623507857 
-6.61708498 7.331523418 -0.4970083535 0.9612177014 
-9.585629463 7.417665958 -0.6099546552 0.9526160955 
-10.4237299 7.348798752 -0.6418264508 0.9502029419 
-12.8260107 7.430453777 -0.7459533811 0.9423612356 
-18.13817406 7.489321232 -0.9875420928 0.924415648 
-37.96350098 11.85114765 -2.001416922 0.8527553678 
-38.45306015 10.15082455 -2.001416922 0.8527554274 
-38.86655807 8.430092812 -2.001416922 0.8527554274 
-17.57898903 3.001191378 -0.8974519968 0.9310673475 
-17.73315811 2.220927715 -0.8993828297 0.930924356 
-17.88828659 1.435903311 -0.9031130672 0.9306480289 
-18.04504395 0.6426220536 -0.9086817503 0.9302356839 
-36.48390198 -15.83037567 -2.001416922 0.8527554274 
-33.10464096 -22.03997421 -2.001416922 0.8527553678 
-20.42614174 -19.62397003 -1.425458074 0.8927533627 
-16.53334427 -20.78635788 -1.336610079 0.8990885615 
-9.53783226 -15.96840763 -0.9360343218 0.9282128811 
-7.715922832 -14.32984352 -0.8190368414 0.9368960857 
-6.874975204 -16.03961372 -0.8782073259 0.9324945211 
-3.60825181 -12.96498966 -0.6772521734 0.9475277662 
-3.151103497 -13.64575672 -0.7047861814 0.9454537034 
-2.520659208 -13.66261673 -0.6991667151 0.945876658 
-1.899077058 -13.67924786 -0.6950019598 0.9461901784 
-1.283535123 -13.69571304 -0.6922483444 0.946397543 
-0.06107421592 -13.72839355 -0.6908805966 0.946500659 
0.5507079959 -13.74477005 -0.6922523379 0.9463973045 
1.78797853 -13.77785587 -0.6991767883 0.9458759427 
3.060297728 -13.81188965 -0.7119326591 0.9449161887 
3.716577053 -13.82943344 -0.7206530571 0.9442606568 
4.390625 -13.84747028 -0.7310564518 0.9434791207 
7.766294003 -13.26922321 -0.7737353444 0.9402801394 
8.668549538 -13.40483379 -0.8033540249 0.9380661845 
18.26407433 -19.52569771 -1.345488548 0.8984533548 
18.34735489 -16.41191864 -1.238815427 0.9061132669 
18.41892815 -13.73599052 -1.156295419 0.9120836258 
20.03050232 -13.59436226 -1.21825397 0.9075972438 
28.4095459 -14.17414474 -1.597757339 0.880595088 
34.79080963 -11.88896942 -1.850233912 0.8630776405 
38.6273613 -9.464623451 -2.001401663 0.8527565002 
39.01012039 -7.737148285 -2.001401663 0.8527564406 
39.31570053 -5.994013309 -2.001401663 0.8527564406 
39.69284439 -2.475934982 -2.001401663 0.8527565002 
39.76369476 -0.7080127001 -2.001401663 0.8527564406 
39.50411606 4.59099102 -2.001401663 0.8527564406 
36.27467346 5.861379147 -1.849179506 0.8631500602 
34.6608429 12.19032764 -1.849022031 0.8631609082 
29.0994606 22.10659409 -1.839066625 0.8638450503 
28.06930923 23.36441612 -1.837897301 0.863925457 
26.98566055 24.57465553 -1.836764336 0.8640033007 
24.66599083 26.84505844 -1.834646225 0.8641489744 
23.43418121 27.89977264 -1.833604097 0.8642206788 
10.75355434 16.95834351 -1.010537028 0.9227255583 
9.33058548 16.27230835 -0.9439662695 0.9276271462 
8.426576614 16.34000397 -0.9252073169 0.9290130734 
12.20076656 34.20353317 -1.827504277 0.8646402955 
10.64354992 34.63592529 -1.82347548 0.8649175763 
9.108232498 35.13604355 -1.826650023 0.8646993637 
5.947465897 35.79540634 -1.826078415 0.8647384048 
4.348701 36.02103424 -1.825900435 0.8647506833 
-0.3579296768 26.80072784 -1.348850965 0.8982129097 
-0.9640624523 9.386274338 -0.4748438895 0.9629147649 
-1.116059542 7.545551777 -0.3838566542 0.9699127078 
-2.236669779 9.307304382 -0.4817207158 0.962387979 
-2.68326664 9.319252968 -0.4880386293 0.9619041085 
-9.24037075 27.43849564 -1.457029343 0.8905134201 
-9.401703835 21.40660095 -1.176595926 0.9106112123 
-3.795825005 7.693510532 -0.4317314029 0.9662243724 
-9.511693954 17.294487 -0.9932815433 0.9239935279 
-5.451283932 7.378026962 -0.4616477787 0.9639265537 
-6.100854397 7.531684399 -0.4877749383 0.9619243145 
-6.524516582 7.359565258 -0.4949543774 0.9613748789 
-7.764369965 7.327719688 -0.5372732282 0.9581424594 
-8.65607357 7.469862938 -0.5753877163 0.9552404881 
-10.03136253 7.206640244 -0.6215905547 0.9517344236 
-13.71899891 7.308456898 -0.7822571993 0.939642489 
-15.42226982 7.354560375 -0.8598493934 0.9338578582 
-38.36122513 10.49255371 -2.001416922 0.8527553678 
-38.78995514 8.775883675 -2.001416922 0.8527554274 
-17.85716248 1.593432546 -0.9022217393 0.9307140112 
-33.64031601 -1.464843717e-05 -2.0014081 0.8738913536 
-33.507164 -2.989946127 -2.001406908 0.8738914132 
-33.34096909 -4.477495193 -2.001406431 0.8738915324 
-33.10878372 -5.956225395 -2.001405716 0.8738915324 
-19.33953476 -8.18770504 -1.249459982 0.9192897677 
-27.42948151 -14.61234379 -1.849017024 0.882907033 
-26.02211761 -16.99240112 -1.849012613 0.882907331 
-25.24038506 -18.13306046 -1.84900558 0.8829077482 
-24.40925217 -19.23828506 -1.849042416 0.8829055429 
-23.53061485 -20.30623055 -1.849147439 0.8828992844 
-22.60538101 -21.33411026 -1.849257469 0.8828927875 
-18.52347565 -20.89428139 -1.661255956 0.8941432834 
-19.56850052 -24.15775299 -1.849616647 0.8828713894 
-14.20228004 -21.12775803 -1.514579415 0.9030202627 
-2.645986319 -13.65926266 -0.8277553916 0.945774436 
-2.022802591 -13.67593765 -0.8224923611 0.9461097717 
-1.406284094 -13.69242668 -0.8189063668 0.9463382959 
-0.1832372993 -13.72512627 -0.8166404366 0.9464827776 
1.662963867 -13.77451134 -0.825456202 0.9459209442 
2.930795908 -13.80842781 -0.8398236036 0.9450060725 
4.944794655 -13.86228466 -0.875626862 0.9427300096 
7.606147289 -13.26494122 -0.9097251892 0.940567553 
9.905414581 -12.91891098 -0.9685260653 0.9368497729 
10.8728857 -12.94478989 -1.005765915 0.9345028996 
18.2990551 -18.21781731 -1.536226153 0.901704669 
18.33962059 -16.70121574 -1.475738287 0.9053857327 
18.37718391 -15.29681587 -1.422541142 0.9086354971 
19.63638687 -13.58382511 -1.420542002 0.9087578654 
24.80649567 -14.07777309 -1.696940303 0.8919968605 
28.34434319 -12.90287781 -1.852831721 0.8826802373 
29.35715675 -10.32490444 -1.851455808 0.8827620745 
32.19981384 -9.738388062 -2.001401663 0.8738917112 
33.2094841 -5.365978718 -2.001401663 0.8738917112 
33.62822342 -0.8980566263 -2.001401663 0.8738917112 
33.63488388 0.5987353325 -2.001401663 0.8738917112 
33.44855881 3.585829973 -2.001401663 0.8738917112 
11.24101067 2.229472637 -0.6818028092 0.9551174641 
29.44396973 10.06188488 -1.851209641 0.8827766776 
27.78844833 13.86422348 -1.847598076 0.8829914331 
26.41312408 16.25882339 -1.845285773 0.8831289411 
25.64842987 17.4073143 -1.844186306 0.8831943274 
24.83444786 18.52036858 -1.843127728 0.8832573295 
22.10069847 21.61439896 -1.839158773 0.8834935427 
21.11728668 22.57602882 -1.839151382 0.8834939003 
10.71180153 16.56456566 -1.173603892 0.9239985347 
9.377821922 16.02255821 -1.104522943 0.9283077121 
7.842826843 16.63612747 -1.09422791 0.9289516211 
7.887084961 18.86281204 -1.21638155 0.9213401675 
10.60896015 28.9251709 -1.832980633 0.8838611841 
9.309706688 29.36196136 -1.83257544 0.883885324 
7.992856503 29.74142075 -1.832229853 0.8839058876 
5.316132545 30.32450104 -1.831649184 0.8839404583 
2.598994017 30.66691399 -1.831047893 0.8839762807 
-0.1369238198 30.76968765 -1.830640197 0.8840005398 
-0.6951904297 14.19119072 -0.8453083038 0.9446570277 
-1.377695322 7.467368126 -0.4517640471 0.9700309634 
-2.044506788 7.346152306 -0.4536657631 0.9699067473 
-3.083945274 7.194975376 -0.4657259881 0.9691193104 
-4.310053825 7.215883732 -0.5000559688 0.9668810368 
-6.863398075 7.207827091 -0.5921371579 0.9609030485 
-8.208100319 7.211772442 -0.6500490904 0.9571623802 
-9.139199257 7.335898399 -0.697227478 0.954125762 
-11.26104927 7.497231483 -0.8048655391 0.9472335577 
-12.33218193 7.440659046 -0.8568946719 0.9439200163 
-13.4753952 7.333349228 -0.9127375484 0.9403765798 
-32.36829376 9.163793564 -2.001416922 0.8738908172 
-32.74386978 7.714868069 -2.001416206 0.8738908768 
-17.98225021 0.9611279368 -1.071368814 0.9303829074 
-33.63897705 0.29937011 -2.0014081 0.8738914132 
-33.37948608 -4.180620193 -2.001406431 0.8738915324 
-33.16048431 -5.661323071 -2.001405716 0.8738915324 
-27.55842781 -14.36765099 -1.849016666 0.8829070926 
-26.17232895 -16.76016045 -1.849014044 0.8829072118 
-23.71012688 -20.09578514 -1.849125981 0.8829005957 
-14.18325615 -20.69920349 -1.492846966 0.904343009 
-7.616455078 -15.09731865 -1.006033897 0.9344860315 
-6.378930569 -16.05288124 -1.027695775 0.9331236482 
-3.375590801 -13.51593208 -0.8288199306 0.9457066655 
-2.14682126 -13.67262173 -0.8234092593 0.9460513592 
-0.9161767364 -13.70552731 -0.8172210455 0.9464457631 
-0.3053515553 -13.72187424 -0.8165752888 0.9464868903 
0.3057177663 -13.73821259 -0.8175479174 0.9464249015 
0.9194530845 -13.75462341 -0.8201487064 0.946259141 
1.538344741 -13.77118587 -0.8244033456 0.9459879994 
3.45212388 -13.82235813 -0.8476116657 0.9445105195 
4.11864233 -13.84018993 -0.8590993285 0.943780005 
4.804868221 -13.85854912 -0.8726550341 0.9429187179 
7.459863186 -13.28237724 -0.9063296318 0.940782547 
8.873969078 -12.95075607 -0.9340224862 0.9390294552 
9.720351219 -12.91396427 -0.9616311193 0.9372849464 
18.36989021 -15.56958008 -1.432646394 0.9080172777 
21.28090477 -13.62780762 -1.50344646 0.9036976695 
24.27560425 -14.06356907 -1.669119835 0.8936698437 
27.12119102 -14.13968277 -1.819680095 0.8846533298 
28.23493195 -13.15765858 -1.853260398 0.8826547265 
28.75881958 -11.87483406 -1.851106882 0.8827828169 
29.22720909 -10.57241154 -1.849121213 0.8829008937 
32.11187363 -10.02455521 -2.001401663 0.8738917112 
32.52600861 -8.586181641 -2.001401663 0.8738917112 
32.8757515 -7.130820274 -2.001401663 0.8738917112 
33.37943649 -4.180600643 -2.001401663 0.8738917112 
33.53235626 -2.691606283 -2.001401663 0.8738917112 
33.63888168 0.2993945181 -2.001401663 0.8738917112 
33.59226227 1.795483351 -2.001401663 0.8738917112 
33.29973221 4.774028301 -2.001401663 0.8738917112 
10.76797295 2.537075043 -0.6581753492 0.9566386342 
10.67971134 3.023535013 -0.6603550315 0.9564982057 
27.26348495 14.83690166 -1.846655726 0.8830474615 
24.13712311 19.37452888 -1.841416597 0.8833590746 
22.292202 21.41687393 -1.839158773 0.8834934831 
20.29243851 23.30418396 -1.838430882 0.8835368156 
11.4885006 15.84220219 -1.164267898 0.9245797396 
9.571059227 29.27915955 -1.832651734 0.883880794 
6.928364277 30.00323105 -1.831996441 0.8839197755 
5.585971355 30.27698135 -1.831709385 0.883936882 
4.232885838 30.49030685 -1.831397414 0.8839554191 
2.871909142 30.64345169 -1.831100702 0.8839731216 
-0.8008544445 9.449726105 -0.5642207265 0.962711513 
-1.310815454 7.477211952 -0.4516363442 0.9700393081 
-2.071669817 9.350141525 -0.5697709322 0.9623516798 
-1.9706738 7.332885742 -0.4517453015 0.9700322151 
-2.775571108 7.567519188 -0.4795527458 0.9682171345 
-3.378862143 7.167182446 -0.4714173675 0.9687478542 
-3.826645374 7.260819912 -0.4882999957 0.9676469564 
-4.245297909 7.253324986 -0.5000120401 0.9668838382 
-5.124545574 7.20053196 -0.525805831 0.9652056098 
-5.665092468 7.253935337 -0.5475839376 0.9637908936 
-6.794872761 7.264252663 -0.5917805433 0.9609261751 
-9.93782711 7.411176682 -0.737552166 0.9515379071 
-12.10666466 7.452348232 -0.8457999825 0.9446256757 
-16.87996483 7.503412724 -1.099009633 0.9286524057 
-19.46367073 7.634155273 -1.243864655 0.9196362495 
-26.25391006 7.685776234 -1.627513647 0.8961776495 
-32.99760056 6.544565201 -2.001410484 0.873891294 
-17.95090866 1.119746089 -1.070052624 0.9304654002 
-33.55506134 -2.393110275 -2.001407146 0.8738914728 
-33.4153862 -3.883383751 -2.001406431 0.8738914728 
-33.20956421 -5.365971565 -2.001405954 0.8738914728 
-32.93798447 -6.837944031 -2.001405478 0.8738915324 
-13.1949749 -3.357880831 -0.8100458384 0.9469031692 
-11.61473083 -3.512714863 -0.7219209671 0.9525401592 
-11.36900806 -3.99848628 -0.7170034647 0.9528556466 
-27.68515587 -14.12183571 -1.849015713 0.8829072118 
-27.02959824 -15.33941364 -1.849017024 0.882907033 
-17.98222542 -13.66102028 -1.343550086 0.9134825468 
-23.88777351 -19.88373566 -1.849104762 0.8829018474 
-22.9809761 -20.92789459 -1.849212885 0.8828953505 
-19.9948082 -23.80500412 -1.84956646 0.8828744292 
-14.17240715 -20.29361725 -1.472635508 0.9055749774 
-9.162075043 -15.97845173 -1.095817685 0.9288521409 
-7.381640434 -16.02606964 -1.049739242 0.9317392707 
-6.543149471 -16.04848671 -1.031101704 0.9329096079 
-3.981074095 -12.95501423 -0.8063217998 0.9471408129 
-2.897695303 -13.65252399 -0.8303418756 0.9456097484 
-1.652255774 -13.68584442 -0.8201423287 0.9462595582 
-1.038525343 -13.70226002 -0.8175447583 0.9464251399 
-0.4274511635 -13.71860313 -0.8165751696 0.9464869499 
0.7963818312 -13.75133801 -0.8194972277 0.9463006258 
2.038867235 -13.78456974 -0.8290258646 0.9456935525 
3.320878744 -13.81885719 -0.8455506563 0.9446415901 
4.665863991 -13.85482883 -0.8697711825 0.9431018829 
5.370517254 -13.87367153 -0.8850899339 0.9421293736 
6.864648342 -13.91365719 -0.9230502844 0.9397236109 
7.452685356 -13.55067825 -0.9200741649 0.9399120212 
8.758368492 -13.02921867 -0.9340224862 0.9390294552 
9.537899971 -12.90908623 -0.9549090862 0.9377093911 
10.47707462 -12.93419933 -0.9902954102 0.9354771972 
18.39847374 -14.50083923 -1.39371562 0.9104013443 
23.76177406 -14.04982376 -1.642322779 0.8952842355 
29.13724518 -10.83407974 -1.849456787 0.8828809261 
31.98690414 -10.29885197 -1.999247074 0.8740185499 
32.81099701 -7.423100471 -2.001401663 0.8738917112 
33.34090805 -4.477509499 -2.001401663 0.8738917112 
33.6402092 -1.464843717e-05 -2.001401663 0.8738917112 
33.60690689 1.496423364 -2.001401663 0.8738917708 
10.67659664 2.920288086 -0.6585296392 0.9566158056 
10.82323742 3.484770536 -0.6764745712 0.95546031 
29.15330505 10.84003925 -1.850475907 0.8828203082 
28.03808975 13.37090778 -1.848077536 0.8829628825 
26.70483398 15.79000473 -1.845736384 0.8831021786 
25.96031189 16.95205307 -1.84462142 0.8831684589 
25.16586113 18.07950974 -1.843546152 0.8832324743 
24.32305145 19.17035103 -1.842512608 0.8832939267 
21.46876907 22.14811325 -1.835134268 0.8837329745 
11.70710468 15.84498501 -1.172082305 0.9240931869 
10.94785595 17.96383667 -1.251581907 0.9191584587 
8.816957474 16.03125381 -1.088502049 0.9293099046 
7.861640453 17.89991188 -1.163128734 0.9246506691 
8.521533012 29.59656715 -1.832360744 0.8838980794 
7.195317268 29.94128418 -1.832051158 0.8839164972 
5.855390549 30.227108 -1.831772089 0.8839331269 
4.504218578 30.452528 -1.831463099 0.8839514852 
0.4107861221 30.76831055 -1.830704093 0.8839967847 
-0.5783349276 18.56028366 -1.104767323 0.9282923937 
-0.7434179783 9.80859375 -0.5852293372 0.9613502622 
-1.217729449 7.329160213 -0.4420213103 0.9706677198 
-1.589497089 7.488872051 -0.4554708898 0.9697888494 
-1.960502863 7.562943935 -0.4648254216 0.969178021 
-2.271767616 7.3926754 -0.4601213038 0.9694851041 
-3.125693321 7.666371822 -0.4925597906 0.9673693776 
-3.318032265 7.20365715 -0.4718556106 0.9687193036 
-4.621977329 7.288779259 -0.5134786963 0.9660073519 
-5.038056374 7.214042664 -0.5234972835 0.9653556347 
-5.582138538 7.280365944 -0.5458064079 0.9639062285 
-8.805853844 7.329814434 -0.681642592 0.9551277757 
-10.48150826 7.250761509 -0.758256495 0.9502119422 
-12.95602989 7.352578163 -0.8862836957 0.9420535564 
-32.20008087 9.738422394 -2.001416922 0.8738908172 
-32.9380722 6.837954044 -2.001411915 0.8738911748 
-17.60990715 2.845380783 -1.061277986 0.9310154915 
-17.76421928 2.064467669 -1.063983321 0.9308458567 
-17.91963387 1.278002858 -1.06882441 0.9305423498 
-33.63497543 -0.5987939239 -2.001407862 0.8738914132 
-33.5750351 -2.094399452 -2.001407385 0.8738914132 
-33.44862747 -3.585864067 -2.00140667 0.8738914728 
-33.25598907 -5.070239067 -2.001405954 0.8738915324 
-13.74501896 -3.367890596 -0.8419399858 0.9448713064 
-11.80575657 -3.456103325 -0.7318531871 0.9519031644 
-11.38439465 -3.890380859 -0.7157615423 0.9529353976 
-11.37583447 -4.461889744 -0.7269945145 0.9522147179 
-25.71551132 -17.45283699 -1.849009395 0.8829075098 
-24.06351089 -19.67014122 -1.849083781 0.8829030395 
-20.31335831 -19.86642075 -1.690420747 0.8923885822 
-18.62495041 -19.91157722 -1.622090578 0.8965050578 
-16.36286545 -20.95207024 -1.581623197 0.8989518285 
-14.16185474 -19.89889145 -1.45307982 0.9067685008 
-16.8848381 -26.11043358 -1.849931717 0.8828526735 
-9.349081993 -15.97344685 -1.101137757 0.9285193682 
-7.553085804 -16.02147865 -1.053800464 0.9314844608 
-6.708471298 -16.04406166 -1.034612536 0.9326890707 
-5.89250946 -16.06589317 -1.018090963 0.9337274432 
-4.106533051 -12.95165539 -0.8083553314 0.9470111132 
-3.485156059 -12.96827126 -0.7989152074 0.9476134181 
-2.395756721 -13.66596127 -0.8254458904 0.9459215999 
-1.160986304 -13.69898415 -0.817933321 0.9464003444 
0.6734862924 -13.74804211 -0.8189117908 0.9463379979 
1.290014625 -13.76454067 -0.8225007653 0.9461092353 
1.913212895 -13.7812109 -0.8277670741 0.9457737207 
3.190243959 -13.81535625 -0.8435659409 0.944767952 
3.849858284 -13.83300304 -0.8542639613 0.9440873861 
4.527802467 -13.85114193 -0.8669754863 0.9432794452 
5.227597713 -13.86985302 -0.8818431497 0.9423353672 
5.953276157 -13.88927746 -0.8990406394 0.941244483 
6.709350586 -13.90949631 -0.918777287 0.9399941564 
7.445287704 -13.82723141 -0.9343160987 0.9390108585 
10.28366661 -12.92902756 -0.9828525186 0.9359462261 
11.64471626 -13.37296867 -1.054971457 0.9314109087 
18.31567574 -17.59646034 -1.511085272 0.9032328725 
18.39147186 -14.76258278 -1.403082728 0.9098271132 
20.43530464 -13.60519218 -1.460587144 0.9063102007 
22.65229416 -13.66736317 -1.573985577 0.8994144201 
28.55625153 -12.3905592 -1.851970911 0.8827314377 
29.04514122 -11.09503174 -1.849804759 0.8828601837 
32.36803436 -9.163744926 -2.001401663 0.8738917112 
33.29973221 -4.774067402 -2.001401663 0.8738917112 
33.59226608 -1.79544425 -2.001401663 0.8738917112 
33.63888931 -0.29937011 -2.001401663 0.8738917112 
33.61889648 1.197285175 -2.001401663 0.8738917112 
33.37943268 4.180578709 -2.001401663 0.8738917112 
10.68742657 2.821269512 -0.657622993 0.9566742778 
10.7678175 3.361464739 -0.6711145043 0.9558053017 
29.25246048 10.5815649 -1.850719094 0.8828058243 
28.73412132 11.86462402 -1.849516511 0.8828773499 
28.15964699 13.1225729 -1.848319173 0.8829485774 
26.84762573 15.5536108 -1.845963955 0.8830886483 
26.11327553 16.72231674 -1.844841242 0.8831554055 
25.32864952 17.85692024 -1.843757868 0.8832198381 
22.68866348 21.0341053 -1.840682745 0.8834028244 
12.14823246 16.13949203 -1.201816797 0.9222443104 
11.07871056 16.16832542 -1.166077495 0.9244670272 
10.93794441 17.5933094 -1.232499957 0.920340538 
9.002397537 16.02893066 -1.093741298 0.928982079 
8.115517616 16.08655739 -1.071953177 0.9303463101 
10.09153271 29.10671806 -1.832811594 0.8838712573 
8.784955978 29.52066422 -1.832430124 0.8838939667 
7.461762428 29.87698174 -1.832108378 0.8839130998 
6.12436533 30.17487717 -1.831836939 0.8839292526 
2.907856464 26.03120613 -1.558341622 0.9003625512 
2.05264163 30.7066555 -1.83094871 0.8839821219 
-0.4881005883 21.93397903 -1.305270195 0.915840745 
-0.7183446884 10.74606419 -0.6407566667 0.9577616453 
-2.260107279 7.594785213 -0.4714301825 0.9687469602 
-2.598310471 7.494228363 -0.4719026089 0.9687162042 
-3.078881741 7.748119831 -0.4960314929 0.967143178 
-3.251786947 7.228461742 -0.4715656936 0.9687381983 
-3.692983389 7.320195198 -0.4877940118 0.9676798582 
-4.071381569 7.249165058 -0.4946504235 0.9672331214 
-5.44230938 7.23034668 -0.5384050012 0.9643868804 
-7.181176662 7.277675629 -0.6082803011 0.9598588347 
-7.750277996 7.185102463 -0.6287638545 0.958535552 
-8.602870941 7.291445255 -0.6709272861 0.9558173418 
-9.540688515 7.382826805 -0.717715919 0.9528099895 
-11.52767086 7.382040977 -0.8144013882 0.9466254115 
-15.77743149 7.352367878 -1.035584569 0.9326279163 
-18.15727043 7.497309208 -1.168719769 0.9243024588 
-32.11210251 10.02467251 -2.001416922 0.8738908172 
-32.52626419 8.586215973 -2.001416922 0.8738908172 
-32.87598038 7.130825043 -2.001414061 0.8738909364 
-17.57913017 3.001171827 -1.060990572 0.9310334921 
-17.73329544 2.220991135 -1.063272834 0.9308903813 
-33.63897705 -0.29937011 -2.001407862 0.8738914132 
-33.47923279 -3.28806138 -2.001406908 0.8738914132 
-12.07268047 -3.417905092 -0.7464848757 0.9509655237 
-11.4193697 -3.789189339 -0.7158123851 0.9529321194 
-11.35896969 -4.339037895 -0.7234201431 0.9524439573 
-19.39543343 -8.415683746 -1.257860422 0.9187698364 
-27.93208885 -13.62683105 -1.849012733 0.882907331 
-26.6104641 -16.05554581 -1.849017024 0.882907033 
-20.41477585 -23.44474602 -1.849516869 0.8828773499 
-19.35296822 -24.33130836 -1.849642038 0.8828698993 
-14.34884739 -19.78651237 -1.454140902 0.9067037106 
-7.710419655 -14.31962872 -0.9675876498 0.9369089603 
-6.053627968 -16.06157684 -1.021191478 0.933532536 
-4.232636452 -12.94828606 -0.8104634881 0.9468766451 
-3.608281136 -12.96498489 -0.800658226 0.9475021362 
-3.151078939 -13.64575672 -0.833209157 0.9454271197 
-2.520688534 -13.66261196 -0.8265665174 0.9458502531 
-1.283559561 -13.69570732 -0.81838727 0.9463713765 
0.5507665873 -13.74477005 -0.8183919191 0.9463710785 
1.787919879 -13.77785587 -0.826577127 0.9458495378 
4.390561581 -13.84746552 -0.8642653227 0.943451643 
7.339550495 -13.92634201 -0.936562717 0.9388688207 
8.525082588 -13.18304634 -0.9340224862 0.9390294552 
9.180454254 -12.89952564 -0.941963613 0.9385273457 
11.07547379 -12.95020962 -1.01380527 0.933997035 
18.26407433 -19.52569771 -1.590658545 0.8984050155 
18.34735489 -16.41191864 -1.464547992 0.9060683846 
20.0303154 -13.59435749 -1.440229297 0.9075536132 
22.1827507 -13.65480232 -1.549741983 0.9008842111 
27.88760376 -13.91371822 -1.854189754 0.8825994134 
28.45146179 -12.64714336 -1.852401733 0.8827058077 
32.28519821 -9.451425552 -2.001401663 0.8738917708 
32.67367935 -8.005908012 -2.001401663 0.8738917112 
33.25593185 -5.070214748 -2.001401663 0.8738917112 
33.63487244 -0.5987280011 -2.001401663 0.8738917708 
33.62822342 0.8980566263 -2.001401663 0.8738917112 
33.55498505 2.393088341 -2.001401663 0.8738917112 
33.41530991 3.883373976 -2.001401663 0.8738917708 
33.20949173 5.365962029 -2.001401663 0.8738917112 
10.70078564 2.723139524 -0.6569271684 0.9567191005 
10.70723629 3.238242149 -0.6655160189 0.9561657906 
29.34934235 10.32218933 -1.850963712 0.8827912807 
28.8422699 11.60993385 -1.849754333 0.8828632236 
28.27902985 12.87315655 -1.848562241 0.8829340935 
26.26420784 16.49124146 -1.845062613 0.8831422329 
25.48953819 17.63280487 -1.843971372 0.8832071424 
24.66588593 18.7385273 -1.842920899 0.883269608 
21.9163475 21.81905174 -1.839902282 0.8834492564 
20.9134388 22.76082039 -1.838968277 0.8835048079 
11.24976063 16.1086235 -1.168946624 0.9242884517 
10.71610832 16.89915466 -1.190507531 0.9229472876 
9.189437866 16.02622986 -1.099094033 0.9286472201 
8.287787437 16.0708046 -1.075775385 0.9301068187 
7.852499962 17.04838753 -1.116701841 0.9275465012 
9.047660828 29.44247055 -1.832501531 0.8838896751 
6.392929554 30.12010765 -1.831894279 0.8839258552 
5.045912743 30.36963272 -1.83159101 0.883943975 
2.84974122 23.60492706 -1.414556384 0.9091242552 
0.9583398104 30.75737762 -1.83077693 0.8839923739 
-0.7398681641 12.77545357 -0.7613404393 0.9500145912 
-0.7382568121 7.188100338 -0.4299007952 0.971460402 
-1.061176777 7.174516678 -0.4314869642 0.9713566303 
-1.461108327 7.542646408 -0.4570867717 0.9696832895 
-1.836967707 7.643979549 -0.4677217007 0.968988955 
-3.004892588 7.762509823 -0.4952210784 0.9671959877 
-3.150566339 7.173398495 -0.4661256373 0.9690931439 
-4.07824707 7.415165901 -0.5034814477 0.9666579962 
-4.407812595 7.232568264 -0.5039097667 0.9666300416 
-4.891313553 7.276484013 -0.5216280818 0.9654772878 
-5.374067307 7.273515224 -0.5380366445 0.9644108415 
-7.007592678 7.229326248 -0.5990037322 0.9604588151 
-7.540971279 7.116884708 -0.6168968081 0.9593019485 
-8.538832664 7.368749619 -0.6710219979 0.9558113217 
-9.415571213 7.420927525 -0.7132424712 0.9530969858 
-10.03463364 7.209057331 -0.7350959778 0.951695323 
-13.75175285 7.325864315 -0.9270034432 0.9394735098 
-15.38406181 7.336386681 -1.014009833 0.9339841008 
-32.44855881 8.875405312 -2.001416922 0.8738908172 
-32.81123352 7.423100471 -2.001415253 0.8738909364 
-17.72198296 3.188129902 -1.071282387 0.9303883314 
-33.606987 -1.496440411 -2.001407385 0.8738914728 
-33.50715256 -2.989926577 -2.001406908 0.8738914728 
-33.34096909 -4.477475643 -2.001406431 0.8738915324 
-33.10878372 -5.956254959 -2.001405716 0.8738914728 
-27.42947769 -14.6123333 -1.849017024 0.8829070926 
-26.752285 -15.81809521 -1.849017024 0.882907033 
-26.022089 -16.99241638 -1.849012613 0.8829073906 
-24.40923691 -19.23830032 -1.849042416 0.8829055429 
-18.52349091 -20.89427757 -1.661256313 0.8941432834 
-14.61403751 -19.77942276 -1.463119507 0.9061555266 
-4.359447956 -12.9448967 -0.8126479983 0.9467372894 
-3.731957912 -12.96167946 -0.8024745584 0.9473862648 
-2.645976543 -13.65926266 -0.827755332 0.9457744956 
-2.022797823 -13.67593193 -0.8224923611 0.9461097717 
-1.406279206 -13.69242191 -0.8189063668 0.9463382959 
-0.793915987 -13.70879364 -0.8169624209 0.9464622736 
-0.1832421869 -13.72513676 -0.8166405559 0.9464827776 
0.4281640649 -13.74147892 -0.8179373741 0.946400106 
1.042758822 -13.7579298 -0.8208664656 0.9462134242 
2.930800676 -13.80842209 -0.839823842 0.9450060725 
3.584018469 -13.82589817 -0.84975034 0.9443744421 
6.40293932 -13.90130329 -0.9105619788 0.9405143857 
7.179716587 -13.92207527 -0.9319416881 0.9391610622 
8.42548275 -13.28686523 -0.9360287189 0.9389025569 
9.005331993 -12.89483833 -0.9357324243 0.9389213324 
9.905414581 -12.91891098 -0.9685260653 0.9368497729 
18.25492859 -19.86749458 -1.60520041 0.8975254893 
18.2990551 -18.21783638 -1.536227345 0.901704669 
18.33962631 -16.70116615 -1.47573626 0.9053858519 
18.37718391 -15.29678631 -1.422540307 0.9086356163 
18.41219902 -13.98765564 -1.375675201 0.9115081429 
19.63641739 -13.58382797 -1.420543432 0.9087577462 
21.72266006 -13.63962364 -1.526017904 0.9023247957 
27.7533493 -14.15658665 -1.853568077 0.8826364875 
28.344347 -12.90288258 -1.852831721 0.8826802373 
29.35722351 -10.3249073 -1.851459146 0.8827618361 
32.60113525 -8.296440125 -2.001401663 0.8738916516 
32.93791962 -6.837939262 -2.001401663 0.8738917112 
33.41530991 -3.88337636 -2.001401663 0.8738917708 
33.63487625 0.5987743735 -2.001401663 0.8738917708 
33.44854355 3.585878849 -2.001401663 0.8738917112 
10.6826849 3.127329111 -0.6622338891 0.9563772082 
16.97079468 7.543835163 -1.104924917 0.9282824993 
27.12694359 15.07708454 -1.846423626 0.8830612898 
25.64842987 17.4073143 -1.844186306 0.8831943274 
24.83444786 18.52035522 -1.843127728 0.8832573295 
23.97278786 19.59594345 -1.842111468 0.8833177686 
23.06448174 20.63142586 -1.841083884 0.8833789229 
22.10067749 21.61442566 -1.839158773 0.8834935427 
19.00913048 24.34050941 -1.837409139 0.8835976124 
11.28874969 15.86187458 -1.158284545 0.9249524474 
8.460122108 16.05258179 -1.079554081 0.9298701286 
7.842826843 16.63615608 -1.09422946 0.9289515018 
7.887089729 18.86287498 -1.21638453 0.9213399291 
7.992851257 29.74141502 -1.832229853 0.8839058876 
5.316142559 30.3244915 -1.831649184 0.8839404583 
3.96126461 30.52570152 -1.831333756 0.8839592338 
2.599018574 30.66691399 -1.831047893 0.8839762211 
1.232114196 30.74828529 -1.830816627 0.8839899898 
-0.1368945241 30.76970673 -1.830640197 0.8840004802 
-0.6951806545 14.19145012 -0.8453227878 0.944656074 
-0.6936084032 7.401030064 -0.4422494471 0.9706528187 
-1.377709985 7.467368126 -0.4517640471 0.9700309634 
-3.083959818 7.194975376 -0.465726167 0.9691192508 
-3.64301753 7.552484989 -0.4988732934 0.9669581056 
-4.310053825 7.215883732 -0.5000559688 0.9668810368 
-6.86338377 7.207841873 -0.5921372771 0.9609030485 
-7.453012466 7.160366058 -0.6148908734 0.9594315886 
-8.208109856 7.211752892 -0.6500487924 0.9571624398 
-9.917075157 7.259223461 -0.7311868072 0.9519459605 
-11.2610693 7.497231483 -0.804866612 0.9472334981 
-15.18763638 7.409321308 -1.005367517 0.9345278144 
-17.09601021 7.417943954 -1.108733773 0.9280443788 
-19.843256 7.579956055 -1.263761997 0.9184046984 
-22.85604858 7.584125996 -1.432711601 0.9080132842 
-32.74386978 7.714877605 -2.001416206 0.8738908768 
-33.05452728 6.250658989 -2.001410246 0.873891294 
-17.82621574 1.750747085 -1.065661192 0.9307406545 
-17.98225021 0.9611620903 -1.071368575 0.9303829074 
-33.53243637 -2.691704035 -2.001406908 0.8738914132 
-32.8758049 -7.13087368 -2.001405239 0.8738915324 
-12.78549767 -3.375107288 -0.7867206931 0.9483919144 
-11.52535629 -3.597949028 -0.7183276415 0.95277071 
-19.34036636 -7.985839844 -1.244871974 0.9195738435 
-27.55842781 -14.36765099 -1.849016666 0.8829070926 
-26.17233849 -16.76014137 -1.849014044 0.8829072118 
-23.71016121 -20.09574699 -1.849125981 0.8829005957 
-20.56327629 -20.83971596 -1.741814494 0.8893049955 
-18.69729042 -24.84031677 -1.849719167 0.8828653097 
-9.921352386 -15.95814896 -1.117948294 0.9274686575 
-8.976830482 -15.98340321 -1.090634704 0.9291764498 
-7.616445065 -15.09732914 -1.006034374 0.9344860315 
-6.378930569 -16.05288124 -1.027695775 0.9331236482 
-4.486918926 -12.94148922 -0.8149085045 0.9465931654 
-3.375585794 -13.51590347 -0.8288182616 0.9457067251 
-2.771665096 -13.65589809 -0.8290141225 0.9456943274 
-0.3053222597 -13.7218647 -0.8165752888 0.9464869499 
0.3057421744 -13.73821259 -0.8175482154 0.9464249015 
0.9194775224 -13.75462818 -0.8201490045 0.946259141 
2.801923752 -13.80497074 -0.8380643129 0.9451180696 
5.514511585 -13.87752438 -0.8884313703 0.9419173598 
8.257787704 -13.28236771 -0.930495441 0.9392524362 
9.720321655 -12.91396427 -0.9616298676 0.937285006 
19.2531147 -13.57357121 -1.401497722 0.9099242091 
24.27561951 -14.06357193 -1.669120193 0.8936697841 
27.12119102 -14.13968277 -1.819680095 0.8846533298 
28.23493195 -13.15765858 -1.853260398 0.8826547265 
28.75881958 -11.87483406 -1.851106882 0.8827828169 
29.22719574 -10.57244396 -1.849121213 0.8829008937 
32.11185837 -10.02458763 -2.001401663 0.8738917112 
33.37944412 -4.180517673 -2.001401663 0.8738917112 
33.59225845 1.795512676 -2.001401663 0.8738917112 
11.61819839 2.197016478 -0.7034670711 0.9537248611 
10.76797295 2.537075043 -0.6581753492 0.9566386342 
10.67971134 3.023535013 -0.6603550315 0.9564982057 
29.05188942 11.09759521 -1.850234032 0.8828346729 
28.51114464 12.37097645 -1.849045396 0.882905364 
26.56001854 16.02504158 -1.845510364 0.8831155896 
25.80539894 17.18032455 -1.844403148 0.8831814528 
22.2921772 21.41689491 -1.839158773 0.8834934831 
21.31949234 22.38947868 -1.839336157 0.8834828734 
10.78255844 16.35297394 -1.165365934 0.9245114326 
10.95682621 18.34395027 -1.271220922 0.917943418 
8.636283875 16.03913498 -1.083775401 0.929605782 
8.257548332 29.67014122 -1.832294106 0.8839020729 
6.928422928 30.0032177 -1.83199656 0.8839197755 
5.585913181 30.27699089 -1.831709385 0.883936882 
1.505668879 30.73680687 -1.830858469 0.883987546 
0.1368554682 30.77024269 -1.830671072 0.8839985728 
-0.6445361376 16.08486748 -0.9577265978 0.9375314713 
-0.8008642197 9.449726105 -0.5642204285 0.962711513 
-1.310815454 7.477211952 -0.4516363442 0.9700393081 
-2.370258808 7.475585938 -0.4665760696 0.9690637589 
-2.775551796 7.567524433 -0.4795524478 0.9682171345 
-3.378862143 7.167192459 -0.4714176953 0.9687478542 
-3.826625824 7.260795593 -0.4882975519 0.9676470757 
-4.245278358 7.253334999 -0.5000123382 0.9668838978 
-4.718598366 7.296723366 -0.516975522 0.9657797813 
-5.665117264 7.253935337 -0.5475846529 0.963790834 
-6.356108189 7.431957722 -0.5818111897 0.9615715742 
-6.794882774 7.264237881 -0.5917806625 0.9609261751 
-8.12729454 7.26994133 -0.6487473845 0.9572463036 
-9.001044273 7.357666016 -0.6916556954 0.9544838667 
-9.93782711 7.411176682 -0.737552166 0.9515379071 
-12.10666466 7.452348232 -0.8457999825 0.9446256757 
-14.92988777 7.448818207 -0.992657423 0.9353283048 
-16.87995529 7.503417969 -1.099009871 0.9286524057 
-19.46362686 7.634155273 -1.243863106 0.9196364284 
-26.25389671 7.685830116 -1.627513647 0.8961776495 
-32.6739006 8.005893707 -2.001416683 0.873890996 
-32.99763107 6.544497013 -2.001410484 0.8738911748 
-17.95090866 1.119726539 -1.070052862 0.9304654002 
-33.4153862 -3.883383751 -2.001406431 0.8738914728 
-33.20956421 -5.365971565 -2.001405954 0.8738914728 
-32.93798447 -6.837944031 -2.001405478 0.8738915324 
-11.36900806 -3.998456955 -0.7170036435 0.9528557062 
-11.42949677 -4.600708008 -0.7330111265 0.951828897 
-27.02956963 -15.33947754 -1.849017024 0.882907033 
-26.32044411 -16.52664566 -1.849015594 0.8829070926 
-23.887743 -19.88376999 -1.849104762 0.8829018474 
-22.02858925 -21.93082047 -1.849326015 0.8828886747 
-18.31242561 -19.93004799 -1.610255122 0.8972199559 
-19.9948082 -23.80500412 -1.84956646 0.8828744292 
-14.17240715 -20.29361725 -1.472635508 0.9055749774 
-9.162089348 -15.9784565 -1.0958184 0.9288520813 
-7.385048866 -14.32021904 -0.9585932493 0.9374767542 
-2.271113157 -13.66929626 -0.8243935108 0.9459886551 
-1.652236342 -13.68584442 -0.8201420307 0.9462595582 
-1.03851068 -13.70226002 -0.8175447583 0.9464251399 
-0.4274511635 -13.71860313 -0.8165751696 0.9464869499 
0.1833740175 -13.73493576 -0.8172237277 0.9464455843 
0.7963818312 -13.75133801 -0.8194972277 0.9463006258 
2.673539877 -13.80154228 -0.8363777995 0.9452254176 
3.320859194 -13.81885719 -0.8455502391 0.9446416497 
3.983862162 -13.83658695 -0.8566406965 0.9439362884 
5.370483398 -13.87367153 -0.8850896358 0.9421293736 
6.101933479 -13.89325619 -0.9027781487 0.9410075545 
8.09213829 -13.2779541 -0.9251066446 0.9395934939 
8.758383751 -13.02921867 -0.9340224862 0.9390293956 
9.537919998 -12.90908146 -0.9549097419 0.9377093315 
10.47710419 -12.93420887 -0.9902961254 0.935477078 
18.28186798 -18.86036491 -1.562720895 0.9000970721 
18.36248779 -15.84626389 -1.443010569 0.9073836803 
18.88396835 -13.56656265 -1.383362889 0.9110363126 
20.85196495 -13.61633492 -1.481646895 0.9050255418 
26.51152802 -14.12337589 -1.787139297 0.8865942955 
28.12289238 -13.41141319 -1.853668809 0.8826304674 
29.13726807 -10.83403015 -1.849456549 0.8828808665 
31.98710823 -10.29885006 -1.999258637 0.8740178943 
32.81100464 -7.423068523 -2.001401663 0.8738917112 
33.60690689 1.496423364 -2.001401663 0.8738917708 
33.34090805 4.47746563 -2.001401663 0.8738917112 
12.11632824 2.179692268 -0.7324245572 0.9518665671 
10.67659664 2.920263529 -0.6585291624 0.9566158652 
10.82324696 3.484794855 -0.6764759421 0.9554602504 
29.15328217 10.84010029 -1.850475907 0.8828203082 
28.03805923 13.37097168 -1.848077297 0.8829628825 
26.70481873 15.7900362 -1.845736384 0.883102119 
25.96029663 16.95207405 -1.84462142 0.8831684589 
25.16584587 18.07953835 -1.843546152 0.8832324147 
23.43320465 20.22216225 -1.841492057 0.8833546638 
22.49816513 21.23290062 -1.840484977 0.8834145665 
20.50102425 23.12488174 -1.838608146 0.8835262656 
19.44288063 24.00265121 -1.837741852 0.883577764 
10.94785595 17.96374512 -1.251577377 0.9191587567 
8.816924095 16.03125381 -1.088500857 0.9293099642 
7.969071865 16.15221596 -1.071559191 0.9303709865 
9.831625938 29.1940918 -1.832730532 0.8838760853 
8.521513939 29.59657097 -1.832360744 0.8838980794 
7.19529295 29.94128418 -1.832051158 0.8839164972 
5.855390549 30.227108 -1.831772089 0.8839331269 
2.962524414 28.84499359 -1.725140333 0.8903042674 
-0.5783203244 18.56066322 -1.104789853 0.9282909632 
-0.7434179783 9.808681488 -0.585234642 0.9613499045 
-0.8998681307 7.453764439 -0.4466767907 0.9703633785 
-1.217719674 7.329160213 -0.4420210123 0.9706677198 
-1.589477539 7.488886356 -0.4554711878 0.9697887897 
-2.271796942 7.392704964 -0.4601235986 0.9694849849 
-2.707021475 7.588842392 -0.4793586731 0.9682298303 
-4.133090496 7.207988262 -0.4943319559 0.9672538638 
-5.038056374 7.214042664 -0.5234972835 0.9653556347 
-6.248725414 7.43944788 -0.5780209303 0.9618171453 
-6.5796628 7.160869122 -0.5785651803 0.9617818594 
-7.874106407 7.170659065 -0.633607626 0.9582229257 
-9.741689682 7.40073204 -0.7278544307 0.9521595836 
-10.48148918 7.250781059 -0.7582563758 0.9502119422 
-11.87790489 7.458071232 -0.8344195485 0.9453498721 
-14.27560997 7.281733036 -0.95342803 0.93780303 
-16.49756241 7.509951115 -1.07842207 0.9299410582 
-20.87929153 7.343193054 -1.316784978 0.9151307344 
-32.20008087 9.738422394 -2.001416922 0.8738908172 
-32.60137939 8.296421051 -2.001416922 0.8738908768 
-17.60990715 2.845380783 -1.061277986 0.9310154915 
-17.76421928 2.064467669 -1.063983321 0.9308458567 
-17.91963387 1.278002858 -1.06882441 0.9305423498 
-18.28945351 0.488432616 -1.088506579 0.9293096066 
-33.63497543 -0.5987255573 -2.001407862 0.8738914132 
-33.25600815 -5.070170879 -2.001405954 0.8738914728 
-11.80570316 -3.456118107 -0.7318504453 0.9519033432 
-11.38438892 -3.890405178 -0.7157617211 0.9529353976 
-11.37584972 -4.461923599 -0.7269960642 0.9522145987 
-28.39932632 -12.62401867 -1.849007845 0.8829075694 
-24.06351089 -19.67014122 -1.849083781 0.8829030395 
-22.24871445 -19.90172768 -1.775965333 0.8872617483 
-20.20563889 -23.62577629 -1.849541545 0.8828758597 
-14.16185474 -19.89898872 -1.45308423 0.9067682028 
-16.88479042 -26.11046791 -1.849931717 0.8828526735 
-6.708471298 -16.04406166 -1.034612536 0.9326890707 
-5.89250946 -16.06589317 -1.018090963 0.9337274432 
-4.106533051 -12.95165539 -0.8083553314 0.9470111132 
-3.485156059 -12.96827126 -0.7989152074 0.9476134181 
-3.02417469 -13.64914513 -0.8317402601 0.945520699 
-2.395756721 -13.66596127 -0.8254458904 0.9459215999 
-1.775546789 -13.68254852 -0.8208591342 0.9462138414 
0.6734570265 -13.74805164 -0.8189116716 0.9463379979 
1.29004395 -13.7645359 -0.8225008249 0.9461092949 
