# .PCD v0.7 - Point Cloud Data file format
VERSION 0.7
FIELDS x y z intensities
SIZE 4 4 4 4
TYPE F F F F
COUNT 1 1 1 1
WIDTH 921
HEIGHT 1
VIEWPOINT 0 0 0 1 0 0 0
POINTS 921
DATA ascii
-1.095864177 6.979242802 -0.7455041409 0.9719840288 
-1.423403263 7.013066292 -0.7551389933 0.9716271162 
-2.036284208 6.842660904 -0.7533639073 0.9716929197 
-2.418442249 6.975424767 -0.7790649533 0.9707415104 
-2.834716797 7.133681297 -0.8100350499 0.9695962667 
-3.156625986 7.016918659 -0.8119331002 0.9695261121 
-3.535346508 7.007739067 -0.8282647729 0.9689227343 
-3.989882708 7.104043007 -0.8597924709 0.9677590728 
-4.369887829 7.028774261 -0.8733677268 0.9672583938 
-4.903295994 7.155898094 -0.9153862 0.9657105207 
-7.081694126 7.176855087 -1.063953042 0.9602572322 
-9.493891716 7.346611023 -1.266760707 0.9528627396 
-10.22287083 7.207192421 -1.319901228 0.9509347081 
-12.71345234 7.36524868 -1.55044961 0.9426147938 
-18.3398571 4.841313362 -2.001596451 0.9265440702 
-17.74295425 3.029150248 -1.899404764 0.9301602244 
-18.90730858 1.51767087 -2.001596451 0.9265440106 
-18.96733856 -0.1687988192 -2.001596451 0.9265441298 
-18.94105911 -1.012382746 -2.001596451 0.9265440702 
-13.464077 -3.172314405 -1.459692955 0.9458813071 
-11.97549248 -3.390385628 -1.313373327 0.951171279 
-11.810112 -3.918842793 -1.313073039 0.9511822462 
-17.4006691 -7.550160885 -2.001596451 0.9265441298 
-16.24090385 -9.799028397 -2.001596451 0.9265441298 
-14.14044857 -10.35067844 -1.849196434 0.9319417477 
-12.08430672 -12.69076157 -1.849196434 0.9319420457 
-11.50776863 -13.21578598 -1.849196434 0.9319420457 
-10.29675293 -14.19882298 -1.850831747 0.9318839312 
-7.579154968 -14.07584476 -1.686981201 0.9377220869 
-6.971904278 -14.45377922 -1.693392873 0.9374929667 
-6.874975204 -16.03961372 -1.841497183 0.9322155118 
-4.232641697 -12.94828606 -1.437510133 0.9466813803 
-3.151078939 -13.64575195 -1.477853537 0.9452267289 
-2.520693302 -13.6626215 -1.466069579 0.9456512928 
-1.899047852 -13.67923832 -1.457337618 0.9459661841 
-0.6717284918 -13.71207047 -1.448693037 0.9462779164 
1.166264653 -13.7612257 -1.457351327 0.9459657073 
3.716586828 -13.82944298 -1.511124849 0.9440287948 
5.085678577 -13.86605453 -1.558520317 0.9423249364 
5.805869102 -13.88531685 -1.58817029 0.9412605762 
7.339545727 -13.92634201 -1.661170483 0.9386451244 
7.766337872 -13.26921844 -1.622430682 0.9400321841 
8.593252182 -13.28846645 -1.669912219 0.9383323789 
11.38973141 -13.31767082 -1.849196434 0.9319419861 
11.97089291 -12.79780769 -1.849196434 0.9319419861 
13.06099796 -11.68318844 -1.849196434 0.9319419861 
15.16756344 -10.29406738 -1.93435955 0.9289216995 
16.57941055 -9.214789391 -2.001596451 0.9265440106 
17.332798 -7.70470953 -2.001596451 0.9265441298 
17.65837097 -6.926059246 -2.001596451 0.9265441298 
17.94899178 -6.133696079 -2.001596451 0.9265440702 
18.20406723 -5.329204082 -2.001596451 0.9265441298 
18.6056881 -3.69014883 -2.001596451 0.9265440702 
18.75141335 -2.858850002 -2.001596451 0.9265440702 
18.8600235 -2.021879911 -2.001596451 0.9265440702 
18.9650898 -0.337587893 -2.001596451 0.9265440702 
18.96132851 0.5063793659 -2.001596451 0.9265441298 
18.92008209 1.349345684 -2.001596451 0.926543951 
18.84128189 2.189646006 -2.001596451 0.9265441298 
11.15862751 2.316538095 -1.202613711 0.9551954269 
11.0468111 2.811196327 -1.202861786 0.9551864266 
16.53126907 5.814059734 -1.849196434 0.9319419861 
13.47708988 11.21810246 -1.850375175 0.9319001436 
12.96055126 11.80269718 -1.849778414 0.9319213033 
12.41880798 12.36368656 -1.849200368 0.9319418669 
5.954428673 7.76593256 -1.03265667 0.9614034295 
5.431059361 7.776782036 -1.000951529 0.9625659585 
9.371494293 14.77869606 -1.846630454 0.9320331216 
8.017108917 15.54590321 -1.845769763 0.9320637584 
7.298491001 15.84558582 -1.840941429 0.9322353005 
6.600976467 16.19030762 -1.845015049 0.9320905209 
5.873178482 16.46491623 -1.844679236 0.9321025014 
5.134091854 16.70709419 -1.844371915 0.932113409 
4.385165691 16.91640663 -1.84409368 0.9321231842 
2.863564491 17.23481941 -1.843626618 0.9321398735 
-0.2331591696 17.46417999 -1.843061328 0.9321599603 
-0.4582128823 7.912168026 -0.8363255262 0.9686250091 
-0.7115868926 6.928476334 -0.7349694371 0.9723743796 
-1.35771966 7.008950233 -0.7533640862 0.9716928601 
-1.973559499 6.854423523 -0.7526956201 0.9717177153 
-3.472153187 7.037524223 -0.8280997872 0.9689288139 
-4.811518669 7.15776825 -0.9101096988 0.9659047127 
-5.302631855 7.176826 -0.9416235089 0.9647451639 
-7.636322975 7.206874847 -1.108019114 0.958645761 
-8.455785751 7.297074795 -1.178606987 0.9560698867 
-13.75156689 7.325766563 -1.644193053 0.9392527342 
-15.10575676 7.203681469 -1.766001225 0.9349018931 
-18.29603386 5.004370213 -2.001596451 0.9265440702 
-18.50054169 4.185507774 -2.001596451 0.9265440702 
-17.71140099 3.186225414 -1.898985744 0.9301750064 
-18.89302635 1.685873985 -2.001596451 0.9265440702 
-18.21757698 0.8111816049 -1.924304366 0.9292778373 
-18.9493103 -0.8437792659 -2.001596451 0.9265441298 
-18.89302254 -1.685859323 -2.001596451 0.9265441298 
-18.66840744 -3.358437538 -2.001596451 0.9265440702 
-13.9731884 -3.161284208 -1.511777043 0.9440053105 
-12.08066845 -3.304335833 -1.321632624 0.9508719444 
-11.81519985 -3.804150343 -1.309821606 0.9513000846 
-17.12094116 -8.164702415 -2.001596451 0.9265440702 
-16.32749557 -9.654126167 -2.001596451 0.9265440106 
-14.34675217 -10.30727482 -1.864179015 0.9314113259 
-12.74442863 -12.02770996 -1.849196434 0.9319419861 
-12.19682121 -12.58272457 -1.849196434 0.9319418669 
-11.03939438 -13.62836361 -1.850744486 0.9318870306 
-10.42261219 -14.10652828 -1.850816965 0.931884408 
-8.453359604 -15.37016106 -1.851047516 0.9318762422 
-7.042622089 -16.03513718 -1.848105431 0.9319807291 
-4.359447956 -12.9448967 -1.441384435 0.9465416074 
-3.731957912 -12.96167946 -1.423339009 0.9471929073 
-3.278437376 -13.64234352 -1.480586052 0.9451283216 
-2.645976543 -13.65927219 -1.468180537 0.9455752969 
-2.022797823 -13.67593193 -1.458845139 0.9459118247 
-1.406284094 -13.69242668 -1.452484727 0.9461411238 
-0.793915987 -13.70879364 -1.449036956 0.9462655783 
-0.1832421869 -13.72513676 -1.448464155 0.9462861419 
1.66297853 -13.77450657 -1.464102387 0.9457223415 
2.291425705 -13.79131794 -1.475272298 0.9453197718 
2.930805683 -13.80841732 -1.489585638 0.9448041916 
4.254199028 -13.84381294 -1.528282404 0.9434116483 
4.944785118 -13.86228943 -1.553088903 0.9425200224 
5.659599304 -13.8814106 -1.581897497 0.9414856434 
6.40293932 -13.90130329 -1.615053654 0.9402965307 
7.179721355 -13.92206478 -1.652973413 0.9389384389 
9.293305397 -13.30718231 -1.712771535 0.9368007779 
11.22057056 -13.35873508 -1.840960622 0.9322345853 
11.85650826 -12.90385723 -1.849196434 0.9319419861 
12.41878891 -12.36367893 -1.849196434 0.9319419265 
12.95650387 -11.7989645 -1.849196434 0.9319419861 
13.95390129 -10.60070515 -1.849196434 0.9319419861 
14.88728523 -10.29853535 -1.910227895 0.9297765493 
16.89686203 -8.618849754 -2.001596451 0.9265440702 
17.59603691 -7.082931995 -2.001596451 0.9265441298 
17.89369583 -6.293185711 -2.001596451 0.9265440702 
18.38220978 -4.677915096 -2.001596451 0.9265440702 
18.57210159 -3.855583429 -2.001596451 0.9265441298 
18.72522736 -3.025607824 -2.001596451 0.9265441298 
18.8412838 -2.189646006 -2.001596451 0.9265440702 
18.92003822 -1.349348068 -2.001596451 0.9265440702 
18.96508408 0.3376196325 -2.001596451 0.9265441298 
18.86002731 2.021887064 -2.001596451 0.9265440702 
11.2009716 2.221538067 -1.204998851 0.9551086426 
11.06567383 3.239443302 -1.21670723 0.9546824694 
16.31386757 6.398742676 -1.849196434 0.9319419861 
15.71907711 7.842597485 -1.853736281 0.9317807555 
15.34906197 8.530963898 -1.853060842 0.9318047166 
14.06226063 10.48696995 -1.851114511 0.931873858 
13.57730484 11.09842491 -1.85049665 0.9318957925 
13.06592274 11.68761444 -1.849896193 0.9319171309 
12.52911854 12.25343704 -1.849314332 0.9319378138 
11.38365173 13.31057549 -1.84821105 0.9319770336 
8.837841988 15.09996033 -1.846273899 0.9320458174 
7.439208984 15.78000927 -1.840941429 0.9322353005 
6.019682407 16.41257858 -1.844744086 0.9321001768 
5.282734394 16.66127968 -1.844431162 0.9321112633 
4.535654068 16.87718201 -1.844146967 0.9321213961 
2.602797747 11.74733829 -1.269693732 0.9527562857 
2.67766118 15.27400398 -1.636360168 0.939533174 
2.248144388 17.3243885 -1.843473911 0.9321452975 
0.6993651986 17.45283699 -1.843178511 0.9321557879 
-0.07769531012 17.46572304 -1.84307766 0.9321593642 
-0.6517138481 6.954071999 -0.7370391488 0.9722976685 
-1.910912991 6.866069317 -0.7520769835 0.9717406034 
-3.009291887 7.020785809 -0.8060535789 0.969743371 
-3.396791935 7.042021275 -0.825039804 0.9690418839 
-3.88363266 7.212568283 -0.8644245863 0.9675881863 
-4.189394474 7.013876915 -0.8621140718 0.9676734209 
-5.677534103 7.138002872 -0.9624485373 0.9639797807 
-7.42318821 7.131728172 -1.086261272 0.9594410658 
-8.080951691 7.100024223 -1.135121465 0.9576559067 
-9.064882278 7.276206017 -1.226606131 0.9543223381 
-9.986484528 7.310043812 -1.305973172 0.9514396191 
-11.15715313 7.428037167 -1.414410472 0.9475152493 
-13.47541428 7.333339691 -1.618914127 0.9401581883 
-15.01503372 7.325126648 -1.762946486 0.9350107908 
-18.25081444 5.166992188 -2.001596451 0.926543951 
-18.46255302 4.350014687 -2.001596451 0.9265440702 
-18.96734238 0.16883789 -2.001596451 0.9265440702 
-18.95606804 -0.6751513481 -2.001596451 0.9265441298 
-18.90727997 -1.517705083 -2.001596451 0.9265440702 
-18.82104874 -2.357270479 -2.001596451 0.9265440702 
-14.74222088 -3.197636604 -1.591838002 0.9411289096 
-12.26014137 -3.236425638 -1.33806181 0.9502766728 
-11.80629349 -4.270722389 -1.324857116 0.9507551193 
-17.53228951 -7.239267349 -2.001596451 0.9265441298 
-16.41278839 -9.508422852 -2.001596451 0.9265440106 
-15.97353935 -10.22908688 -2.001596451 0.9265441298 
-14.61387157 -10.30287075 -1.886833429 0.930605948 
-13.85901356 -10.72446251 -1.849196434 0.9319419861 
-12.30819321 -12.47371101 -1.849196434 0.9319421053 
-7.197045803 -15.9985199 -1.851193905 0.9318710566 
-4.486918926 -12.94148922 -1.44539392 0.9463969469 
-3.856235266 -12.95834923 -1.426687241 0.9470720291 
-2.771665096 -13.65589809 -1.470411181 0.9454948902 
0.3057421744 -13.73821259 -1.450075626 0.9462280869 
1.538364172 -13.77118587 -1.462234735 0.9457896352 
2.164956093 -13.78794384 -1.472791076 0.9454091191 
3.452128887 -13.82236767 -1.503399372 0.9443068504 
4.118652344 -13.84019947 -1.523775339 0.9435737133 
4.804868221 -13.85854912 -1.547816157 0.9427093863 
5.514511585 -13.87752438 -1.57580018 0.941704452 
7.021410942 -13.91784668 -1.644984722 0.9392243624 
7.459863186 -13.28240681 -1.607548833 0.9405655265 
9.114902496 -13.3024168 -1.70164609 0.9371980429 
11.01473141 -13.35322189 -1.826617837 0.9327443838 
11.74123478 -13.00882816 -1.849196434 0.9319419861 
12.30829048 -12.47365665 -1.849196434 0.9319419861 
13.3682251 -11.33033657 -1.849196434 0.9319420457 
13.8590107 -10.72445488 -1.849196434 0.9319419861 
14.6138525 -10.30287361 -1.886831522 0.9306060076 
16.4127636 -9.508396149 -2.001596451 0.9265441298 
17.19291496 -8.012001991 -2.001596451 0.9265441298 
18.33984184 -4.841354847 -2.001596451 0.9265440702 
18.53705215 -4.020737171 -2.001596451 0.9265440702 
18.82105827 -2.35718751 -2.001596451 0.9265440702 
18.95607567 -0.6750586033 -2.001596451 0.9265440702 
18.96734238 0.1688403338 -2.001596451 0.9265440702 
18.94105148 1.012399912 -2.001596451 0.9265441298 
18.87727165 1.85396719 -2.001596451 0.9265440702 
11.23057079 2.123715878 -1.206102252 0.955068469 
11.06554699 2.607177734 -1.199658632 0.9553030729 
11.0589838 3.130917788 -1.212859988 0.9548224807 
16.94895744 5.624001503 -1.884416461 0.9306915998 
16.37017822 6.253278732 -1.849196434 0.9319419861 
16.07580757 6.975287914 -1.849196434 0.9319419861 
15.03141594 9.069228172 -1.852529407 0.9318236113 
13.67641354 10.97791004 -1.850618839 0.9318915009 
8.03832531 7.722714901 -1.176288605 0.9561547637 
12.08211422 12.68849564 -1.848863125 0.9319538474 
11.50231934 13.20950127 -1.848317504 0.9319732189 
6.173359394 7.76139164 -1.046499491 0.9608963132 
5.636498928 7.772524357 -1.013156295 0.962118268 
9.633989334 14.61102486 -1.846814632 0.9320266247 
8.972299576 15.02142525 -1.846361518 0.9320427179 
8.293286324 15.40210438 -1.845933676 0.9320579171 
7.598276138 15.75234795 -1.84553206 0.9320721626 
6.888637543 16.07149315 -1.845157266 0.9320855141 
6.165747166 16.3589344 -1.844810128 0.9320977926 
2.532382727 9.099086761 -0.9966676235 0.9627231359 
2.59219718 11.22542 -1.21572876 0.9547180533 
3.169946194 17.18191338 -1.843710423 0.9321368933 
1.629960895 17.39217186 -1.843340755 0.9321500659 
0.8546191454 17.44615173 -1.843202353 0.9321549535 
0.07770019025 17.46588326 -1.843095303 0.9321587682 
-0.913823247 7.042006493 -0.7493345737 0.9718421102 
-1.240825176 7.077988148 -0.75829041 0.9715104103 
-1.839213848 6.843720436 -0.7478057742 0.9718987942 
-2.158207893 6.806811333 -0.753526926 0.9716868997 
-2.613652229 7.126098633 -0.8009632826 0.9699316025 
-3.27436018 6.945531845 -0.8102875948 0.9695869088 
-4.515102386 6.982036114 -0.8774092197 0.9671093822 
-5.122553825 7.197700024 -0.9322507977 0.9650899172 
-5.603471756 7.175004959 -0.9606770277 0.9640448093 
-6.285170555 7.349023342 -1.02043438 0.961851418 
-8.898383141 7.27374506 -1.212790251 0.9548250437 
-9.851977348 7.347148418 -1.296884775 0.9517692924 
-14.88767052 7.427753925 -1.755686045 0.9352695942 
-16.01308632 7.118105412 -1.849196434 0.9319419861 
-16.58216286 5.666723728 -1.849196434 0.9319426417 
-18.20405197 5.32923317 -2.001596451 0.9265441298 
-18.75142097 2.858803749 -2.001596451 0.9265440702 
-18.96509171 0.337587893 -2.001596451 0.9265440702 
-18.96136093 -0.5063769221 -2.001596451 0.9265440106 
-18.8412838 -2.189653158 -2.001596451 0.9265440702 
-12.49174786 -3.178901196 -1.360197783 0.9494752288 
-11.88203621 -3.59354496 -1.309931636 0.9512960911 
-11.79431629 -4.148041725 -1.319317341 0.9509558678 
-17.26355934 -7.858647346 -2.001596451 0.9265440702 
-16.49672318 -9.362001419 -2.001596451 0.9265440702 
-12.41877937 -12.36366653 -1.849196434 0.9319419861 
-10.67187977 -13.91854954 -1.85078764 0.9318854809 
-10.04256821 -14.38005352 -1.850861669 0.9318829179 
-9.393349648 -14.81316853 -1.850937605 0.9318801165 
-8.725473404 -15.21699142 -1.851015687 0.9318773746 
-6.543198109 -16.04848671 -1.828854918 0.9326648712 
-5.732324123 -16.07016563 -1.800451279 0.9336751699 
-3.981049776 -12.95501423 -1.430162668 0.9469465613 
-1.65224123 -13.68583965 -1.454676747 0.9460621476 
-1.03851068 -13.70226002 -1.450069547 0.9462282658 
1.414033175 -13.76786137 -1.460487485 0.9458526373 
2.673539877 -13.80154228 -1.483473659 0.9450243115 
4.665849686 -13.85482407 -1.542702317 0.9428932667 
5.370483398 -13.87367153 -1.569872379 0.9419173002 
6.864687443 -13.91365242 -1.637205482 0.9395028949 
7.452690125 -13.55060959 -1.631919265 0.9396922588 
8.092133522 -13.27793884 -1.640852928 0.9393724203 
9.842924118 -13.32188416 -1.747873545 0.9355481863 
11.53853035 -13.01531696 -1.835446596 0.9324305654 
13.26685238 -11.44888401 -1.849196434 0.9319419861 
13.7630024 -10.84739685 -1.849196434 0.9319419861 
17.4671917 -7.394968033 -2.001596451 0.9265441298 
17.77885628 -6.610654354 -2.001596451 0.9265441298 
18.29604149 -5.004325867 -2.001596451 0.9265441298 
18.50054169 -4.185507774 -2.001596451 0.9265440702 
18.66840935 -3.358391047 -2.001596451 0.9265441298 
18.79932976 -2.524626493 -2.001596451 0.9265440702 
18.89302254 -1.685859323 -2.001596451 0.9265441298 
18.96809196 -2.441406195e-06 -2.001596451 0.9265440702 
18.94931412 0.8437719345 -2.001596451 0.9265441298 
11.40491676 2.051708937 -1.222816467 0.9544602036 
11.19981861 3.606044769 -1.241603374 0.9537769556 
16.42516518 6.107385159 -1.849196434 0.9319419861 
15.81733894 7.543073654 -1.849196434 0.9319419861 
15.11258221 8.935769081 -1.852661371 0.9318189025 
11.70991707 7.646572113 -1.475803137 0.9453005791 
14.2486105 10.2364254 -1.851366282 0.9318649173 
13.77450657 10.85645771 -1.850741863 0.9318870902 
12.74683094 12.02997303 -1.849544764 0.9319296479 
5.741157055 7.770356178 -1.019494653 0.9618858695 
8.430376053 15.32840252 -1.846017122 0.9320549369 
7.031635761 16.01021385 -1.845230103 0.9320828319 
5.578798771 16.56571198 -1.844552875 0.9321069717 
4.835595608 16.79479027 -1.844256997 0.9321174622 
3.322846651 17.15342331 -1.843754053 0.9321353436 
1.784746051 17.37726974 -1.843372107 0.9321489334 
1.009882808 17.43809128 -1.843227506 0.9321540594 
-0.5309423804 7.005317211 -0.7413520813 0.9721378684 
-1.489379883 7.01724577 -0.7569854856 0.9715587497 
-2.099106312 6.830766678 -0.7540820241 0.9716663361 
-2.940952063 7.213251591 -0.8220112324 0.9691537619 
-3.212856293 6.975292683 -0.8103932142 0.9695829749 
-3.687221527 7.149814129 -0.8489030004 0.9681608677 
-4.055336952 7.072392464 -0.8602970839 0.9677404165 
-4.989047527 7.143862247 -0.9194894433 0.9655594826 
-6.134633541 7.303613186 -1.006508946 0.9623621106 
-7.860082626 7.157885551 -1.121821165 0.9581415653 
-9.594311714 7.288769245 -1.271458745 0.9526922703 
-11.79528809 7.406196117 -1.469711304 0.9455201626 
-14.73022938 7.513613224 -1.744934559 0.9356529713 
-15.84951591 7.214960575 -1.83764863 0.9323523045 
-16.25628471 6.543637753 -1.849196434 0.9319420457 
-18.57209969 3.855576038 -2.001596451 0.9265441298 
-18.84128952 2.189643621 -2.001596451 0.9265440702 
-18.96132278 0.5063866973 -2.001596451 0.9265441298 
-18.86003876 -2.021855354 -2.001596451 0.9265440702 
-18.75141144 -2.858803749 -2.001596451 0.9265441298 
-15.89950657 -3.153456926 -1.710465193 0.9368830323 
-12.94908619 -3.172895432 -1.406864762 0.9477877617 
-11.80498505 -4.034135818 -1.316441059 0.9510600567 
-11.8728857 -4.656875134 -1.345805883 0.949996233 
-16.97291374 -8.46816349 -2.001596451 0.9265440106 
-16.15307045 -9.943173409 -2.001596451 0.9265441298 
-15.16757298 -10.29406738 -1.9343611 0.9289216995 
-14.04768562 -10.47610283 -1.849196434 0.9319419861 
-13.0609808 -11.68318844 -1.849196434 0.9319419861 
-12.52835941 -12.25263119 -1.849196434 0.9319419265 
-11.38973618 -13.31764126 -1.849196434 0.9319420457 
-10.79521942 -13.82295418 -1.850773096 0.9318858981 
-10.17005825 -14.29004383 -1.850846648 0.9318832755 
-9.524682045 -14.72889137 -1.850922346 0.9318807125 
-8.860429764 -15.13863754 -1.851000071 0.9318779111 
-7.480502605 -15.86760712 -1.851160884 0.9318722486 
-3.485151291 -12.96828079 -1.41702652 0.9474207759 
-1.775546789 -13.68254852 -1.455948472 0.946016252 
0.06108886749 -13.73166466 -1.449040651 0.9462653995 
0.6734570265 -13.74805164 -1.452494264 0.9461408257 
1.29004395 -13.7645359 -1.458860397 0.9459112883 
1.913242102 -13.78120041 -1.468201518 0.9455745816 
2.545717716 -13.79813004 -1.480613232 0.9451273084 
3.190278292 -13.81536102 -1.496224046 0.9445651174 
3.849892378 -13.83299732 -1.515198946 0.9438822269 
4.527802467 -13.85114193 -1.537744999 0.943071425 
5.227597713 -13.86985302 -1.564115286 0.9421240091 
7.445287704 -13.82723141 -1.657185435 0.9387876987 
10.6125288 -13.34247494 -1.799019456 0.9337260723 
12.08428955 -12.69079113 -1.849196434 0.9319419861 
13.16447735 -11.56646919 -1.849196434 0.9319419861 
15.4550705 -10.28946018 -1.959267855 0.9280402064 
17.04759407 -8.316725731 -2.001596451 0.9265441298 
18.25077629 -5.166992188 -2.001596451 0.9265440702 
18.77611351 -2.691857815 -2.001596451 0.9265440702 
18.87726784 -1.853964806 -2.001596451 0.9265441298 
18.96733856 -0.1688452065 -2.001596451 0.9265441298 
18.82104683 2.357272863 -2.001596451 0.9265440702 
11.03405285 2.912768602 -1.204248428 0.9551359415 
11.14213371 3.478320122 -1.231727242 0.9541360736 
15.88386154 7.401979923 -1.849196434 0.9319419861 
14.78081226 9.465288162 -1.852136493 0.9318374991 
14.34014893 10.10988235 -1.851493239 0.9318603873 
12.30751705 12.4729681 -1.849087119 0.9319458604 
5.847084999 7.768154144 -1.025991678 0.9616477489 
7.878095627 15.61595631 -1.845689535 0.9320665598 
7.174155235 15.94760704 -1.845303893 0.9320802689 
6.456386566 16.24779701 -1.844945669 0.9320930243 
4.234316349 16.9542675 -1.844041586 0.9321251512 
2.710014582 17.25924683 -1.843586683 0.932141304 
1.939379811 17.36100578 -1.84340477 0.9321477413 
-0.3886035085 17.46127319 -1.843046188 0.9321604967 
-0.7711132765 6.902904987 -0.7329563498 0.9724490047 
-1.769799709 7.086337566 -0.7707496285 0.97104913 
-2.036284208 6.842660904 -0.7533639073 0.9716929197 
-3.535346508 7.007739067 -0.8282647729 0.9689227343 
-4.369868279 7.028774261 -0.8733670115 0.9672584534 
-5.36123991 7.122675419 -0.9407397509 0.9647777081 
-5.991645336 7.263632774 -0.9936134219 0.9628352523 
-7.779623985 7.212285042 -1.11945343 0.9582280517 
-9.493891716 7.346611023 -1.266760707 0.9528627396 
-13.99466324 7.296132565 -1.665429473 0.938492775 
-15.46020031 7.204555511 -1.799873948 0.9336956739 
-16.19740677 6.688080788 -1.849196434 0.9319419861 
-16.47886276 5.960942268 -1.849196434 0.9319420457 
-18.33983803 4.841352463 -2.001596451 0.9265441298 
-18.53706551 4.02074194 -2.001596451 0.9265440106 
-17.74294853 3.029179573 -1.899402261 0.9301602244 
-18.82105827 2.357182503 -2.001596451 0.9265440702 
-18.90727997 1.517621994 -2.001596451 0.9265441298 
-18.25414467 0.6500585675 -1.927478194 0.9291653633 
-18.94104958 -1.012407184 -2.001596451 0.9265441298 
-13.464077 -3.172314405 -1.459692955 0.9458813071 
-11.97549248 -3.390385628 -1.313373327 0.951171279 
-17.4006691 -7.550160885 -2.001596451 0.9265441298 
-16.24098015 -9.799008369 -2.001596451 0.926543951 
-14.13968277 -10.35072708 -1.849196434 0.9319438934 
-13.16440868 -11.56653786 -1.849196434 0.9319419861 
-10.29675293 -14.19882298 -1.850831747 0.9318839312 
-9.65533638 -14.64340305 -1.850906968 0.931881249 
-8.994755745 -15.059062 -1.850984335 0.9318784475 
-6.053671837 -16.06157112 -1.811277151 0.9332900047 
-4.232670784 -12.94829082 -1.437510371 0.9466813207 
-3.608305693 -12.96498966 -1.420120835 0.9473090768 
0.5507665873 -13.74477005 -1.451572537 0.9461740851 
1.166264653 -13.7612257 -1.457351327 0.9459657073 
1.787919879 -13.77785587 -1.466090679 0.9456506371 
3.060239077 -13.81188488 -1.492837667 0.9446870685 
3.716586828 -13.82944298 -1.511124849 0.9440287948 
5.80583477 -13.88531685 -1.588168621 0.9412606359 
7.339506626 -13.92634201 -1.661168933 0.938645184 
8.593296051 -13.28846169 -1.669913173 0.9383323193 
10.41596127 -13.33721161 -1.78574419 0.9341986775 
11.97089291 -12.79780769 -1.849196434 0.9319419861 
13.06099796 -11.68318844 -1.849196434 0.9319419861 
14.04767799 -10.47611332 -1.849196434 0.9319419861 
16.97289467 -8.468139648 -2.001596451 0.9265440702 
18.4231205 -4.514111042 -2.001596451 0.9265440702 
18.93129921 -1.180886149 -2.001596451 0.9265440702 
18.9650898 -0.337587893 -2.001596451 0.9265440702 
11.15862751 2.316538095 -1.202613711 0.9551954269 
11.0468111 2.811196327 -1.202861786 0.9551864266 
16.53128624 5.814023495 -1.849196434 0.9319419861 
16.25629425 6.543634892 -1.849196434 0.9319419861 
15.94912338 7.260300159 -1.849196434 0.9319419861 
14.43051529 9.982587814 -1.851620555 0.931855917 
13.47708988 11.21810246 -1.850375175 0.9319001436 
12.96055126 11.80269718 -1.849778414 0.9319213033 
11.85295868 12.89999008 -1.848642349 0.9319616556 
11.2641058 13.41058064 -1.848105431 0.9319807887 
9.371494293 14.77869606 -1.846630454 0.9320331216 
4.385121822 16.91639519 -1.84409368 0.9321233034 
2.609184504 12.2932663 -1.326136708 0.9507087469 
2.863525391 17.23482895 -1.843626618 0.9321398735 
-0.2331591696 17.46417999 -1.843061328 0.9321599603 
-0.4582128823 7.912168026 -0.8363255262 0.9686250091 
-1.032348633 6.979599476 -0.7445312142 0.9720200896 
-1.973539948 6.854423523 -0.7526957393 0.9717177153 
-2.761303663 7.133232117 -0.8071619868 0.9697024226 
-6.440268517 7.264535904 -1.024459362 0.9617038965 
-6.922289848 7.141332626 -1.049512267 0.9607859254 
-7.636322975 7.206874847 -1.108019114 0.958645761 
-9.340678215 7.361904144 -1.255013585 0.9532895684 
-10.11237812 7.264912128 -1.313934565 0.9511510134 
-11.31766129 7.390429497 -1.42636621 0.9470835328 
-12.50430107 7.393525124 -1.532909513 0.9432452321 
-13.75154781 7.325790882 -1.64419198 0.9392527342 
-15.1058054 7.203671932 -1.766007662 0.9349017739 
-16.1372757 6.831933498 -1.849196434 0.9319419265 
-16.42517471 6.107319355 -1.849196434 0.9319420457 
-17.43940926 5.61494112 -1.933316708 0.9289586544 
-18.29603958 5.004331112 -2.001596451 0.9265441298 
-18.50054169 4.185507774 -2.001596451 0.9265440702 
-18.79932976 2.524623871 -2.001596451 0.9265440702 
-18.89302635 1.685873985 -2.001596451 0.9265440702 
-18.21757698 0.8111816049 -1.924304366 0.9292778373 
-18.9493103 -0.8437792659 -2.001596451 0.9265441298 
-18.79933548 -2.524623871 -2.001596451 0.9265440702 
-12.08069801 -3.304311514 -1.321635246 0.9508718848 
-17.46716309 -7.395053387 -2.001596451 0.9265440702 
-17.12090874 -8.164735794 -2.001596451 0.9265441298 
-13.7630024 -10.84739685 -1.849196434 0.9319419861 
-12.74442863 -12.02770996 -1.849196434 0.9319419861 
-12.19682121 -12.58272457 -1.849196434 0.9319418669 
-10.42264175 -14.10649872 -1.850816965 0.931884408 
-9.785219193 -14.55675793 -1.850891709 0.9318817854 
-9.1283741 -14.97823715 -1.850968599 0.9318791032 
-8.453334808 -15.37018013 -1.851047516 0.9318762422 
-7.042577744 -16.03514099 -1.848103762 0.9319807887 
-6.21574688 -16.05724525 -1.816953063 0.9330880642 
-4.359414101 -12.9448967 -1.4413836 0.9465416074 
-2.645976543 -13.65927219 -1.468180537 0.9455752969 
-2.022797823 -13.67593193 -1.458845139 0.9459118247 
-0.793915987 -13.70879364 -1.449036956 0.9462655783 
-0.1832421869 -13.72513676 -1.448464155 0.9462861419 
1.042734385 -13.75791931 -1.455960631 0.9460158348 
1.662949204 -13.77452087 -1.464101672 0.9457222819 
4.254228592 -13.84382248 -1.528283358 0.9434115887 
5.659633636 -13.88142014 -1.581899047 0.9414855242 
7.606156826 -13.26494122 -1.613566399 0.9403498769 
8.42548275 -13.28687477 -1.660225153 0.9386789799 
9.293305397 -13.30718231 -1.712771535 0.9368007779 
12.41878891 -12.36367893 -1.849196434 0.9319419265 
12.95647144 -11.79898167 -1.849196434 0.9319419861 
13.95386887 -10.60073471 -1.849196434 0.9319420457 
16.49675941 -9.361913681 -2.001596451 0.9265440702 
16.8968811 -8.618808746 -2.001596451 0.9265441298 
17.2635498 -7.858644962 -2.001596451 0.9265441298 
17.89369583 -6.293185711 -2.001596451 0.9265440702 
18.38220978 -4.677915096 -2.001596451 0.9265440702 
18.72522736 -3.025607824 -2.001596451 0.9265441298 
18.8412838 -2.189646006 -2.001596451 0.9265440702 
18.92003822 -1.349348068 -2.001596451 0.9265440702 
18.93130112 1.180881262 -2.001596451 0.9265440702 
12.86015797 1.960690856 -1.372742295 0.9490213394 
11.20096207 2.221562386 -1.204998851 0.9551086426 
11.06568336 3.239472628 -1.216708779 0.9546824098 
16.58236122 5.666718483 -1.849196434 0.9319419861 
16.31386757 6.398742676 -1.849196434 0.9319419861 
15.71907711 7.842597485 -1.853736281 0.9317807555 
14.94903278 9.202018738 -1.852397919 0.9318282604 
12.52914047 12.2534132 -1.849314332 0.9319378138 
11.96802711 12.7947216 -1.848752379 0.9319577813 
10.77723122 13.79992676 -1.847691655 0.9319954515 
6.019682407 16.41257858 -1.844744086 0.9321001768 
5.282734394 16.66127968 -1.844431162 0.9321112633 
1.475141525 17.40570259 -1.843310714 0.9321510792 
0.6993651986 17.45283699 -1.843178511 0.9321557879 
-0.6951806545 14.19145966 -1.499339223 0.9444528818 
-0.6517431736 6.954052448 -0.7370385528 0.9722977281 
-0.9732812047 7.010629654 -0.7468864322 0.9719327688 
-1.289555669 6.989580154 -0.7500190735 0.9718167186 
-1.626723647 7.044482231 -0.7629272342 0.9713387489 
-1.910912991 6.866069317 -0.7520769835 0.9717406034 
-2.279965878 6.97470665 -0.7743301392 0.970916748 
-3.009291887 7.020785809 -0.8060535789 0.969743371 
-3.88363266 7.212568283 -0.8644245863 0.9675881863 
-4.725424767 7.166630745 -0.9058544636 0.9660614133 
-5.222084999 7.201049805 -0.9386662245 0.9648539424 
-5.677534103 7.138002872 -0.9624485373 0.9639797807 
-6.778549671 7.118749619 -1.037285924 0.9612337947 
-9.064882278 7.276206017 -1.226606131 0.9543223381 
-9.986484528 7.310043812 -1.305973172 0.9514396191 
-12.27305126 7.404951096 -1.51257658 0.9439765215 
-15.01503372 7.325126648 -1.762946486 0.9350107908 
-16.07582474 6.975302696 -1.849196434 0.9319419265 
-16.94893074 5.623993874 -1.884413004 0.9306917191 
-18.46255302 4.350014687 -2.001596451 0.9265440702 
-18.96737671 0.168750003 -2.001596451 0.926543951 
-18.90727997 -1.517705083 -2.001596451 0.9265440702 
-11.85005856 -3.69932127 -1.309985757 0.9512941837 
-11.80629349 -4.270722389 -1.324857116 0.9507551193 
-17.19291496 -8.012011528 -2.001596451 0.9265440702 
-16.81949234 -8.768891335 -2.001596451 0.9265440702 
-16.41278839 -9.508422852 -2.001596451 0.9265440106 
-15.97353935 -10.22908688 -2.001596451 0.9265441298 
-13.85901356 -10.72446251 -1.849196434 0.9319419861 
-13.36822701 -11.33035088 -1.849196434 0.9319419861 
-12.85093212 -11.91384697 -1.849196434 0.9319419861 
-12.30819321 -12.47371101 -1.849196434 0.9319421053 
-11.16013145 -13.52950668 -1.8507303 0.9318875074 
-9.914252281 -14.46900845 -1.85087657 0.9318823218 
-9.261200905 -14.89633274 -1.850953221 0.9318795204 
-8.589740753 -15.29419422 -1.851031661 0.9318768382 
-7.452685356 -14.77272415 -1.746024251 0.935614109 
-6.378930569 -16.05288124 -1.822811842 0.9328796864 
-4.486918926 -12.94148922 -1.44539392 0.9463969469 
-3.856235266 -12.95834923 -1.426687241 0.9470720291 
-2.146840811 -13.67262173 -1.460471749 0.9458531737 
-1.529199243 -13.68913078 -1.453522801 0.9461037517 
0.9194872975 -13.7546339 -1.454689026 0.9460616708 
1.538364172 -13.77118587 -1.462234735 0.9457896352 
2.164956093 -13.78794384 -1.472791076 0.9454091191 
2.801923752 -13.80497551 -1.486464977 0.9449165463 
3.452128887 -13.82236767 -1.503399372 0.9443068504 
5.514511585 -13.87752438 -1.57580018 0.941704452 
6.251777172 -13.89725113 -1.608056188 0.9405473471 
9.114902496 -13.3024168 -1.70164609 0.9371980429 
11.01482868 -13.35322762 -1.826624274 0.9327441454 
11.74123478 -13.00882816 -1.849196434 0.9319419861 
12.30829048 -12.47365665 -1.849196434 0.9319419861 
12.85093975 -11.9138689 -1.849196434 0.9319419265 
13.3682251 -11.33033657 -1.849196434 0.9319420457 
15.97350788 -10.22915268 -2.001596451 0.9265440702 
16.4127636 -9.508396149 -2.001596451 0.9265441298 
17.19291496 -8.012001991 -2.001596451 0.9265441298 
18.33984184 -4.841354847 -2.001596451 0.9265440702 
18.53706932 -4.020661354 -2.001596451 0.9265440702 
18.82105827 -2.35718751 -2.001596451 0.9265440702 
18.95607567 -0.6750586033 -2.001596451 0.9265440702 
18.96734238 0.1687597632 -2.001596451 0.9265440702 
18.94105148 1.012399912 -2.001596451 0.9265441298 
11.05898857 3.13097167 -1.212861538 0.9548224211 
16.94895744 5.624001503 -1.884416461 0.9306915998 
15.74957466 7.683559418 -1.849196434 0.9319419861 
15.42550755 8.394604683 -1.853194952 0.9317999482 
13.67645931 10.97785664 -1.850618839 0.9318914413 
8.038393021 7.722714901 -1.176292419 0.9561545849 
12.08211422 12.68849564 -1.848863125 0.9319538474 
11.50237751 13.20945263 -1.848317623 0.9319732189 
5.636547565 7.772524357 -1.013159275 0.9621182084 
9.633989334 14.61102486 -1.846814632 0.9320266247 
8.972230911 15.02145958 -1.846361518 0.9320427179 
7.598212719 15.75238228 -1.84553206 0.9320721626 
6.888637543 16.07149315 -1.845157266 0.9320855141 
6.165673733 16.3589592 -1.844810128 0.9320978522 
5.431010723 16.61413956 -1.844491363 0.9321091771 
2.532387733 9.099247932 -0.9966845512 0.9627225399 
3.169946194 17.18191338 -1.843710423 0.9321368933 
2.402309418 17.30403328 -1.84351027 0.9321439862 
1.629960895 17.39217186 -1.843340755 0.9321500659 
0.8546972275 17.44615173 -1.843202353 0.9321549535 
-0.5915185213 6.979672909 -0.739166379 0.9722188711 
-1.566323161 7.069218636 -0.7640670538 0.9712965488 
-1.839213848 6.843720436 -0.7478057742 0.9718987942 
-2.158237219 6.806787014 -0.7535262704 0.9716869593 
-2.613652229 7.126098633 -0.8009632826 0.9699316025 
-2.981874943 7.131391525 -0.8156744242 0.9693878293 
-3.27436018 6.945531845 -0.8102875948 0.9695869088 
-6.74187994 7.207582951 -1.041446805 0.9610813856 
-7.998354435 7.154613972 -1.132421374 0.9577544928 
-10.85452652 7.366786957 -1.384302497 0.9486032724 
-11.94761181 7.354443073 -1.480476022 0.9451321959 
-14.88767052 7.427753925 -1.755686045 0.9352695942 
-16.01311493 7.118046761 -1.849196434 0.9319419861 
-16.58242607 5.666659832 -1.849196434 0.9319418073 
-18.20405197 5.32923317 -2.001596451 0.9265441298 
-18.60569763 3.690195322 -2.001596451 0.9265440106 
-18.93130302 1.180883765 -2.001596451 0.9265440702 
-18.92003441 -1.349418879 -2.001596451 0.9265440702 
-18.8412838 -2.189653158 -2.001596451 0.9265440702 
-18.72521973 -3.025678635 -2.001596451 0.9265440702 
-12.49175262 -3.178959846 -1.360197425 0.9494751692 
-11.88203621 -3.59354496 -1.309931636 0.9512960911 
-11.79432106 -4.148100376 -1.319320321 0.9509558082 
-11.91298294 -4.795331955 -1.355132222 0.9496585131 
-17.26352501 -7.858730316 -2.001596451 0.9265440702 
-16.49672318 -9.362001419 -2.001596451 0.9265440702 
-16.06395912 -10.08649921 -2.001596451 0.9265441298 
-12.95652771 -11.79893494 -1.849196434 0.9319419861 
-12.41877937 -12.36366653 -1.849196434 0.9319419861 
-11.85645962 -12.90391541 -1.849196434 0.9319419861 
-10.67183113 -13.91858864 -1.85078764 0.9318854809 
-7.555395126 -14.65071297 -1.739480495 0.9358475208 
-7.339096546 -15.93368149 -1.851177335 0.9318716526 
-6.543105125 -16.04849052 -1.828851938 0.9326649904 
-3.981049776 -12.95501423 -1.430162668 0.9469465613 
-2.271171808 -13.66929626 -1.462218285 0.9457902312 
-1.038564444 -13.70226002 -1.450068593 0.9462282658 
1.414091706 -13.76786137 -1.460487962 0.9458525777 
2.038867235 -13.78456974 -1.470433831 0.9454941154 
2.673598528 -13.80154228 -1.483473659 0.9450242519 
3.983925581 -13.83658695 -1.519415736 0.9437305331 
5.370551586 -13.8736763 -1.569875002 0.941917181 
6.101860046 -13.89324665 -1.601243854 0.9407916069 
8.092133522 -13.27793884 -1.640852928 0.9393724203 
8.938774109 -13.29769993 -1.690798283 0.9375857115 
9.842924118 -13.32188416 -1.747873545 0.9355481863 
11.53853035 -13.01531696 -1.835446596 0.9324305654 
13.7630024 -10.84739685 -1.849196434 0.9319419861 
15.74989986 -10.28469658 -1.984966516 0.9271316528 
16.32751274 -9.654035568 -2.001596451 0.9265441298 
16.74077034 -8.918239594 -2.001596451 0.9265441298 
17.12094879 -8.164657593 -2.001596451 0.9265440702 
17.46715546 -7.395046234 -2.001596451 0.9265441298 
17.77885628 -6.610654354 -2.001596451 0.9265441298 
18.05529594 -5.813327312 -2.001596451 0.9265441298 
18.29604149 -5.004325867 -2.001596451 0.9265441298 
18.5005188 -4.18558073 -2.001596451 0.9265441298 
18.79931831 -2.524704456 -2.001596451 0.9265440702 
18.89302254 -1.685859323 -2.001596451 0.9265441298 
18.96809196 -2.441406195e-06 -2.001596451 0.9265440702 
18.9493103 0.8438451886 -2.001596451 0.9265441298 
14.61960125 1.963383794 -1.556574941 0.942394793 
11.40491676 2.051708937 -1.222816467 0.9544602036 
11.09433079 2.509994984 -1.200310588 0.9552792907 
16.42520523 6.107324123 -1.849196434 0.9319419265 
15.1126194 8.935708046 -1.85266149 0.9318189025 
11.70991707 7.646572113 -1.475803137 0.9453005791 
14.24865246 10.23636723 -1.851366401 0.9318649173 
13.77450657 10.85645771 -1.850741863 0.9318870902 
13.27352524 11.45475769 -1.850134254 0.9319086671 
12.74683094 12.02997303 -1.849544764 0.9319296479 
12.19526577 12.58125496 -1.848974705 0.9319499135 
11.02234364 13.60744095 -1.847896695 0.9319881797 
5.741157055 7.770356178 -1.019494653 0.9618858695 
9.764091492 14.52545834 -1.846908331 0.9320233464 
8.430376053 15.32840252 -1.846017122 0.9320549369 
7.738520145 15.68476009 -1.845610261 0.9320693612 
4.835663795 16.79476929 -1.844257116 0.9321174622 
3.322915077 17.15340805 -1.843754053 0.9321353436 
-0.5439306498 17.45698738 -1.84303236 0.9321610332 
-0.5309716463 7.005307674 -0.7413502336 0.9721378684 
-0.8442773223 6.993339539 -0.7433262467 0.9720646739 
-2.099086761 6.830771446 -0.7540815473 0.9716663361 
-2.475239277 6.93905735 -0.777433157 0.9708018899 
-2.940932512 7.213290691 -0.822014153 0.9691536427 
-3.687192202 7.149809361 -0.8489005566 0.9681609273 
-4.055336952 7.072392464 -0.8602970839 0.9677404165 
-4.989047527 7.143862247 -0.9194894433 0.9655594826 
-6.134633541 7.303613186 -1.006508946 0.9623621106 
-7.860102177 7.157846451 -1.121820211 0.9581416249 
-8.820590973 7.342094421 -1.211048126 0.954888463 
-9.594360352 7.288740158 -1.271459818 0.9526921511 
-14.73022938 7.513613224 -1.744934559 0.9356529713 
-15.8493309 7.21496582 -1.837629795 0.9323529005 
-16.53126335 5.814101219 -1.849196434 0.9319419861 
-18.15593147 5.490991116 -2.001596451 0.9265440702 
-18.38223076 4.677826881 -2.001596451 0.9265441298 
-18.84128952 2.189643621 -2.001596451 0.9265440702 
-18.75141144 -2.858803749 -2.001596451 0.9265441298 
-12.94932079 -3.172890663 -1.406888127 0.9477869272 
-11.80497551 -4.034086704 -1.316439509 0.9510601163 
-16.97291374 -8.46816349 -2.001596451 0.9265440106 
-16.57936478 -9.214858055 -2.001596451 0.9265440702 
-15.16745567 -10.29407692 -1.934350491 0.9289219975 
-14.04768562 -10.47610283 -1.849196434 0.9319419861 
-13.56770992 -11.09068871 -1.849196434 0.9319419861 
-13.0609808 -11.68318844 -1.849196434 0.9319419861 
-11.97087383 -12.79780293 -1.849196434 0.9319420457 
-11.38966751 -13.3176899 -1.849196434 0.9319421053 
-10.79526806 -13.82289028 -1.850773096 0.9318860173 
-9.52475071 -14.72884274 -1.850922346 0.9318807125 
-8.860429764 -15.13863754 -1.851000071 0.9318779111 
-7.480502605 -15.86760712 -1.851160884 0.9318722486 
-6.708544731 -16.04406738 -1.835083008 0.9324434996 
-5.892514706 -16.06588364 -1.805776596 0.9334856868 
-4.1064744 -12.95166016 -1.433768153 0.9468163848 
-3.485151291 -12.96828079 -1.41702652 0.9474207759 
-3.024116039 -13.64914513 -1.475246906 0.9453206658 
-2.395751953 -13.6659565 -1.464083791 0.9457229972 
-1.160991192 -13.69897938 -1.450759292 0.9462034106 
-0.5495312214 -13.71533203 -1.448464036 0.9462862015 
0.06108886749 -13.73166466 -1.449040651 0.9462653995 
2.545659065 -13.79812431 -1.480611682 0.945127368 
3.190278292 -13.81536102 -1.496224046 0.9445651174 
4.527802467 -13.85114193 -1.537744999 0.943071425 
7.445287704 -13.82723141 -1.657185435 0.9387876987 
7.928373814 -13.27355957 -1.631527543 0.9397063255 
9.657284737 -13.31692314 -1.735880256 0.9359759688 
12.63690376 -12.14062977 -1.849196434 0.9319419861 
13.16442871 -11.56651783 -1.849196434 0.9319419861 
13.6659441 -10.96941376 -1.849196434 0.9319420457 
14.14017582 -10.35071468 -1.849196434 0.9319424629 
15.4550705 -10.28946018 -1.959267855 0.9280402064 
16.24089813 -9.799062729 -2.001596451 0.9265441298 
16.6607666 -9.066833496 -2.001596451 0.9265440702 
17.04755974 -8.316794395 -2.001596451 0.9265441298 
17.71933746 -6.768568993 -2.001596451 0.9265441298 
18.25079536 -5.166911602 -2.001596451 0.9265440702 
18.94105721 -1.012407184 -2.001596451 0.9265440702 
18.96734047 -0.168762207 -2.001596451 0.9265441298 
18.90727806 1.517712355 -2.001596451 0.9265440702 
11.65585423 1.989956021 -1.247773528 0.9535526633 
11.03405285 2.912768602 -1.204248428 0.9551359415 
11.14211369 3.478261709 -1.231723547 0.9541361928 
16.47887421 5.960944653 -1.849196434 0.9319419861 
16.19737053 6.688146591 -1.849196434 0.9319419861 
14.78076172 9.465344429 -1.852136374 0.9318375587 
14.34014893 10.10988235 -1.851493239 0.9318603873 
13.87147903 10.7341938 -1.850865245 0.9318827391 
13.37587357 11.33683109 -1.850254297 0.9319044352 
12.30757332 12.4729147 -1.849087119 0.9319458604 
11.73696709 13.00420856 -1.848533273 0.9319655895 
5.847084999 7.768154144 -1.025991678 0.9616477489 
7.878095627 15.61595631 -1.845689535 0.9320665598 
4.234248161 16.95428276 -1.844041586 0.9321251512 
3.475488186 17.12360382 -1.843798995 0.9321336746 
2.709946156 17.25925827 -1.843586683 0.932141304 
1.939379811 17.36100578 -1.84340477 0.9321477413 
-0.5237743855 7.835717678 -0.828704834 0.9689064622 
-0.7711132765 6.902904987 -0.7329563498 0.9724490047 
-1.09583497 6.979277134 -0.7455068827 0.9719839096 
-1.423403263 7.013066292 -0.7551389933 0.9716271162 
-2.834716797 7.133681297 -0.8100350499 0.9695962667 
-3.156655312 7.016904354 -0.8119331002 0.9695261121 
-4.369868279 7.028774261 -0.8733670115 0.9672584534 
-4.903315544 7.155893326 -0.915387094 0.9657104611 
-5.36123991 7.122675419 -0.9407397509 0.9647777081 
-6.482944012 7.182905197 -1.021041512 0.9618291855 
-7.779594421 7.212314129 -1.119452715 0.9582280517 
-9.493803024 7.346616268 -1.26675415 0.9528630376 
-10.22287083 7.207192421 -1.319901228 0.9509347081 
-12.71345234 7.36524868 -1.55044961 0.9426147938 
-13.99475098 7.296098232 -1.665435195 0.9384925365 
-16.47886276 5.960942268 -1.849196434 0.9319420457 
-17.95603943 5.605375767 -1.984977484 0.9271311164 
-18.33983803 4.841352463 -2.001596451 0.9265441298 
-18.53708458 4.02065897 -2.001596451 0.9265440106 
-18.25414467 0.6500585675 -1.927478194 0.9291653633 
-18.94104958 -1.012407184 -2.001596451 0.9265441298 
-13.464077 -3.172314405 -1.459692955 0.9458813071 
-17.4006691 -7.550160885 -2.001596451 0.9265441298 
-17.04755402 -8.316802025 -2.001596451 0.9265441298 
-16.66063881 -9.066825867 -2.001596451 0.9265445471 
-16.2407856 -9.799067497 -2.001596451 0.9265444279 
-15.45507812 -10.28946304 -1.959268451 0.9280401468 
-13.66594696 -10.96941853 -1.849196434 0.9319419861 
-11.50781727 -13.21573734 -1.849196434 0.9319420457 
-10.91773415 -13.72619629 -1.850758791 0.9318864942 
-10.29668427 -14.19886684 -1.850831747 0.9318839312 
-7.579154968 -14.07584476 -1.686981201 0.9377220869 
-6.971874714 -14.45386219 -1.693399429 0.9374927282 
-6.874975204 -16.03961372 -1.841497183 0.9322155118 
-3.60825181 -12.96498966 -1.420118213 0.9473091364 
-2.520659208 -13.66261673 -1.466070652 0.9456513524 
-1.899077058 -13.67924786 -1.457336545 0.9459661245 
-0.6717578173 -13.71206474 -1.448693395 0.946277976 
-0.06107421592 -13.72839355 -1.44869566 0.9462778568 
0.5507079959 -13.74477005 -1.451572061 0.9461740851 
1.78797853 -13.77785587 -1.466091633 0.9456506371 
2.418325186 -13.7947216 -1.477879047 0.9452258348 
3.716586828 -13.82944298 -1.511124849 0.9440287948 
4.390625 -13.84747028 -1.532939672 0.9432441592 
5.085678577 -13.86605453 -1.558520317 0.9423249364 
6.555439472 -13.90538025 -1.622240901 0.9400389194 
9.473989487 -13.31202126 -1.724174023 0.9363936782 
11.38970661 -13.31768513 -1.849196434 0.9319419861 
11.97089291 -12.79780769 -1.849196434 0.9319419861 
12.52828121 -12.25268269 -1.849196434 0.9319420457 
13.06099796 -11.68318844 -1.849196434 0.9319419861 
14.04767799 -10.47611332 -1.849196434 0.9319419861 
15.16770267 -10.29406452 -1.93437171 0.9289212823 
16.57943726 -9.214706421 -2.001596451 0.9265440702 
17.33281708 -7.704672813 -2.001596451 0.9265440702 
17.94900894 -6.133671761 -2.001596451 0.9265440702 
18.86001968 -2.021928549 -2.001596451 0.9265440702 
18.91993141 1.349443316 -2.001596451 0.9265444875 
18.84128189 2.189646006 -2.001596451 0.9265441298 
11.15862751 2.316538095 -1.202613711 0.9551954269 
11.04680157 2.811249971 -1.20286262 0.9551864266 
11.10427189 3.358320236 -1.224188685 0.954410255 
15.94909191 7.26035881 -1.849196434 0.9319419861 
15.27142048 8.666625977 -1.852927208 0.931809485 
12.17299557 7.643373966 -1.516775727 0.9438254833 
14.43051529 9.982587814 -1.851620555 0.931855917 
12.41880798 12.36368656 -1.849200368 0.9319418669 
6.600942135 16.19032097 -1.845015049 0.9320905805 
5.873208046 16.46490669 -1.844679236 0.9321025014 
4.385195255 16.91637611 -1.84409368 0.9321233034 
2.609184504 12.2932663 -1.326136708 0.9507087469 
2.863598585 17.23481369 -1.843626618 0.9321398735 
2.093803644 17.34337807 -1.843438625 0.9321465492 
0.5439745784 17.45815468 -1.843155742 0.9321566224 
-0.4582128823 7.912168026 -0.8363255262 0.9686250091 
-1.032348633 6.979599476 -0.7445312142 0.9720200896 
-1.35775876 7.008950233 -0.753364265 0.9716928005 
-1.973579049 6.854418755 -0.7526956201 0.9717177153 
-2.361391544 7.011933327 -0.7807644606 0.9706786275 
-2.761303663 7.133232117 -0.8071619868 0.9697024226 
-3.077934504 7.008076191 -0.8077068925 0.9696822762 
-4.286288738 7.03313446 -0.8691355586 0.9674144387 
-5.826616287 7.193129539 -0.9768304229 0.9634513855 
-7.636322975 7.206874847 -1.108019114 0.958645761 
-8.455834389 7.297065258 -1.178610921 0.9560697675 
-9.340678215 7.361904144 -1.255013585 0.9532895684 
-10.11243153 7.264882565 -1.313936472 0.9511508942 
-12.50432587 7.393486023 -1.532910228 0.9432452321 
-13.75154781 7.325790882 -1.64419198 0.9392527342 
-16.1372261 6.831992149 -1.849196434 0.9319419861 
-18.29603958 5.004331112 -2.001596451 0.9265441298 
-17.71140099 3.186225414 -1.898985744 0.9301750064 
-18.79931641 2.524711847 -2.001596451 0.9265441298 
-18.21760178 0.8111083508 -1.924305797 0.9292777777 
-17.16337776 -3.087666035 -2.001596451 0.9321947098 
-14.06533623 -3.182109356 -1.655185699 0.9435915351 
-12.06952572 -3.301279306 -1.436198235 0.9508679509 
-16.05898476 -6.798828125 -2.001596451 0.9321947098 
-15.74064922 -7.506474495 -2.001596451 0.9321947098 
-15.01132298 -8.87582016 -2.001596451 0.9321941733 
-14.6014843 -9.534760475 -2.001596451 0.9321947098 
-14.16290474 -10.17484379 -2.001596451 0.9321947098 
-13.066782 -10.2986517 -1.909603119 0.9352077842 
-11.21348095 -11.56831551 -1.849196434 0.937191546 
-10.68774891 -12.05567837 -1.849196434 0.9371916652 
-10.14091778 -12.51918411 -1.849196434 0.937191546 
-9.573979378 -12.95789528 -1.849196434 0.937191546 
-8.392783165 -13.77131844 -1.851047873 0.9371306896 
-7.772182465 -14.13158131 -1.851120353 0.9371283054 
-7.117704868 -14.426548 -1.846411228 0.9372830987 
-6.485937119 -14.76764107 -1.851270199 0.9371233582 
-5.822841644 -15.04216766 -1.851347327 0.9371208549 
-3.731967688 -12.96168423 -1.548149347 0.9471411109 
-2.645986319 -13.65926266 -1.596922874 0.9455220103 
-2.022802591 -13.67593765 -1.586769342 0.9458588362 
-1.406284094 -13.69242668 -1.579851508 0.9460883737 
-0.793915987 -13.70879364 -1.576100945 0.9462128878 
-0.1832372993 -13.72512627 -1.575479388 0.946233511 
0.4281738102 -13.74149418 -1.577981591 0.9461504221 
2.291406155 -13.79131317 -1.604636073 0.9452662468 
2.930795908 -13.80842781 -1.620205402 0.9447501302 
4.254199028 -13.84381294 -1.662295222 0.9433562756 
4.944794655 -13.86228466 -1.689277053 0.9424638152 
6.402948856 -13.90129852 -1.75667572 0.9402381778 
7.606147289 -13.26494122 -1.755056143 0.9402915835 
9.224638939 -13.20886707 -1.849196434 0.937191546 
9.803080559 -12.78545856 -1.849196434 0.937191546 
10.90066338 -11.86355972 -1.849196434 0.937191546 
11.41761208 -11.36690426 -1.849196434 0.937191546 
13.54581738 -10.29070759 -1.952528954 0.9338005781 
15.87176037 -7.225119591 -2.001596451 0.9321947098 
17.07483292 -3.544745922 -2.001596451 0.9321947098 
17.32232094 -2.013115168 -2.001596451 0.9321947098 
17.39471817 -1.240561485 -2.001596451 0.9321947098 
17.40507126 1.085703135 -2.001596451 0.9321947098 
17.33954811 1.85887444 -2.001596451 0.9321947098 
11.0390377 2.704853535 -1.304515481 0.9552704096 
11.04085445 3.232182503 -1.320429683 0.9547373056 
16.40060425 5.60458231 -1.989303708 0.9325968027 
14.99866676 5.88286829 -1.849196434 0.937191546 
14.72212601 6.544240475 -1.849196434 0.937191546 
14.41646194 7.192658424 -1.849196434 0.9371914864 
13.74788094 8.46262455 -1.852940321 0.9370684624 
13.35351086 9.062883377 -1.852343202 0.9370881319 
12.9330759 9.644875526 -1.851759791 0.9371073246 
12.48739719 10.20751476 -1.851191401 0.9371259809 
12.01737309 10.74968719 -1.850638866 0.9371441603 
11.52395439 11.27037048 -1.850103617 0.9371617436 
11.00811958 11.7685442 -1.849586248 0.9371787906 
9.913334846 12.69366646 -1.848610163 0.9372108579 
8.741674423 13.51799297 -1.847717881 0.9372401834 
4.562201977 7.794804573 -1.036643863 0.9642890096 
7.502358437 14.23526859 -1.846916318 0.9372665286 
5.537841797 15.09884262 -1.845897198 0.9373000264 
4.859951019 15.32784176 -1.845609069 0.9373095036 
3.477456093 15.69491196 -1.845113158 0.9373258352 
