# .PCD v0.7 - Point Cloud Data file format
VERSION 0.7
FIELDS x y z intensities
SIZE 4 4 4 4
TYPE F F F F
COUNT 1 1 1 1
WIDTH 932
HEIGHT 1
VIEWPOINT 0 0 0 1 0 0 0
POINTS 932
DATA ascii
68.75925446 46.66612625 4.181951046 0.7168995738 
68.95248413 56.36345673 4.481782913 0.6999951601 
14.5165472 111.8657227 5.676774979 0.6364905238 
-1.197954059 12.78252888 0.6460920572 0.9498804212 
-1.287885666 9.276752472 0.4713256657 0.9631844759 
-1.721850514 9.332632065 0.4775862098 0.9627046585 
-2.589028358 9.302636147 0.4859428406 0.9620646238 
-9.651459694 22.51727486 1.232854486 0.9065417647 
-9.7397995 18.08853531 1.033870697 0.9210137725 
-9.774198532 16.36396408 0.959225893 0.9265013933 
-9.830209732 13.55550766 0.8426667452 0.9351357818 
-9.874389648 11.33994579 0.756706655 0.941555202 
-9.752328873 10.24179649 0.7116996646 0.9449337721 
-9.949120522 9.558476448 0.6943138242 0.9462422132 
-12.53396988 10.06078625 0.8088313341 0.9376573563 
-19.25031281 11.61469746 1.131436944 0.9138900638 
-19.27274895 10.48828125 1.104208827 0.9158723354 
-23.66005898 10.26610851 1.297933459 0.9018601775 
-50.41330338 19.25749397 2.715819597 0.8056240678 
-68.46224976 16.13056183 3.539666176 0.7544973493 
-15.80230904 2.265517473 0.8033759594 0.9380646944 
-15.93046856 1.564555645 0.8055518866 0.9379023314 
-16.27494621 0.1448730379 0.8190635443 0.9368943572 
-101.4063873 -17.31278801 5.177063465 0.662314117 
-105.1333771 -22.80379295 5.413810253 0.6499519348 
-60.17135239 -18.7841053 3.172211885 0.7768874168 
-54.73154831 -22.59926224 2.979897976 0.7888692021 
-55.17883301 -28.76763153 3.131578922 0.7794041038 
-55.45972061 -42.91614532 3.529025793 0.7551365495 
-26.39849472 -22.37427139 1.741464019 0.8705812693 
-49.46466064 -45.85732651 3.39443779 0.7632682323 
-54.73369598 -55.46952438 3.921646118 0.7319059968 
-43.88926315 -58.30914307 3.672729492 0.7465494871 
-9.958471298 -16.01786041 0.9491782784 0.9272425771 
-7.389121056 -14.64672375 0.8255747557 0.9364086986 
-7.230146408 -16.0721035 0.8868943453 0.9318501949 
-6.393178463 -16.0887394 0.8712391257 0.9330118895 
-3.244189262 -12.98980904 0.6737837195 0.947789371 
-2.638916016 -13.00185966 0.6676533222 0.9482519627 
-2.043374062 -13.01370049 0.6629328728 0.9486083388 
-0.8715087771 -13.03700638 0.6575443745 0.9490151405 
-0.2903417945 -13.04856873 0.6568257213 0.9490695 
0.2906494141 -13.06012154 0.6574064493 0.9490255713 
0.8738232255 -13.07172775 0.6592973471 0.9488828778 
2.056181669 -13.09524345 0.6670872569 0.9482948184 
7.414633751 -13.20187473 0.7619901896 0.9411593676 
8.217685699 -13.21785641 0.7832573056 0.9395678043 
9.066557884 -13.23185062 0.807210207 0.9377784729 
10.94545364 -13.26924801 0.8656346202 0.9334281683 
18.3188839 -16.98294449 1.257108331 0.904795289 
19.05447388 -13.43352985 1.173253298 0.9108535647 
21.03925705 -13.473032 1.257277369 0.9047828913 
29.26304817 -13.63675785 1.624701023 0.8787091374 
77.70582581 -16.85461807 4.001433849 0.7272729874 
117.9812393 11.58712387 5.965912819 0.622012198 
113.5233765 32.13967133 5.937547684 0.6234179139 
80.86318207 30.88910866 4.356194496 0.7070269585 
71.61373138 31.07322693 3.928557634 0.7315034866 
68.49526978 33.41565704 3.83530879 0.7369522452 
68.83335114 50.38591385 4.29287529 0.7105984688 
23.11592674 100.1025391 5.170164108 0.6626770496 
-1.215092778 9.363613129 0.4751693606 0.9628897905 
-1.635786057 9.33092308 0.4767333865 0.962769866 
-2.499550819 9.300854683 0.4846682549 0.9621621966 
-2.951840639 9.309853554 0.4914997816 0.9616392851 
-9.767719269 16.68878937 0.9731281996 0.9254766703 
-9.798374176 15.15196705 0.9080588818 0.9302816987 
-9.825219154 13.80542946 0.852737844 0.9343867898 
-10.12133312 12.95996571 0.8275315762 0.9362629652 
-9.83872509 9.62220192 0.6925544739 0.9463745356 
-11.73365688 9.591382027 0.7626658678 0.9411087036 
-12.89220142 9.614408493 0.8093425035 0.9376193285 
-19.26834488 10.70928192 1.109376073 0.9154958725 
-19.38889694 9.673540115 1.090434432 0.9168768525 
-57.39418411 11.38316822 2.944595337 0.7910890579 
-15.77679157 2.405307531 0.8031364083 0.938082695 
-15.90475559 1.705034137 0.8049870133 0.9379444718 
-59.98019791 -18.14011192 3.153493643 0.7780454159 
-54.92837143 -25.00431061 3.037183762 0.7852817178 
-54.91587448 -31.16512108 3.177626848 0.7765525579 
-58.60934067 -36.80089188 3.482714653 0.7579247355 
-55.26556015 -41.98512268 3.492811918 0.7573190331 
-55.34660339 -46.06963348 3.623940468 0.7494538426 
-54.10215378 -53.86202621 3.841888428 0.7365663052 
-54.5567131 -64.95294189 4.268790722 0.7119622827 
-44.2884407 -57.76219177 3.662956953 0.7471299171 
-9.193408012 -16.03307152 0.9300880432 0.9286522865 
-6.558271408 -16.08545876 0.8741883636 0.932792902 
-5.743544579 -16.10165024 0.8603156805 0.9338233471 
-3.987192392 -12.9750433 0.6830964684 0.9470871687 
-3.366621017 -12.98737717 0.6751853824 0.9476837516 
-2.759062529 -12.99946785 0.6687623262 0.9481681585 
-2.161796808 -13.01133728 0.6637647748 0.9485454559 
-1.572226524 -13.02306652 0.6601380706 0.9488192797 
-0.9879199266 -13.03469181 0.6578456163 0.9489924312 
-0.4064990282 -13.04625988 0.6568659544 0.9490664601 
0.1743359268 -13.0578022 0.657186389 0.9490422606 
0.7568798661 -13.06939411 0.6588138938 0.9489193559 
2.538578987 -13.10484314 0.6717554927 0.947942555 
3.152202129 -13.11705494 0.6789033413 0.9474034309 
3.780287981 -13.12956047 0.6875818968 0.9467493296 
4.425922871 -13.14239693 0.6978825331 0.9459734559 
5.784038067 -13.1694231 0.7238487005 0.9440205693 
6.504589558 -13.18376446 0.7398246527 0.9428211451 
8.053529739 -13.21458435 0.7787864804 0.9399021864 
9.787011147 -13.24619579 0.8288239837 0.9361667037 
10.74528313 -13.26527309 0.8591032028 0.9339134097 
11.78097343 -13.28877926 0.8937125802 0.9313445091 
18.28297234 -18.86149788 1.321938872 0.9001389146 
18.34180641 -15.82841778 1.219227433 0.9075272083 
18.6886673 -13.42623997 1.158042789 0.9119568467 
22.84709358 -13.50902843 1.335719705 0.8991523385 
32.35596466 -13.69832993 1.768213034 0.8687301874 
63.49573135 -20.44363785 3.356930971 0.7655501962 
65.67467499 -17.96334457 3.426448822 0.761326611 
74.28291321 -16.80554199 3.832714081 0.7371039391 
113.5247421 31.05124855 5.922937393 0.6241437197 
69.0036087 40.80044937 4.034183979 0.7253801227 
68.72359467 44.87649918 4.130540848 0.7198385596 
68.89045715 49.49198532 4.268807888 0.7119617462 
58.0774498 65.51065063 4.405802727 0.7042408586 
39.16376877 89.17133331 4.901235104 0.6770138144 
32.09928131 111.4859161 5.838386536 0.6283567548 
-0.9684521556 12.77796841 0.6448881626 0.9499714971 
-2.410576105 9.299091339 0.4834390283 0.9622563124 
-9.629491806 23.6182518 1.283567667 0.9028918147 
-9.681347847 21.01886749 1.16457355 0.9114828706 
-9.724477768 18.85655212 1.067703724 0.9185371399 
-9.792572975 15.44273376 0.920227468 0.9293814898 
-9.820121765 14.06154251 0.8631229997 0.9336147308 
-9.86628437 11.74637222 0.7719868422 0.940410912 
-10.5054884 9.566967964 0.7150544524 0.9446815252 
-11.51763153 9.587080002 0.7541422844 0.9417473674 
-12.64920902 9.609575272 0.7994267344 0.9383595586 
-19.26390648 10.93227959 1.114676356 0.9151097536 
-19.28571701 9.837308884 1.089511871 0.9169442654 
-23.67196655 10.77586365 1.308899045 0.901073277 
-58.12293243 17.57835388 3.055852652 0.7841153741 
-57.50521851 11.93813896 2.955624342 0.7903948426 
-15.87907696 1.845390558 0.8044874668 0.9379818439 
-101.9208374 -20.21466255 5.229011059 0.6595808864 
-54.91661453 -24.41144943 3.024390697 0.7860807776 
-55.4283905 -41.33585358 3.479660034 0.7581091523 
-55.32989502 -45.22808075 3.596343994 0.7511017323 
-54.96901703 -53.75933075 3.869316339 0.734960556 
-54.31311798 -58.06485748 4.00117588 0.7272881866 
-44.822258 -57.39357758 3.664738655 0.7470247149 
-42.69196701 -59.98696518 3.705276966 0.7446182966 
-7.573691368 -16.06526756 0.8938160539 0.9313371181 
-6.724394321 -16.08215332 0.8772239685 0.9325674772 
-3.489624023 -12.98493576 0.6766474843 0.9475735426 
-2.280576229 -13.00898361 0.6646543741 0.9484783411 
-1.689672828 -13.02072239 0.6607569456 0.9487726688 
-1.104497075 -13.03237247 0.6581983566 0.9489657283 
-0.5226904154 -13.04394531 0.6569575071 0.949059546 
0.05807616934 -13.05549812 0.6570185423 0.9490549564 
1.22576654 -13.07872486 0.6610664129 0.9487493038 
1.817343712 -13.0904932 0.6650904417 0.9484453797 
2.417363167 -13.10242653 0.6705024838 0.9480370879 
3.653398275 -13.1270256 0.6857194304 0.9468896389 
4.295268536 -13.13980484 0.6956861615 0.94613868 
5.643544674 -13.16663551 0.720905304 0.9442417026 
6.357895374 -13.18084431 0.736453712 0.943073988 
7.105258465 -13.19571304 0.7542158365 0.9417418838 
7.891147137 -13.21135712 0.7744255066 0.9402284026 
9.603261948 -13.24253845 0.8232139349 0.9365848303 
18.38881111 -13.46047783 1.146838188 0.9127704501 
20.21218681 -13.4565773 1.221974969 0.9073286057 
22.37438583 -13.49962139 1.315052629 0.9006323814 
27.89681625 -13.60955524 1.562046051 0.8831014037 
63.56318665 -21.0916214 3.370294809 0.7647367716 
104.6048203 13.10139656 5.305307388 0.6555885077 
73.59469604 12.56455326 3.757193565 0.7415474653 
68.49594879 31.91954041 3.802931547 0.7388537526 
68.5414505 35.7342186 3.889941216 0.7337548733 
70.09233856 40.60651779 4.076540947 0.7229390144 
68.89163208 53.31012726 4.383732796 0.7054791451 
59.16090012 65.54833984 4.4435606 0.7021274567 
13.2060051 21.24142456 1.258512378 0.9046797156 
44.35614014 87.92266083 4.955850124 0.6740780473 
-1.457143545 9.280126572 0.4727396965 0.963076055 
-1.894897461 9.336069107 0.4794119298 0.9625647664 
-2.769404173 9.306225777 0.4886274636 0.9618590474 
-9.617816925 24.20368195 1.310676694 0.9009457827 
-10.05886173 16.17931557 0.9587433934 0.9265367985 
-9.839838982 13.07273865 0.8234147429 0.9365697503 
-9.862113953 11.95580578 0.7799525261 0.9398149252 
-13.65894985 9.629652977 0.8410307169 0.9352575541 
-19.23628807 12.31846142 1.149535656 0.91257447 
-19.28142548 10.05242157 1.094282627 0.9165962338 
-23.67836952 11.03426743 1.314634204 0.9006622434 
-55.72848892 20.15877342 2.98235774 0.7887152433 
-56.55945587 17.65656662 2.98180604 0.7887502909 
-67.16692352 17.73078537 3.495933771 0.7571280599 
-57.35694885 12.4409132 2.953582048 0.7905235291 
-15.90030766 2.714599609 0.8117545843 0.9374394417 
-15.85346127 1.985532165 0.8040534854 0.9380142689 
-15.98207474 1.282832026 0.8068772554 0.9378032684 
-16.11220169 0.5737988353 0.8113535643 0.9374693036 
-60.58843231 -17.15322685 3.168920279 0.7770909667 
-61.52048111 -20.41379356 3.261975527 0.7713571191 
-58.21943665 -22.23938942 3.13634944 0.7791081071 
-54.90491486 -23.82325554 3.011944532 0.7868595719 
-26.13607788 -12.75059509 1.463766932 0.8900576234 
-55.02651596 -29.94559097 3.152677536 0.7780959606 
-59.36112595 -35.81562805 3.488950014 0.7575492859 
-55.1280098 -36.70233917 3.332887411 0.7670160532 
-55.41303253 -40.56227875 3.455903769 0.7595437169 
-55.31346893 -44.39954376 3.569476128 0.7527106404 
-55.51878357 -53.33884048 3.8744452 0.734660089 
-55.73357773 -64.00556183 4.271044254 0.7118341923 
-44.4788208 -55.92050171 3.595820189 0.7511335015 
-7.74754858 -16.06180191 0.8974241614 0.9310696721 
-6.891782284 -16.0788269 0.8803547621 0.9323351979 
-4.239765644 -12.97001934 0.6866972446 0.9468158484 
-3.613173723 -12.98248005 0.6781678796 0.9474588037 
-3.00069809 -12.99465752 0.6711582541 0.9479874969 
-2.399633646 -13.00661564 0.6655961275 0.9484071136 
-1.807280183 -13.01838875 0.6614271402 0.9487220049 
1.108222604 -13.07639122 0.6604219079 0.9487978816 
1.698413014 -13.08813953 0.6641777158 0.9485144019 
2.296538115 -13.10003376 0.669305861 0.9481272101 
3.527133703 -13.12451172 0.6839194894 0.9470251799 
4.823159218 -13.15030289 0.7048905492 0.9454460144 
5.504169941 -13.16385746 0.7180430293 0.9444568753 
6.2125144 -13.17793941 0.7331739664 0.9433202744 
6.952856064 -13.19268036 0.7504740953 0.942022264 
7.730634689 -13.20815849 0.7701762319 0.940546453 
9.422064781 -13.23894024 0.8177455068 0.9369924068 
18.26968002 -19.53167343 1.345902562 0.8984238505 
18.33051682 -16.39685059 1.237680197 0.9061952829 
18.35812378 -15.00637627 1.193241954 0.9094055891 
19.81566811 -13.44868088 1.20518899 0.9085412621 
21.91584396 -13.49048996 1.295106888 0.9020630717 
24.35987282 -13.53914738 1.402520537 0.8943846822 
27.25224304 -13.59672546 1.532673717 0.8851684332 
63.4874649 -24.90154648 3.431943893 0.7609933019 
63.55073929 -21.7173481 3.379742384 0.7641614079 
66.82044983 -16.372612 3.462176323 0.7591647506 
89.67404175 -17.78528214 4.600698948 0.6934017539 
110.7694321 -16.88771439 5.638820648 0.6384162903 
64.16713715 7.457200527 3.250911713 0.7720368505 
73.33300781 11.84908867 3.738311052 0.7426632643 
42.19812012 8.760347366 2.168879271 0.8414660692 
76.9318924 30.96736526 4.173447609 0.7173851728 
68.83581543 31.33521461 3.806154013 0.7386636734 
68.52591705 34.95432663 3.871254683 0.7348467112 
68.87193298 52.32182312 4.352676392 0.7072246075 
71.84993744 59.8066597 4.704528809 0.6876955628 
43.75336456 68.99846649 4.11160326 0.7209252119 
23.21567345 89.55864716 4.655956268 0.6903591156 
-1.808188438 9.334345818 0.4784783721 0.962636292 
-3.136484385 9.313520432 0.4945626855 0.9614049196 
-9.661806107 21.99855423 1.20913434 0.9082561731 
-9.747109413 17.7223587 1.017859936 0.9221880436 
-6.300786018 10.33860302 0.6092936397 0.9526664019 
-9.835078239 13.31126881 0.8328934908 0.9358634353 
-9.857841492 12.1697216 0.7881525755 0.9392018914 
-9.862875938 11.12518501 0.7482041717 0.9421924353 
-10.12912083 9.559487343 0.7009083629 0.945745647 
-19.25488663 11.38502884 1.125703216 0.914306879 
-23.68506241 11.29495621 1.320532322 0.9002395272 
-16.03281784 2.884257793 0.8197962642 0.9368395805 
-16.08602524 0.7162841558 0.8103242517 0.9375460744 
-16.52850151 -4.882812391e-06 0.8317899704 0.9359458089 
-101.123085 -18.19173241 5.170661449 0.6626517773 
-89.09128571 -20.15574646 4.596773624 0.6936181784 
-54.89334488 -23.24009132 2.99985528 0.7876175046 
-26.18656731 -12.48801231 1.460004449 0.8903023005 
-55.01383972 -29.30731773 3.136912823 0.7790743709 
-56.15893936 -36.67179108 3.375366211 0.7644280791 
-55.21962357 -39.67069626 3.42167902 0.7616151571 
-55.47575378 -43.72357941 3.554666758 0.7535968423 
-52.95615768 -59.73389053 4.017294884 0.7263555527 
-9.764296532 -16.02172279 0.9442207217 0.9276084304 
-7.060297489 -16.0754776 0.8835755587 0.9320962429 
-3.737236261 -12.98000431 0.6797474623 0.947339654 
-3.122206926 -12.99224091 0.6724433899 0.9478906393 
-2.519082069 -13.00423336 0.6665974259 0.9483317137 
-1.925195217 -13.01605415 0.6621540785 0.9486671686 
-1.33802247 -13.0277195 0.6590635777 0.9489005208 
0.4070019424 -13.06242657 0.6576795578 0.9490050077 
0.9908984303 -13.07405281 0.6598322988 0.9488424063 
3.401586771 -13.12202072 0.6821876168 0.9471558928 
4.689902306 -13.14765549 0.702483356 0.9456270933 
6.068486214 -13.17508793 0.7299818397 0.943559885 
8.383823395 -13.22117138 0.7878425717 0.9392248392 
11.14881325 -13.2732954 0.8723387122 0.9329302907 
18.26284409 -19.87609291 1.358377457 0.8975321651 
18.2944622 -18.21325684 1.299120665 0.9017748833 
19.43004799 -13.44100761 1.188963771 0.9097152948 
21.47115898 -13.48164272 1.275867462 0.903445363 
26.63168907 -13.58437252 1.504508495 0.8871545196 
29.98834801 -13.65119362 1.658156276 0.8763725758 
67.65039825 -20.45986366 3.556759596 0.7534714341 
81.65874481 -16.95239639 4.197058201 0.7160383463 
105.3660889 11.29556084 5.332880974 0.6541519165 
89.62161255 30.62657738 4.766244888 0.6843264699 
78.85495758 30.92908096 4.262673855 0.7123090029 
69.97638702 31.10581779 3.853779793 0.7358701229 
68.67169952 42.271492 4.058134079 0.7239992023 
68.75925446 46.66612625 4.181951046 0.7168995738 
68.85250092 51.34695053 4.322397232 0.7089312077 
56.06583786 65.55578613 4.341040134 0.7078803778 
43.82257843 74.87377167 4.365927696 0.7064797282 
31.80327606 100.3047638 5.295321465 0.6561037898 
-1.198002934 12.78253365 0.6460926533 0.9498804212 
-1.287885666 9.276752472 0.4713256657 0.9631844759 
-2.589028358 9.302636147 0.4859428406 0.9620646238 
-3.043901205 9.311684608 0.4930068851 0.9615238905 
-25.72284698 68.2477951 3.670391083 0.7466887832 
-9.774198532 16.36396408 0.959225893 0.9265013933 
-9.830209732 13.55550766 0.8426667452 0.9351357818 
-10.31128883 12.96374512 0.8335963488 0.9358110428 
-10.89758778 9.574755669 0.7300233245 0.9435567856 
-13.14133263 9.61935997 0.8195719719 0.936856091 
-56.24317932 37.44478989 3.400315523 0.7629114985 
-19.27274895 10.48828125 1.104208827 0.9158723354 
-50.41330338 19.25749397 2.715819597 0.8056240678 
-55.24539566 18.33153725 2.929257631 0.7920552492 
-26.44003868 7.485454082 1.38288033 0.8957839608 
-68.46224976 16.13056183 3.539666176 0.7544973493 
-16.04151726 3.033481359 0.8215894699 0.9367058873 
-16.27506256 0.1448193341 0.8190632463 0.93689394 
-105.1333771 -22.80379295 5.413810253 0.6499519348 
-48.20493698 -12.72513199 2.508992672 0.8189949393 
-60.17135239 -18.7841053 3.172211885 0.7768874168 
-55.11761093 -25.68517113 3.060159922 0.7838465571 
-54.91454315 -31.81362724 3.19380784 0.7755534649 
-58.52204514 -37.47613525 3.497202158 0.7570513487 
-55.20471191 -38.9196701 3.399150848 0.7629817724 
-26.39849472 -22.37427139 1.741464019 0.8705812693 
-49.46460342 -45.85768127 3.394446373 0.7632676363 
-54.73369598 -55.46952438 3.921646118 0.7319059968 
-54.46272659 -66.02561188 4.307258606 0.7097862363 
-43.88926315 -58.30914307 3.672729492 0.7465494871 
-9.958471298 -16.01786041 0.9491782784 0.9272425771 
-7.389121056 -14.64672375 0.8255747557 0.9364086986 
-7.230146408 -16.0721035 0.8868943453 0.9318501949 
-6.393178463 -16.0887394 0.8712391257 0.9330118895 
-3.244189262 -12.98980904 0.6737837195 0.947789371 
-2.638916016 -13.00185966 0.6676533222 0.9482519627 
-2.043374062 -13.01370049 0.6629328728 0.9486083388 
-1.455058575 -13.02540016 0.6595737934 0.948861897 
-0.8714599609 -13.03700638 0.6575443745 0.9490151405 
-0.2903417945 -13.04856873 0.6568257213 0.9490695 
0.2906494141 -13.06012154 0.6574064493 0.9490255713 
0.8738232255 -13.07172775 0.6592973471 0.9488828778 
2.660312414 -13.10727024 0.6730662584 0.9478436112 
3.276591778 -13.11953068 0.6805115938 0.9472819567 
3.907929659 -13.13209438 0.6895073056 0.9466041327 
4.557480335 -13.14501476 0.7001475096 0.945802927 
5.228740215 -13.1583643 0.7125547528 0.9448695779 
6.65256834 -13.18670368 0.7432813644 0.9425618052 
7.414633751 -13.20187473 0.7619901896 0.9411593676 
9.973193169 -13.24990654 0.8345768452 0.9357383251 
10.94555664 -13.26925278 0.8656382561 0.9334279299 
18.2881031 -18.53379822 1.310328245 0.9009709954 
18.34732628 -15.55041027 1.210341334 0.9081689715 
19.05447388 -13.43352985 1.173253298 0.9108535647 
21.03904343 -13.47302723 1.257267833 0.9047835469 
33.21691513 -13.71547318 1.808514237 0.8659479618 
40.6691246 -12.69578075 2.143920422 0.8431297541 
67.09528351 -17.71183014 3.492200136 0.757352829 
77.70583344 -16.85428238 4.001430035 0.7272731662 
117.9816895 11.58666992 5.965933323 0.6220111847 
80.86220551 30.88912582 4.356147289 0.7070295215 
68.49526978 33.41602325 3.835317373 0.7369517684 
69.42719269 37.78249741 3.977752686 0.7286450863 
68.74131012 45.76557541 4.155919552 0.7183864117 
68.83335114 50.38591385 4.29287529 0.7105984688 
38.95701981 90.88837433 4.97653389 0.672977984 
-1.083129883 12.78024864 0.6454643011 0.9499279261 
-1.21513176 9.363603592 0.4751687646 0.9628898501 
-2.499550819 9.300854683 0.4846682549 0.9621621966 
-2.95187974 9.309853554 0.4915008545 0.9616392255 
-9.681044579 23.15307045 1.262922168 0.9043766856 
-9.690590858 20.55562401 1.143639088 0.9130027294 
-9.732265472 18.46627426 1.050468564 0.9197978973 
-9.767719269 16.68878937 0.9731281996 0.9254766703 
-9.870375633 11.5411768 0.764242053 0.940990746 
-9.838637352 9.622197151 0.692551434 0.946374774 
-12.89220142 9.614408493 0.8093425035 0.9376193285 
-14.20471191 9.640493393 0.8639317155 0.933554709 
-19.24567795 11.8468504 1.137316465 0.91346246 
-19.26834488 10.70917416 1.109371185 0.9154961109 
-50.23075485 19.7018795 2.715330839 0.8056557775 
-67.07915497 19.63744545 3.517402887 0.7558352351 
-57.39425278 11.38341236 2.944601297 0.7910887003 
-15.77679157 2.405307531 0.8031364083 0.938082695 
-102.7442169 -16.60180092 5.237613201 0.659130156 
-67.49106598 -17.17547417 3.504705667 0.7565993071 
-59.98019791 -18.14011192 3.153493643 0.7780454159 
-54.72016907 -22.02648926 2.968488693 0.7895860076 
-54.92838287 -25.00457382 3.037181377 0.7852813601 
-55.16635132 -28.13942719 3.116530657 0.7803381085 
-54.91587448 -31.16512108 3.177626848 0.7765525579 
-55.26556015 -41.98474884 3.492736101 0.7573196888 
-55.34660339 -46.06963348 3.623940468 0.7494538426 
-49.69768906 -45.25749588 3.38264823 0.7639846802 
-53.8000145 -58.55292511 4.001626968 0.7272617221 
-44.28827667 -57.76246643 3.662964344 0.7471295595 
-10.1546917 -16.0139637 0.9542634487 0.9268674254 
-9.193408012 -16.03307152 0.9300880432 0.9286522865 
-6.558188438 -16.08545303 0.8741871715 0.9327930212 
-5.743632793 -16.10163498 0.8603169322 0.9338232875 
-3.987192392 -12.9750433 0.6830964684 0.9470871687 
-2.759062529 -12.99946785 0.6687623262 0.9481681585 
-2.161860228 -13.01133251 0.6637657285 0.9485453963 
-0.4064990282 -13.04625988 0.6568659544 0.9490664601 
0.7568798661 -13.06939411 0.6588138938 0.9489193559 
1.936552644 -13.09287071 0.6660600305 0.9483721852 
5.092612267 -13.15566349 0.7099263072 0.9450672269 
5.783969402 -13.16942883 0.7238475084 0.9440206289 
7.259110928 -13.19877911 0.7580525279 0.9414544106 
8.892196655 -13.22838879 0.8021376133 0.9381570816 
9.787011147 -13.24619579 0.8288239837 0.9361667037 
10.74518013 -13.26526833 0.859100461 0.9339137077 
11.78097343 -13.28877926 0.8937125802 0.9313445091 
18.28298378 -18.86133194 1.321933389 0.9001393318 
18.31292534 -17.28306198 1.267205 0.9040684104 
18.34181023 -15.82828045 1.219223142 0.9075275064 
18.68883705 -13.4262495 1.158052444 0.9119563699 
20.61973381 -13.46468449 1.239326 0.9060767889 
28.56667328 -13.62289047 1.592701197 0.8809496164 
32.35554504 -13.69832516 1.768194079 0.8687315583 
63.51301193 -23.6158638 3.41005969 0.7623201013 
99.93504333 -17.97798729 5.109904766 0.6658632159 
68.72359467 44.87649918 4.130540848 0.7198385596 
68.91162109 54.31312561 4.415587902 0.7036925554 
13.52215767 91.42166138 4.650800228 0.6906425357 
-0.968510747 12.77796841 0.6448884606 0.9499714375 
-1.134311557 9.395668983 0.4762651026 0.9628058672 
-1.550063491 9.329208374 0.4759240746 0.9628320336 
-9.629487038 23.61854935 1.28358078 0.9028908014 
-9.681347847 21.01886749 1.16457355 0.9114828706 
-9.724477768 18.8567524 1.067709804 0.9185364842 
-9.761059761 17.0230217 0.987516284 0.9244176745 
-9.792577744 15.44260693 0.9202216864 0.9293818474 
-9.805668831 10.67175293 0.7293357849 0.9436084032 
-9.678798676 9.635829926 0.6873075962 0.9467698336 
-10.50557613 9.566972733 0.7150581479 0.9446812272 
-11.51763153 9.587080002 0.7541422844 0.9417473674 
-12.64932632 9.60958004 0.7994312644 0.938359201 
-55.98315811 19.68941879 2.986495972 0.7884557247 
-58.12293243 17.57835388 3.055852652 0.7841153741 
-57.50521851 11.93813896 2.955624342 0.7903948426 
-15.76387215 2.547050714 0.8035978675 0.9380480647 
-15.87907696 1.845390558 0.8044874668 0.9379818439 
-16.00795937 1.141596675 0.8076420426 0.9377464056 
-69.42835999 -17.01162529 3.597314358 0.7510445714 
-59.96858597 -17.55580521 3.144551277 0.7785996199 
-60.43295288 -20.65159607 3.213937998 0.774312377 
-55.5764389 -21.79864693 3.004298687 0.7873388529 
-54.91661453 -24.41115761 3.02438283 0.7860811949 
-59.74772644 -36.77828598 3.53076458 0.7550318241 
-55.02436829 -37.34477997 3.346604586 0.7661796808 
-55.4283905 -41.33585358 3.479660034 0.7581091523 
-55.32991409 -45.22845078 3.596352577 0.7511009574 
-50.32315826 -45.0146637 3.397838116 0.7630622983 
-54.968853 -53.75963211 3.869321108 0.734960258 
-55.45664597 -64.84408569 4.293896198 0.7105413675 
-5.904462814 -16.09846115 0.8629181981 0.9336298704 
-3.489624023 -12.98493576 0.6766474843 0.9475735426 
-1.689614177 -13.02072239 0.6607563496 0.9487727284 
-0.522631824 -13.04394531 0.6569572091 0.949059546 
0.05807616934 -13.05549812 0.6570185423 0.9490549564 
0.6401562095 -13.06708431 0.6583824158 0.9489518404 
1.225708008 -13.07872486 0.6610645652 0.9487493634 
1.817343712 -13.0904932 0.6650904417 0.9484453797 
3.028456926 -13.11459446 0.6773539782 0.9475201964 
3.653344631 -13.1270256 0.6857185364 0.9468896985 
4.295268536 -13.13980484 0.6956861615 0.94613868 
4.957343578 -13.15297318 0.7073698044 0.9452594519 
6.357963562 -13.18084908 0.7364555001 0.9430738091 
7.105258465 -13.19571304 0.7542158365 0.9417418838 
7.89122057 -13.21135712 0.7744269967 0.9402282834 
11.5677681 -13.28453064 0.8864710927 0.931881547 
18.27638435 -19.19367599 1.333764434 0.8992922306 
18.36341095 -14.739995 1.18501389 0.9100015163 
18.38881111 -13.46059036 1.146841526 0.9127702117 
20.21218681 -13.4565773 1.221974969 0.9073286057 
22.3741703 -13.49961185 1.31504035 0.9006330967 
27.896492 -13.60954762 1.562033772 0.8831024766 
69.36642456 -19.63807487 3.628026724 0.7492102385 
93.70453644 -17.71924782 4.799205303 0.682533741 
114.7012482 30.2788372 5.970019341 0.6218090057 
68.5414505 35.73461914 3.889950991 0.7337542772 
70.09233856 40.60651779 4.076540947 0.7229390144 
68.70610046 43.99813843 4.105798244 0.7212574482 
31.62174225 91.20697021 4.858243942 0.6793483496 
-1.053168893 9.427846909 0.4774027765 0.9627187252 
-2.32196784 9.297328949 0.4822534025 0.9623470902 
-9.671762466 21.49937439 1.186383128 0.9099022746 
-10.05886173 16.17931557 0.9587433934 0.9265367985 
-9.839838982 13.07273865 0.8234147429 0.9365697503 
-9.862113953 11.95580578 0.7799525261 0.9398149252 
-9.702475548 9.832826614 0.6951755881 0.9461772442 
-11.30648899 9.582895279 0.7458695769 0.9423675537 
-13.65894985 9.629652977 0.8410307169 0.9352575541 
-19.25941277 11.15752888 1.120119095 0.9147135019 
-19.28142929 10.0523138 1.094280481 0.9165964127 
-23.67836952 11.03426743 1.314634204 0.9006622434 
-23.68502808 9.779691696 1.289545417 0.9024623036 
-56.56106949 17.65675163 2.981876135 0.7887452841 
-67.16692352 17.73078537 3.495933771 0.7571280599 
-15.90030766 2.714599609 0.8117545843 0.9374394417 
-15.98205566 1.282900333 0.8068766594 0.937803328 
-16.11220169 0.5737988353 0.8113535643 0.9374693036 
-102.4159927 -14.68304157 5.206727982 0.6607521772 
-60.58755112 -17.15324593 3.168879271 0.7770936489 
-54.90491486 -23.82325554 3.011944532 0.7868595719 
-26.136343 -12.750844 1.463784337 0.8900564313 
-59.36112595 -35.81595993 3.48895812 0.7575486898 
-55.1280098 -36.70233917 3.332887411 0.7670160532 
-55.41303253 -40.56227875 3.455903769 0.7595437169 
-55.31344986 -44.39917374 3.569474459 0.7527113557 
-53.67893982 -56.37303162 3.917351007 0.7321562767 
-43.0224762 -59.32690811 3.688007116 0.7456426024 
-9.571962357 -16.02554703 0.9393861294 0.9279654622 
-6.891782284 -16.0788269 0.8803547621 0.9323351979 
-6.06628418 -16.09524345 0.865603447 0.9334303141 
-3.613115072 -12.98248005 0.6781669259 0.9474588633 
-2.399633646 -13.00661564 0.6655961275 0.9484071136 
-1.807329059 -13.01839828 0.6614274383 0.9487219453 
-1.221152306 -13.03005314 0.6586033702 0.9489350915 
-0.6389160156 -13.04163074 0.6571009755 0.9490486979 
-0.05807616934 -13.05318832 0.6569017172 0.9490637183 
3.527133703 -13.12451172 0.6839194894 0.9470251799 
4.165424824 -13.13721657 0.6935608983 0.9462988377 
4.823159218 -13.15030289 0.7048905492 0.9454460144 
6.2125144 -13.17793941 0.7331739664 0.9433202744 
6.952924728 -13.19268513 0.7504755855 0.9420221448 
7.730556488 -13.20815849 0.7701740861 0.9405466318 
8.550048828 -13.22158146 0.7923716307 0.938886404 
10.3536911 -13.2574749 0.8465296626 0.934848547 
11.35526371 -13.27740669 0.8792130947 0.9324199557 
18.26968002 -19.53167343 1.345902562 0.8984238505 
18.33051682 -16.39685059 1.237680197 0.9061952829 
18.35812378 -15.00624943 1.19323802 0.9094058871 
18.38386154 -13.70982647 1.1540941 0.9122434855 
27.25224304 -13.59672546 1.532673717 0.8851684332 
63.4874649 -24.90154648 3.431943893 0.7609933019 
63.55075073 -21.71704483 3.379736185 0.764161706 
69.35320282 -20.30315781 3.636651516 0.7486963272 
66.82044983 -16.372612 3.462176323 0.7591647506 
89.67401886 -17.78565788 4.600714207 0.6934016347 
64.16713715 7.457200527 3.250911713 0.7720368505 
73.33306885 11.84940434 3.738316059 0.7426629663 
42.19812012 8.760347366 2.168879271 0.8414660692 
113.5684662 34.34706497 5.970932484 0.6217634678 
76.9318924 30.96736526 4.173447609 0.7173851728 
68.8355484 31.33540726 3.806146145 0.7386641502 
68.76613617 39.02521896 3.979055166 0.7285695076 
68.68878937 43.1293602 4.081646442 0.7226449847 
68.77742004 47.57810974 4.208652973 0.715378046 
71.84993744 59.8066597 4.704528809 0.6876955628 
43.75327682 68.99884033 4.111597061 0.7209244967 
43.82962799 76.43772888 4.434206009 0.7026510835 
23.21605492 89.55864716 4.655959606 0.6903588772 
23.73165512 111.8124161 5.752254963 0.6326795816 
-0.8945751786 15.44701672 0.7786637545 0.9399111867 
-1.155864239 11.25370121 0.569316268 0.9557022452 
-2.245258808 9.343036652 0.4835700989 0.9622463584 
-2.678994179 9.304423332 0.487262398 0.961963594 
-3.136484385 9.313520432 0.4945626855 0.9614049196 
-9.638383865 24.89868164 1.343615532 0.8985871077 
-9.785937309 19.83455467 1.113039732 0.9152289033 
-9.747104645 17.72252846 1.017866969 0.9221875072 
-9.809521675 14.59304619 0.8848856688 0.9319990277 
-9.857841492 12.16982365 0.788155973 0.9392015934 
-10.12912083 9.559487343 0.7009083629 0.945745647 
-13.39686489 9.624443054 0.8301326036 0.9360690713 
-56.07167435 36.6147995 3.370113373 0.764747262 
-23.68506241 11.29495621 1.320532322 0.9002395272 
-66.62878418 18.22432137 3.476218224 0.7583164573 
-15.82785606 2.125659227 0.8036820889 0.9380419254 
-16.0860405 0.7162060142 0.8103248477 0.9375460148 
-58.00286484 -21.56715202 2.54726553 0.7805624008 
-54.89403534 -23.24027824 2.453766584 0.7876938581 
-26.18662453 -12.48799801 1.194218874 0.8903453946 
-54.25192642 -28.90133286 2.530294657 0.7818533182 
-46.72096252 -30.50873375 2.296890259 0.7998039126 
-55.22042465 -39.67117691 2.798816442 0.7616990209 
-54.53151703 -42.97932053 2.858058453 0.757322371 
-68.12474823 -58.78960419 3.704036713 0.6975070834 
-54.18580627 -55.90041351 3.204639196 0.732221365 
-45.60898972 -56.30534363 2.982681751 0.7481992245 
-9.764238358 -16.02166557 0.7723258734 0.9276378751 
-7.25020504 -14.69510746 0.6745118499 0.9365046024 
-7.060307503 -16.07541466 0.7227222919 0.9321238399 
-6.229198933 -16.09194756 0.7102912664 0.9332514405 
-4.367026329 -12.96744156 0.5632362366 0.9466948509 
1.630454063 -13.50521469 0.5599525571 0.9469971657 
2.237817287 -13.46880341 0.5620176792 0.9468069673 
3.463603497 -13.3614006 0.568173945 0.9462401867 
5.365917683 -13.16105461 0.5850459337 0.944688797 
6.068442345 -13.17503357 0.5970893502 0.9435830712 
6.801987171 -13.1896286 0.6108707786 0.9423190951 
7.571752548 -13.20494556 0.626576066 0.9408810139 
11.14877415 -13.273242 0.7135301232 0.9329576492 
18.35248947 -15.27625465 0.9829121232 0.9088324904 
18.37857819 -13.96213341 0.9500666857 0.9117398858 
19.42555618 -13.43797112 0.9722950459 0.9097710848 
21.47091103 -13.48155212 1.043591142 0.9034847021 
26.63134384 -13.58426952 1.230606794 0.8872002363 
34.11730194 -13.7332859 1.513876438 0.8630910516 
63.53746033 -22.34612656 2.772441387 0.7636557817 
67.64943695 -20.45962334 2.909226656 0.7535635829 
117.6618118 12.61387634 4.871073723 0.6226660609 
88.30245209 30.17562675 3.841173649 0.6882656217 
79.00454712 30.9876461 3.493276834 0.7119520307 
68.8215332 46.70846939 3.423746824 0.7167832255 
70.32511902 57.48553467 3.738872528 0.6951481104 
4.019570351 100.3126526 4.132489681 0.6690391302 
-0.9348974228 9.975502968 0.4124206305 0.9606829882 
-1.287875891 9.276791573 0.3855236769 0.9631994367 
-1.721830964 9.332660675 0.3906434476 0.9627198577 
-2.157104492 9.34131813 0.3946360648 0.9623461962 
-2.589018583 9.30266571 0.3974790871 0.9620800614 
-3.04389143 9.311713219 0.4032572806 0.9615395665 
-9.593213081 25.45279312 1.119661093 0.8968248963 
-9.65172863 22.51794434 1.008434892 0.9065763354 
-9.708086014 14.7233839 0.7259473801 0.9318314195 
-9.539159775 13.1541357 0.6688563228 0.9370200038 
-9.284223557 10.66215324 0.5819575191 0.9449726939 
-9.949233055 9.558559418 0.5679060221 0.9462635517 
-10.89759254 9.574809074 0.5971271992 0.9435795546 
-12.53415012 10.06099606 0.6615983248 0.9376815557 
-13.14136696 9.619413376 0.6703742743 0.936881423 
-19.27300262 10.48845196 0.9032042027 0.9159048796 
-19.84752846 9.682723999 0.9090232849 0.9153867364 
-49.62695694 18.95715332 2.186773062 0.8084165454 
-55.66901779 18.4721241 2.414372444 0.7907182574 
-26.44036102 7.485546589 1.131147623 0.8958240151 
-16.03358841 3.031962872 0.6716908216 0.9367617965 
-15.89906693 1.561459899 0.6576048136 0.9380459189 
-16.0281353 0.8566894531 0.6607111692 0.9377626181 
-101.3872223 -17.30931091 4.23378849 0.6624798775 
-48.20560074 -12.72524834 2.052267551 0.8190611601 
-59.54825592 -21.5405407 2.606628418 0.776070118 
-55.96277618 -23.10759163 2.492256641 0.7847514153 
-54.17935944 -25.2479248 2.460462093 0.787181735 
-54.23954391 -28.27791405 2.517870665 0.7827979326 
-60.03141022 -34.7780304 2.855800629 0.757488966 
-46.73938751 -29.93084335 2.284522772 0.8007597327 
-55.205513 -38.92033768 2.780394316 0.7630649209 
-26.39774323 -22.37369156 1.424399257 0.8706350327 
-54.06015015 -54.78669357 3.168246984 0.7348176241 
-52.85439682 -58.56082535 3.247183084 0.7291978598 
-46.33730698 -56.17494583 2.997498751 0.7471216917 
-42.91846085 -57.01919174 2.937658548 0.7514820695 
-9.006781578 -16.03672409 0.7571082711 0.9290117621 
-8.099477768 -16.05475616 0.7402003407 0.9305407405 
-4.495019436 -12.96490192 0.5648417473 0.946547091 
-3.861909151 -12.97748947 0.5573453903 0.9472373724 
-3.34203124 -13.38159657 0.5677464008 0.9462795854 
-2.727319241 -13.43744087 0.5644062757 0.9465872645 
-1.509663105 -13.5144825 0.5597581267 0.9470151067 
-0.9048632383 -13.53603458 0.5584284663 0.9471375346 
0.3014208972 -13.54579544 0.5577229261 0.9472023845 
0.9047216773 -13.53401852 0.5583454967 0.9471452236 
2.116118193 -13.47698689 0.5615522861 0.9468499422 
2.726093769 -13.43144512 0.5641517639 0.9466104507 
3.959408998 -13.30511665 0.5714164376 0.9459419847 
5.228720665 -13.15832996 0.5828337073 0.9448921084 
6.652553558 -13.18665028 0.607966423 0.9425852895 
8.217670441 -13.21780777 0.6406663656 0.9395924807 
9.066557884 -13.23181152 0.6602607369 0.9378037453 
9.973193169 -13.24985313 0.6826417446 0.9357644916 
10.94545364 -13.26919365 0.7080479264 0.9334552288 
11.99770451 -13.29303932 0.7370970249 0.9308217764 
18.31859779 -16.98273849 1.028239608 0.9048343897 
18.37350082 -14.21791458 0.9563096166 0.9111866951 
19.05014038 -13.43050289 0.9594532847 0.910908401 
21.03910637 -13.47296333 1.028390646 0.9048213363 
26.03300476 -13.5723629 1.208490729 0.889110446 
33.2162323 -13.71534634 1.479255795 0.8660024405 
40.6685257 -12.69573212 1.753713131 0.8431918621 
77.70490265 -16.85432053 3.272948503 0.7273725867 
117.5981827 11.54941368 4.863985062 0.6230950952 
73.79026031 10.57896328 3.068488598 0.7419811487 
73.3714447 13.87455273 3.073719978 0.7416039109 
113.4597473 32.12164307 4.853919029 0.6237062216 
68.5570755 33.44589615 3.139938831 0.7368432879 
70.14868927 42.32445145 3.372410297 0.7203705311 
68.80405426 45.80757523 3.402450562 0.7182685733 
68.89499664 50.43080902 3.514514685 0.7104830146 
70.30412292 56.4321022 3.710891008 0.6970413923 
38.95581436 90.88584137 4.070309162 0.6730970144 
23.11575699 100.1028824 4.228994846 0.6627902389 
13.90438938 100.1560898 4.162254333 0.6671041846 
-1.083120108 12.78029251 0.5279621482 0.949948132 
-2.951855421 9.309877396 0.4020246863 0.9616549015 
-9.673110008 26.37358856 1.156336784 0.8936318755 
-9.681010246 23.15316391 1.033012509 0.904414475 
-9.690849304 20.55611229 0.9354667664 0.9130354524 
-9.767944336 16.68906784 0.7959886193 0.9255053401 
-9.425859451 12.06947708 0.6303727627 0.9405335784 
-11.73371601 9.591435432 0.623829186 0.9411323071 
-19.24594688 11.84701157 0.930282712 0.9134958982 
-19.26859856 10.70939922 0.9074277878 0.9155286551 
-22.9832325 10.21644974 1.035318375 0.9042117 
-49.46030807 19.39965248 2.186943769 0.8084025383 
-65.847229 19.2766552 2.824232101 0.7598184347 
-15.74578571 2.400610209 0.6556361318 0.9382255673 
-102.2071686 -16.51454544 4.261723995 0.660682559 
-60.67520905 -18.35034561 2.609300375 0.7758684158 
-55.73859787 -22.43652725 2.473305225 0.786200881 
-58.32767105 -36.62381363 2.835042715 0.7590228915 
-54.50026703 -41.40363693 2.817353487 0.7603269815 
-43.30168533 -56.47517776 2.929375648 0.7520881295 
-9.193344116 -16.03300285 0.7607661486 0.9286813736 
-8.277705193 -16.05121994 0.7434046865 0.9302508235 
-7.401245117 -16.06864166 0.7282267809 0.9316250682 
-6.558197975 -16.08540916 0.7150413394 0.9328203201 
-3.987206936 -12.97499943 0.5587415695 0.9471088648 
-3.402197123 -13.12449169 0.5580976605 0.9471677542 
-2.849887609 -13.42723083 0.5650178194 0.9465306997 
-1.630898356 -13.5088377 0.5601024032 0.9469833374 
-1.025668979 -13.53260231 0.5586423874 0.9471179247 
0.7839745879 -13.53726006 0.5581687689 0.9471614361 
1.38823235 -13.51660633 0.559311986 0.9470561743 
2.603803635 -13.44147873 0.5635783076 0.9466633201 
3.835131645 -13.31992149 0.5705619454 0.9460204244 
4.459145546 -13.2409668 0.5751182437 0.9456015825 
5.783979416 -13.169384 0.5920726061 0.9440435171 
6.504526138 -13.18371582 0.6051383615 0.9428446293 
8.053481102 -13.21454525 0.6370066404 0.9399267435 
8.892221451 -13.2283392 0.6561106443 0.9381821752 
10.74520969 -13.26521492 0.7027040124 0.9339404702 
11.78091526 -13.28872299 0.7310121059 0.9313725233 
18.28132057 -18.85979843 1.08118546 0.9001870751 
18.3683567 -14.47709465 0.9627100825 0.9106197357 
18.68860245 -13.42616653 0.9472193718 0.9119923711 
20.61966515 -13.46460629 1.013702869 0.9061145186 
22.84701538 -13.50894547 1.092550159 0.8991926908 
25.45568085 -13.56086636 1.187244415 0.8909494281 
32.35548401 -13.69820976 1.446293473 0.8687830567 
63.49494934 -20.44352531 2.745774508 0.765638113 
66.06518555 -18.0702095 2.819344521 0.7601802945 
74.28131866 -16.80526352 3.134916306 0.737202704 
95.29469299 -17.14331055 3.985601664 0.6786662936 
74.07293701 9.947580338 3.076434374 0.7414075732 
113.4641953 31.03497887 4.842098236 0.6244234443 
90.39456177 29.10439301 3.909016132 0.6837387085 
73.45110321 31.09668922 3.283278227 0.7266426086 
68.62060547 36.5558815 3.200443745 0.732519865 
66.15836334 81.67403412 4.326545238 0.6565306783 
39.1607666 101.1643524 4.465339661 0.6477274299 
32.09950638 111.4862671 4.775549412 0.6284778714 
13.52090836 91.41343689 3.803797483 0.6907724142 
-1.550043941 9.329242706 0.3892840445 0.9628471732 
-1.981933594 9.337831497 0.3929360807 0.962505281 
-9.681606293 21.01947212 0.9525974989 0.9115157723 
-9.724721909 18.85708046 0.8733826876 0.9185676575 
-9.786010742 15.43239689 0.7521980405 0.9294555187 
-9.223813057 10.03859329 0.5611665249 0.946885407 
-10.85667419 10.80848122 0.6306025386 0.9405124784 
-10.5055418 9.567016602 0.5848844647 0.9447036982 
-12.64933586 9.609628677 0.6538975239 0.9383839965 
-19.28596115 9.837509155 0.8911839128 0.9169763923 
-47.97535706 19.31161499 2.128798723 0.8129869103 
-67.14179993 17.08626366 2.851852894 0.7577803135 
-15.72497559 2.540830135 0.655685246 0.938221097 
-15.84782696 1.841762662 0.6567390561 0.9381250739 
-15.97632313 1.139414072 0.6593073606 0.9378907084 
-16.10637665 0.4301367104 0.6632282734 0.9375332594 
-100.7262268 -19.97750473 4.226957798 0.6629201174 
-67.01250458 -16.41980934 2.84004879 0.7586513162 
-61.47319794 -17.99608803 2.636630297 0.7738093138 
-56.81817627 -22.28552246 2.512262344 0.7832242846 
-54.91731644 -24.41176224 2.473841667 0.7861574888 
-54.58233643 -27.23230934 2.510903358 0.7833301425 
-55.04007339 -30.5911274 2.592045307 0.7771720886 
-55.70259094 -37.80472183 2.77109313 0.7637552619 
-54.48493576 -40.63230896 2.797750235 0.7617776394 
-55.33075714 -45.22877502 2.941686392 0.7511882782 
-50.3456192 -45.03474045 2.780506611 0.7630565763 
-48.09558868 -47.03735733 2.769172907 0.7638978958 
-53.87826538 -57.60017014 3.246571541 0.7292406559 
-6.724370003 -16.08208466 0.717528522 0.932594955 
-2.972641468 -13.41651344 0.5656596422 0.9464718103 
-2.360595703 -13.46536064 0.5627296567 0.9467415214 
-1.752207041 -13.50271988 0.5604737997 0.9469491839 
-1.146567345 -13.528759 0.5588817 0.9470958114 
-0.5426903963 -13.54359818 0.5579447746 0.9471822381 
0.06030273438 -13.54737282 0.5576567054 0.947208643 
1.267255783 -13.52163029 0.5590305924 0.9470820427 
1.873051763 -13.4920063 0.5606989861 0.9469284415 
2.481674671 -13.45104504 0.563030839 0.946713686 
3.093994141 -13.39853477 0.5660395622 0.9464367628 
3.711049795 -13.33421803 0.5697383285 0.9460963011 
4.963374138 -13.16876888 0.5792915225 0.9452177286 
8.720038414 -13.22490692 0.6520658731 0.9385514259 
10.54795837 -13.26127911 0.697493732 0.9344137311 
11.56767082 -13.28447723 0.7250880003 0.9319093823 
18.3885498 -13.46034145 0.9380491376 0.9128063321 
27.89663315 -13.60945797 1.277674079 0.8831480145 
31.53219223 -13.68183041 1.414881706 0.8714414239 
63.56240463 -21.09137154 2.756706476 0.7648250461 
69.3655777 -19.63813972 2.967517614 0.7493030429 
66.41841888 -15.64903736 2.808852434 0.7609562278 
92.38091278 -17.46936989 3.870085478 0.6863338947 
105.0587463 13.15798569 4.358328819 0.6545045376 
68.55073547 31.94508743 3.113111496 0.7387684584 
68.76972961 44.0384903 3.361456871 0.7211384177 
13.20570564 21.24093056 1.029442906 0.9047197104 
39.61956024 99.70452118 4.41628027 0.6508245468 
31.62052727 91.20212555 3.973391533 0.6794717312 
-0.9264306426 13.8590765 0.5717542768 0.9459107518 
-1.053159118 9.427924156 0.3904955983 0.9627337456 
-2.769413948 9.306254387 0.3996762037 0.9618745446 
-3.241445303 9.349208832 0.4073042274 0.9611601233 
-9.754408836 17.36788559 0.8199531436 0.923350811 
-9.636401176 14.06344223 0.7017573118 0.9340264797 
-12.54124928 9.704740524 0.6527488828 0.9384888411 
-13.65901852 9.629701614 0.687928319 0.9352834225 
-19.28168488 10.05255795 0.8950852752 0.9166285396 
-23.04381371 10.73856449 1.04649055 0.9032295942 
-23.63210869 9.757958412 1.052434206 0.9027077556 
-52.44415283 18.97076607 2.295665503 0.7999001145 
-56.9093895 17.76576614 2.45405674 0.7876717448 
-15.86384201 2.708344698 0.6624543667 0.9376035929 
-16.08020973 0.5726806521 0.6623347402 0.9376147389 
-102.2106247 -14.65357876 4.250323772 0.6614158154 
-89.7113266 -21.13715363 3.79390502 0.6914368868 
-61.46134949 -17.40035629 2.629369974 0.7743554115 
-54.9056282 -23.82356834 2.463671923 0.7869359851 
-59.54246521 -35.9251976 2.862515688 0.7569948435 
-55.78372574 -37.13905716 2.758578539 0.764685452 
-54.52409363 -39.91139984 2.781418324 0.7629890442 
-54.54750443 -43.7845459 2.879215717 0.7557663321 
-52.94900894 -55.60618591 3.160625458 0.7353618741 
-55.37519073 -63.59400558 3.471053362 0.7134925127 
-44.56323624 -56.02664566 2.946783304 0.7508155704 
-43.20547104 -59.57866669 3.029435396 0.7448054552 
-9.572011948 -16.02549362 0.7683717012 0.9279945493 
-7.747514248 -16.06175804 0.7340470552 0.9310976863 
-6.891757488 -16.07876968 0.720087111 0.9323627353 
-6.06630373 -16.09518051 0.7080217004 0.9334573746 
-4.239731312 -12.9699707 0.5616850257 0.9468376637 
-3.613134623 -12.98244095 0.5547068715 0.9474803805 
-3.095576048 -13.40535641 0.5663264394 0.9464102387 
-2.482675791 -13.45652294 0.5632612705 0.9466925859 
-0.6633740067 -13.54152775 0.558079958 0.9471697211 
-0.06029296666 -13.54749966 0.5576633811 0.9472081065 
0.5426464677 -13.5423975 0.5578950644 0.9471867681 
1.146337867 -13.52620125 0.5587769747 0.9471055269 
2.35966301 -13.46014595 0.5625111461 0.9467616081 
4.208755016 -13.27405262 0.5732075572 0.9457770586 
4.83686018 -13.18760681 0.5782020688 0.9453177452 
5.504179478 -13.16381359 0.5873246789 0.9444795847 
6.212529182 -13.17790985 0.599701345 0.9433433414 
9.421992302 -13.23887634 0.6688746214 0.9370182753 
11.35526848 -13.27734852 0.7191551328 0.9324474335 
18.26801682 -19.52991104 1.100783229 0.8984727859 
18.35785294 -15.00615692 0.9760056734 0.9094429612 
18.38359261 -13.70963097 0.943979919 0.9122797251 
24.35969734 -13.53905773 1.147190094 0.8944271207 
27.25205803 -13.59662533 1.253645182 0.8852142692 
30.74385643 -13.66613483 1.384908557 0.8739852905 
63.48666763 -24.90106964 2.80713439 0.7610830069 
69.35236359 -20.30275917 2.974568367 0.7487897277 
85.44776917 -16.94723129 3.585808754 0.7055739164 
105.2565231 12.23241138 4.361843586 0.6542807817 
113.5036469 34.32749939 4.881149292 0.6220556498 
77.07187653 31.02389336 3.419893742 0.7170512676 
68.58853149 34.98603821 3.169389486 0.7347348928 
68.8392334 47.62071228 3.4455688 0.7152632475 
66.24349213 86.39656067 4.481403828 0.6467168331 
31.82819748 89.22757721 3.899401665 0.6843688488 
23.73197746 111.8127747 4.705085278 0.6327996254 
-1.808193326 9.33438015 0.3913743496 0.9626514912 
-2.245288134 9.343070984 0.3955383301 0.9622616768 
-2.678974628 9.304457664 0.3985590935 0.9619790316 
-3.136518478 9.313559532 0.4045310915 0.961420536 
-9.785912514 19.83462334 0.9104182124 0.9152625799 
-9.747328758 17.72286034 0.8325852752 0.9222173095 
-9.671513557 14.38768005 0.7136109471 0.932950139 
-9.263388634 10.44897461 0.5747984052 0.9456308484 
-11.09984303 9.578827858 0.6035151482 0.9429935813 
-12.53771973 9.881684303 0.6571189761 0.9380902052 
-20.1523819 13.15944767 0.9907316566 0.908141315 
-19.25514603 11.38512707 0.9207878113 0.9143401384 
-19.2773571 10.26949692 0.899092555 0.9162715077 
-20.32404709 9.692192078 0.9268601537 0.9138001204 
-23.01975441 9.745776176 1.028982639 0.9047688246 
-56.39989471 18.15909576 2.438958168 0.788829267 
-16.05413628 0.7148535252 0.6614958048 0.9376911521 
-16.51955605 0 0.6799979806 0.9360052347 
-61.50912476 -19.80414581 2.659904003 0.7720595002 
-58.00286484 -21.56715202 2.54726553 0.7805624008 
-54.25192642 -28.90127373 2.530292511 0.7818533778 
-59.52802277 -35.19776917 2.846639872 0.7581637502 
-55.22042465 -39.6712532 2.79881835 0.7616989017 
-54.53151703 -42.97937775 2.858067036 0.7573223114 
-54.18579483 -55.90039444 3.204637289 0.7322214842 
-43.33235931 -58.64832306 3.001616716 0.7468231916 
-8.82199192 -16.04039574 0.7535438538 0.9293337464 
-7.060317039 -16.07542038 0.72272259 0.9321237803 
-4.367035866 -12.9674511 0.5632362366 0.9466947913 
-3.737216711 -12.97996044 0.5560017228 0.9473612309 
-3.218686342 -13.39371109 0.567022562 0.9463462234 
-2.604912043 -13.44723606 0.5638191104 0.9466410875 
-0.1808691323 -13.54719162 0.5576945543 0.9472052455 
0.4220165908 -13.54431152 0.5577961802 0.947195828 
2.237832069 -13.46879864 0.5620179772 0.9468070269 
2.84857893 -13.42095184 0.5647532344 0.9465550184 
3.463603497 -13.3614006 0.568173945 0.9462401867 
4.083974361 -13.28982925 0.5722972155 0.9458608627 
5.365908146 -13.16105938 0.5850459337 0.944688797 
7.57176733 -13.20494556 0.6265766621 0.9408809543 
8.383793831 -13.22112274 0.64441818 0.9392496943 
18.2611866 -19.87427711 1.110992312 0.8975815773 
18.32446098 -16.68735886 1.020192385 0.9055429697 
18.37857819 -13.96211433 0.9500666857 0.9117399454 
19.42558098 -13.43797112 0.9722959399 0.9097709656 
21.47092819 -13.48154736 1.043591142 0.9034846425 
23.83896637 -13.52868366 1.12829423 0.8960726261 
26.63134384 -13.58426952 1.230606794 0.8872002363 
29.98795128 -13.65107918 1.356276035 0.8764223456 
34.11743546 -13.7332859 1.51388526 0.8630906343 
63.53746033 -22.34603882 2.77243948 0.763655901 
67.64968872 -20.45962334 2.909236908 0.7535628676 
81.65743256 -16.95210457 3.432936907 0.7161421776 
73.28337097 11.17282963 3.051428795 0.7432135344 
113.481636 33.22146225 4.867297649 0.6228943467 
79.00419617 30.98764992 3.493261099 0.7119529247 
68.57273102 34.21244431 3.154468298 0.735802114 
70.08148956 38.9510994 3.300392389 0.7254334688 
31.80195808 100.3006973 4.331241131 0.6562306285 
