# .PCD v0.7 - Point Cloud Data file format
VERSION 0.7
FIELDS x y z intensities
SIZE 4 4 4 4
TYPE F F F F
COUNT 1 1 1 1
WIDTH 917
HEIGHT 1
VIEWPOINT 0 0 0 1 0 0 0
POINTS 917
DATA ascii
-3.754565239 -13.04013157 -0.5585777164 0.9471237659 
-2.654555559 -13.70346165 -0.5745632648 0.9456524849 
-2.026459932 -13.70062923 -0.5700958371 0.9460634589 
-1.406850576 -13.69783688 -0.5668096542 0.9463657141 
-0.7931249738 -13.69504833 -0.5646749735 0.9465623498 
0.4265429676 -13.68954086 -0.5637769699 0.9466450214 
1.037338853 -13.68678188 -0.5650065541 0.9465318918 
2.273100615 -13.68119144 -0.570881784 0.9459912777 
3.54499507 -13.67544365 -0.5815298557 0.945012033 
4.201538086 -13.67246532 -0.5887750387 0.9443463087 
4.875981331 -13.6694231 -0.5974015594 0.9435543418 
6.29319334 -13.66300774 -0.6192031503 0.9415557981 
9.740517616 -13.94757271 -0.7002723813 0.9341613054 
10.69081974 -13.94325161 -0.7232423425 0.9320769906 
11.23868656 -13.38031197 -0.7192826867 0.9324355721 
18.18828583 -18.10753822 -1.056454301 0.9023549557 
18.18135643 -16.55710411 -1.012227654 0.9062447548 
18.174963 -15.12850571 -0.9733991623 0.909673214 
18.16903496 -13.80293941 -0.9392360449 0.9127009511 
18.70343399 -12.93843746 -0.9361526966 0.9129747152 
20.03874397 -12.582304 -0.9739798307 0.9096220732 
22.76638794 -12.92002392 -1.07752502 0.9005075693 
25.99180412 -13.25806141 -1.20105195 0.8897538185 
48.63300323 -14.70836353 -2.091438293 0.8159467578 
49.74417877 -10.32691669 -2.091282845 0.8159588575 
50.44378662 -5.86233139 -2.090398073 0.8160291314 
50.7095108 0.9027026296 -2.087694883 0.8162439466 
50.03515625 7.62836647 -2.08339715 0.8165845871 
13.80100346 3.381613731 -0.5848966837 0.9447025657 
48.43940353 14.18050003 -2.07760191 0.8170454502 
43.34632111 17.00156975 -1.916609049 0.8299390674 
42.53775787 18.90877914 -1.916186929 0.8299731016 
33.85882187 16.89287376 -1.55756557 0.8594315052 
29.64984703 16.47927856 -1.396317601 0.873015821 
29.16874886 17.95510292 -1.409919977 0.8718619943 
36.73170471 27.39282608 -1.88613975 0.8324016929 
26.41516304 25.83388901 -1.520890474 0.8625027537 
26.09631538 36.66807175 -1.852598071 0.8351219296 
9.715800285 16.60001945 -0.7917405367 0.9258877635 
9.721259117 18.44556046 -0.8582684994 0.9199163914 
13.38240433 42.20689392 -1.822605252 0.8375614882 
9.493896484 35.32681656 -1.505758286 0.8637731671 
7.447631836 33.6137085 -1.417201757 0.8712449074 
7.596913815 43.33477783 -1.810998797 0.8385076523 
3.700556517 43.66493225 -1.803824306 0.8390925527 
-1.939765573 39.59706497 -1.63189292 0.8532416224 
-1.842246056 19.65690422 -0.8126842976 0.9240038395 
-1.745424747 9.460463524 -0.395994097 0.9622191191 
-2.140253782 9.268320084 -0.3915527165 0.9626348615 
-3.043828011 9.311479568 -0.4032479823 0.9615405202 
-3.490966797 9.262226105 -0.4074426293 0.961148262 
-10.73409653 19.93513107 -0.9319866896 0.9133445621 
-10.57133293 16.03258324 -0.7904996872 0.925999701 
-5.433222771 7.492192268 -0.380959779 0.9636271 
-10.72583008 11.26411152 -0.6402465701 0.9396308064 
-7.930614948 7.619189262 -0.4526927173 0.9569275975 
-8.024331093 7.050307274 -0.4396862686 0.9581388235 
-10.7858839 7.180893421 -0.5333762765 0.9494480491 
-11.90517044 7.183036804 -0.5723414421 0.9458566904 
-13.21479416 7.191542625 -0.6192933321 0.9415473938 
-23.82848167 6.746098518 -1.01940608 0.9056122899 
-15.05897427 2.158935547 -0.6262110472 0.9409142137 
-15.06089306 1.479145527 -0.6229359508 0.9412140846 
-15.16503906 0.810546875 -0.6251286268 0.9410131574 
-15.50700188 -0.5522607565 -0.6387191415 0.9397702217 
-46.56525421 -3.737744093 -1.922937751 0.829428494 
-46.1136322 -7.872724533 -1.925643563 0.829210043 
-14.9773283 -3.953691244 -0.6376305819 0.9398697019 
-14.75351048 -4.605688572 -0.6362022161 0.940000236 
-20.18956947 -7.303212643 -0.8837667108 0.9176380634 
-42.65726471 -19.87855339 -1.937199354 0.8282783031 
-41.78230286 -21.78329086 -1.939591169 0.8280856609 
-38.66803741 -27.26125908 -1.947495937 0.827449739 
-37.47212982 -28.99692345 -1.950359583 0.8272192478 
-24.25633812 -20.5587101 -1.308850408 0.8804742694 
-34.85427475 -32.31256866 -1.956401825 0.8267329931 
-28.07961845 -34.04102325 -1.81643486 0.8380643725 
-26.58377838 -35.3178215 -1.819598675 0.8378065228 
-4.522319317 -13.04359818 -0.5682691932 0.9462314844 
-3.88072753 -13.04070759 -0.5600582957 0.9469872713 
-3.423295736 -13.70693302 -0.5815493464 0.9450101256 
-2.15132308 -13.70120049 -0.5708934069 0.945990026 
-0.9155175686 -13.69560051 -0.5650112629 0.9465313554 
-0.3047119081 -13.69285107 -0.5637800694 0.946644783 
0.3046289086 -13.69008732 -0.5636654496 0.9466552734 
1.528662086 -13.68455505 -0.5668029785 0.9463665485 
2.148261786 -13.6817522 -0.5700833201 0.9460645914 
4.068901062 -13.67306614 -0.5872170925 0.9444893003 
4.739501953 -13.67003918 -0.5955606103 0.9437232018 
5.430805683 -13.66690445 -0.6053609848 0.9428242445 
6.146694183 -13.66367149 -0.6167311072 0.9417823553 
18.18975067 -18.43424797 -1.066029906 0.9015152454 
18.17620659 -15.40543461 -0.9807731509 0.9090213776 
19.92369652 -12.75867176 -0.9738650322 0.9096319675 
21.60756111 -12.51791 -1.02791214 0.9048633575 
32.04230881 -13.23060513 -1.426974177 0.8704168797 
48.49958801 -15.14039516 -2.091411352 0.8159487844 
49.12652206 -12.96835899 -2.091470003 0.8159438968 
49.65149307 -10.76950169 -2.091332436 0.815954864 
50.07397461 -8.548828125 -2.091018438 0.8159795403 
50.71662903 -1.806228042 -2.088971853 0.8161419034 
50.72119904 0.4514550567 -2.087925673 0.8162254691 
50.62125397 2.705673695 -2.086701632 0.8163225055 
50.10906982 7.183903694 -2.083731651 0.8165581822 
14.58988476 2.758947611 -0.6112086177 0.9422882199 
42.70601654 18.53022003 -1.916264415 0.8299670219 
33.66470718 16.42349434 -1.541851878 0.860746026 
30.28671265 16.4821701 -1.419348001 0.8710627556 
29.14324188 19.40267563 -1.441174865 0.8692157865 
31.27568817 32.8453331 -1.866910338 0.8339601755 
26.43420029 36.45178986 -1.853479385 0.8350500464 
10.70547104 16.23606491 -0.800532639 0.9250966311 
9.720399857 18.05252838 -0.8439743519 0.9211962819 
17.75882339 36.81666946 -1.682581186 0.8490456939 
6.680825233 17.72562981 -0.7797477841 0.9269686341 
11.05784607 33.82751846 -1.46495223 0.8672078848 
6.710024357 36.36959839 -1.522350788 0.8623803258 
6.038916111 43.49955368 -1.80774641 0.8387725353 
0.1943408102 43.67456818 -1.797798157 0.8395846486 
-1.81000483 13.94801712 -0.5789570212 0.945248425 
-2.503071308 9.313916206 -0.3969928026 0.9621255994 
-3.872089863 9.260502815 -0.4131703079 0.9606129527 
-10.46975517 22.20834351 -1.010659456 0.9063830376 
-10.73609829 20.37115669 -0.9478649497 0.911935091 
-10.72673321 18.32722664 -0.8741226196 0.9184991717 
-10.7187109 16.57522392 -0.8125191331 0.9240187407 
-10.71173286 15.05110836 -0.7604340911 0.9287113547 
-5.824462891 7.458022118 -0.3895222247 0.9628249407 
-10.62721157 11.36130333 -0.6403704882 0.9396195412 
-8.269472122 7.397148132 -0.4567086697 0.956553936 
-8.693315506 7.106137753 -0.4621841311 0.9560447335 
-9.557523727 7.127558231 -0.4907698035 0.9533904195 
-11.40817356 7.022402287 -0.5514320135 0.9477822185 
-13.9320507 6.950976372 -0.6408978105 0.939571023 
-15.8693552 7.054189205 -0.7148609757 0.9328366518 
-17.73625946 6.956640244 -0.7842286229 0.9265645146 
-23.7464695 6.951718807 -1.018501282 0.9056917429 
-46.08081818 7.025478363 -1.91874814 0.8297663927 
-15.0401268 1.612358332 -0.622644484 0.9412406087 
-15.14416027 0.9446679354 -0.6245907545 0.9410624504 
-46.59095764 -3.322793007 -1.922699809 0.8294475675 
-46.42710876 -5.3955369 -1.923948884 0.8293470144 
-20.62005806 -7.25206995 -0.8997473121 0.9162127376 
-19.88210869 -8.003153801 -0.882222712 0.9177756906 
-42.82215881 -19.49344635 -1.936736465 0.8283159137 
-41.02279282 -23.28058624 -1.941594481 0.8279245496 
-38.89793015 -26.90832901 -1.946936607 0.8274948001 
-24.3511219 -20.26939392 -1.304178476 0.880874455 
-35.12923813 -31.99085808 -1.955779672 0.8267832994 
-33.72560501 -33.57580185 -1.958929062 0.8265302181 
-29.79569244 -32.42765427 -1.812736034 0.8383657932 
-26.88760185 -35.06753922 -1.818960428 0.8378584981 
-19.51046371 -27.93722534 -1.402656794 0.8724780083 
-9.304033279 -16.22603035 -0.7699258327 0.9278544784 
-6.610580921 -16.21385765 -0.7207519412 0.9323024154 
-4.007583141 -13.04128361 -0.5615939498 0.9468459487 
-3.55333972 -13.70751953 -0.5828917027 0.9448866248 
-2.908764601 -13.70460415 -0.5766910911 0.9454568624 
0.1827734262 -13.69064426 -0.5635983348 0.9466613531 
0.7926952839 -13.68789005 -0.5643803477 0.9465895295 
2.023740292 -13.68232346 -0.5693331957 0.946133554 
2.649902344 -13.67949677 -0.5735569596 0.9457449317 
3.286679506 -13.67661572 -0.5789986849 0.9452445507 
3.936953068 -13.67366219 -0.5857165456 0.9446273446 
6.739984989 -13.66098118 -0.6270444989 0.9408379793 
11.24090576 -13.8771677 -0.7351213098 0.9310005903 
18.19124031 -18.76688957 -1.075861216 0.9006535411 
18.18406487 -17.16143608 -1.029221892 0.9047480822 
18.17746544 -15.68662071 -0.9883363843 0.9083530307 
18.17135429 -14.32184029 -0.9523847699 0.9115346074 
18.16566658 -13.05048275 -0.9207183123 0.9143462777 
21.17423248 -12.51986313 -1.012556911 0.9062155485 
27.78441429 -13.2499218 -1.267083168 0.8840581179 
31.25938988 -13.2341547 -1.39730072 0.8729327917 
34.6027832 -12.86632824 -1.519634008 0.8626081944 
50.57252884 -4.512685299 -2.089988708 0.8160612583 
50.70298767 -2.257670879 -2.08915925 0.8161273599 
13.8701849 3.79380846 -0.591909945 0.9440582395 
41.61083984 13.39749241 -1.799424291 0.8394520283 
43.64636993 16.22904778 -1.916802049 0.8299236894 
42.87123489 18.1502285 -1.916345358 0.8299598694 
41.81384277 19.94126511 -1.906885028 0.8307229877 
30.97216415 16.4996357 -1.44453609 0.8689318895 
29.13372993 17.22615433 -1.393183708 0.8732822537 
29.14120102 19.02916145 -1.432638764 0.8699374795 
37.25263214 26.76286507 -1.888134837 0.8322409391 
27.93956566 22.02073669 -1.464350581 0.8672588468 
26.44581223 22.82192993 -1.437892675 0.8694930077 
26.43188667 24.94544601 -1.49604857 0.8645890355 
31.58405113 32.58349609 -1.867929697 0.8338773251 
26.77032471 36.23234177 -1.854362726 0.8349783421 
9.950101852 16.32667923 -0.7870258689 0.926312387 
9.714994431 17.66407585 -0.8298207521 0.9224650264 
7.619863033 17.34947205 -0.780002594 0.9269456267 
14.14404297 41.99933624 -1.824221492 0.8374295235 
12.23478031 42.49319077 -1.820209265 0.8377566338 
8.090302467 33.66545868 -1.425227642 0.870564878 
6.604462624 34.09404755 -1.429503441 0.8702027798 
2.530688524 43.69827652 -1.801768422 0.8392603993 
-1.858539939 24.52137566 -1.012272596 0.9062408805 
-1.814980388 15.03369141 -0.6233261228 0.9411782622 
-1.986230373 9.35806179 -0.3937867582 0.9624255896 
-2.861669779 9.312299728 -0.4010139406 0.9617494345 
-11.24696255 19.61445236 -0.9307041168 0.9134584665 
-10.72021961 16.90561485 -0.8240036368 0.9229870439 
-7.471884727 7.43871069 -0.4339984059 0.9586690664 
-8.629052162 7.182651043 -0.462146908 0.956048131 
-9.611581802 7.301860332 -0.4968613982 0.9528256655 
-11.11406231 6.978500843 -0.5401969552 0.9488184452 
-15.14621067 6.894828796 -0.6850259304 0.9355476499 
-20.11343765 7.073852539 -0.8776429296 0.9181847572 
-22.64531136 6.848711014 -0.9738505483 0.9096336961 
-15.12331486 1.078579068 -0.6241011024 0.9411071539 
-15.22789001 0.4066796899 -0.6270501614 0.9408374429 
-43.69107437 -2.725429535 -1.801955104 0.8392452598 
-46.46696091 -4.9814744 -1.9236871 0.8293681145 
-45.9091301 -9.105370522 -1.926569939 0.8291351795 
-14.78089333 -4.327065468 -0.6339613199 0.9402051568 
-19.90450096 -7.807040691 -0.8801013231 0.9179652929 
-26.3499794 -13.14657688 -1.21214807 0.8887941241 
-40.21123886 -24.75237274 -1.943675041 0.8277571201 
-39.12472534 -26.55353546 -1.94638145 0.8275393248 
-37.95978546 -28.30861282 -1.949200988 0.8273122311 
-36.71803665 -30.01422691 -1.952129126 0.8270765543 
-34.0120697 -33.2636528 -1.958291531 0.8265809417 
-32.55220795 -34.80088806 -1.961515427 0.8263218999 
-19.93769073 -28.01452065 -1.415391803 0.8713981509 
-9.497436523 -16.22690392 -0.7739468217 0.9274916053 
-7.659843445 -14.53408146 -0.6762707233 0.936344564 
-6.779794693 -16.21462822 -0.7234404087 0.9320587516 
-4.784462929 -13.04478931 -0.5719408989 0.9458936453 
-4.135131836 -13.04184532 -0.563180387 0.9466998577 
-2.40213871 -13.70231438 -0.5726315379 0.9458301663 
-1.77775383 -13.69950199 -0.5686411858 0.9461972117 
-1.160805583 -13.69671822 -0.5658201575 0.9464569092 
-0.5487109423 -13.69395447 -0.564137876 0.9466118217 
0.06092773378 -13.69119644 -0.5635768175 0.9466633797 
1.282617211 -13.68567848 -0.5658141971 0.9464575648 
2.523896456 -13.68005848 -0.5726158023 0.9458314776 
3.158325195 -13.6771965 -0.5778109431 0.945353806 
3.805668831 -13.67425728 -0.5842663646 0.9447604418 
5.151572227 -13.6681633 -0.6012586951 0.9432004094 
6.589804649 -13.66166019 -0.6243594289 0.9410837293 
7.200219631 -13.37209415 -0.6251577735 0.9410105944 
11.29561234 -12.9720602 -0.7080312967 0.9334562421 
20.7536087 -12.52177715 -0.9977359772 0.907523036 
24.37579346 -13.26538563 -1.142340779 0.8948490024 
48.22081757 -16.00069809 -2.091335297 0.8159543276 
49.45368195 -11.65193081 -2.091408968 0.8159490228 
50.73190308 -0.4513159096 -2.088365316 0.8161904812 
50.51132584 4.054487228 -2.085883141 0.8163869381 
49.87522888 8.514866829 -2.082712889 0.8166384697 
13.92095947 3.019474983 -0.586353004 0.944568634 
13.80005074 3.642936945 -0.5875103474 0.9444622993 
43.03276443 17.76869011 -1.916429996 0.8299537301 
42.19125366 19.66138077 -1.916042089 0.8299849033 
29.13518906 16.8788662 -1.386014581 0.8738913536 
36.19970703 28.01236343 -1.884136915 0.8325644732 
26.41785049 26.77291107 -1.548240185 0.8602115512 
30.33818817 33.6136322 -1.863866329 0.8342071176 
28.74687767 34.84991074 -1.859597445 0.8345535994 
27.1046257 36.00976181 -1.855247498 0.8349066973 
25.41544342 37.09148788 -1.850840449 0.8352646828 
10.08455563 16.22066879 -0.7862119675 0.9263857603 
9.71261692 17.2935009 -0.8164422512 0.9236662984 
9.685448647 19.1985054 -0.8851410747 0.9175153971 
7.806874752 17.35413933 -0.78330338 0.9266479611 
14.5075531 41.84368896 -1.823001266 0.8375291824 
11.05770016 37.15797043 -1.595818639 0.8562397361 
6.818832874 43.42780304 -1.809525609 0.838627696 
4.870556355 43.60122299 -1.805925608 0.8389213681 
2.920561552 43.69038391 -1.802448869 0.8392053246 
0.972353518 43.6958046 -1.79910028 0.8394783735 
-1.874721646 28.04502869 -1.156997681 0.8935744166 
-1.727509737 11.00193787 -0.4584214687 0.9563946128 
-2.771347523 9.31270504 -0.3999519348 0.9618486166 
-3.211723566 9.263485909 -0.4035819769 0.9615092874 
-10.74030781 21.28942299 -0.9815424085 0.9089532495 
-11.01673794 19.61548805 -0.9260647297 0.9138708115 
-10.72178173 17.24551201 -0.8358892798 0.9219209552 
-10.84830093 15.83208466 -0.7900085449 0.9260437489 
-10.56323242 12.80583 -0.6833232045 0.9357026219 
-7.642529011 7.745234013 -0.4478957951 0.9573741555 
-7.709423542 7.147221565 -0.4327363372 0.958786726 
-8.655761719 7.336288929 -0.4670574963 0.9555917382 
-10.14703083 7.153710842 -0.5110468864 0.9515120387 
-12.27110291 7.108998775 -0.5837571621 0.9448071718 
-13.70031261 7.1426754 -0.6359881163 0.9400200248 
-16.4901371 6.808935165 -0.7343713045 0.931068182 
-19.08649445 6.904184341 -0.8354798555 0.9219574928 
-21.52689362 6.72018528 -0.9282876253 0.9136732817 
-45.94491959 7.843915939 -1.918598771 0.8297783732 
-14.99862766 1.878491163 -0.6222126484 0.9412801862 
-15.10247993 1.212260723 -0.6236640811 0.941147387 
-45.98090744 -8.695048332 -1.926255345 0.8291603327 
-16.32538033 -3.846474409 -0.6904028058 0.9350582957 
-14.82667446 -4.197582722 -0.6342974901 0.9401744604 
-19.92801666 -7.612353325 -0.8781087995 0.918143034 
-19.87939453 -8.625663757 -0.8920075893 0.9169028997 
-42.31718826 -20.64468765 -1.938141108 0.8282026649 
-40.41890717 -24.3869133 -1.943147898 0.8277997375 
-39.3483963 -26.1969223 -1.945830941 0.8275834918 
-34.29561615 -32.94883728 -1.957657933 0.8266323209 
-32.8496666 -34.49822235 -1.960863471 0.82637465 
-28.94869995 -33.24523926 -1.814571619 0.8382158875 
-9.692866325 -16.22777748 -0.7780721784 0.9271195531 
-7.823534966 -16.21935081 -0.7412501574 0.9304457307 
-6.95032692 -16.21539497 -0.7262070775 0.9318080544 
-6.110180378 -16.21160698 -0.7131435871 0.9329925179 
-2.528125048 -13.7028904 -0.5735722184 0.9457435608 
-1.901953101 -13.70006847 -0.569345057 0.9461324811 
-0.6708739996 -13.69450665 -0.5643830895 0.9465891123 
0.548525393 -13.68899918 -0.5639327765 0.9466305971 
1.159902334 -13.68622971 -0.5653855801 0.9464967847 
1.775659084 -13.68344688 -0.5679760575 0.9462585449 
3.675029278 -13.67485332 -0.5828719735 0.9448885918 
4.334877968 -13.67186451 -0.590388298 0.9441982508 
5.714013577 -13.66562462 -0.6097129583 0.9424251914 
9.925746918 -13.94672298 -0.7046384811 0.9337648749 
10.88851547 -13.94236279 -0.7281903028 0.9316282272 
11.23760986 -13.13979435 -0.7117030025 0.9331233501 
18.18004417 -16.26226997 -1.004055738 0.9069653153 
20.34512901 -12.523633 -0.9834151268 0.9087877274 
26.56818771 -13.25544357 -1.222184062 0.8879268169 
33.63005066 -13.19056606 -1.486994624 0.8653511405 
48.07521439 -16.42873001 -2.091285467 0.8159588575 
49.83285904 -9.883573532 -2.091228008 0.8159630299 
50.21393585 -7.655639648 -2.090841293 0.815993607 
50.73092651 -0.9030297399 -2.088574409 0.8161739707 
50.69395065 1.353850126 -2.087457418 0.8162620068 
50.55210876 3.605302572 -2.086162806 0.8163650036 
13.98738003 2.903789043 -0.5880381465 0.9444137812 
48.30127335 14.60796261 -2.077165127 0.8170797229 
42.36619949 19.28589058 -1.916112781 0.8299788833 
32.10509109 16.37636185 -1.483543038 0.8656415939 
29.14648819 16.54073906 -1.379494905 0.8744456768 
28.5764637 21.70939255 -1.477241516 0.8661721945 
26.52692986 22.08056259 -1.420711637 0.8709474206 
26.41245461 24.05288696 -1.470479965 0.8667414784 
26.46214485 26.34466171 -1.537031054 0.8611495495 
30.65261459 33.36027145 -1.864871025 0.8341256976 
29.06933022 34.60871887 -1.860457063 0.8344837427 
26.33813477 34.35089493 -1.781787992 0.8408930302 
10.27912045 16.21003342 -0.7901014686 0.9260355234 
9.700824738 18.81080437 -0.8712117672 0.9187591672 
7.102758408 17.42106438 -0.7744154334 0.927449286 
6.844574928 19.18818283 -0.8385887146 0.9216787219 
11.25472832 36.62459946 -1.57716012 0.8577957153 
7.140063286 33.64028168 -1.415580988 0.8713817 
5.260444164 43.57326126 -1.806635976 0.838863492 
-0.582636714 43.63999939 -1.796517611 0.8396892548 
-1.827661037 17.79512596 -0.7363570929 0.9308887124 
-1.730712891 11.70112801 -0.4868943691 0.9537498951 
-1.825981379 9.426205635 -0.395224154 0.9622911215 
-2.227236271 9.267929077 -0.3923579454 0.9625594616 
-2.681479454 9.31311512 -0.398929894 0.9619443417 
-3.119804621 9.263900757 -0.4023744166 0.9616222382 
-3.585258722 9.26180172 -0.4088108838 0.9610203505 
-10.70984364 15.93231869 -0.7902232409 0.9260244966 
-10.30213833 13.94339848 -0.7136230469 0.9329491854 
-6.582060337 7.424462795 -0.408418119 0.9610569477 
-7.630878925 7.201718807 -0.4319085479 0.9588640332 
-8.514033318 7.347353458 -0.4629205167 0.955976367 
-10.07271957 7.236396313 -0.5105293393 0.9515600204 
-13.41347599 7.14565897 -0.6255984306 0.9409701824 
-14.42783165 6.88038063 -0.6579681039 0.9380126595 
-21.42208862 6.897265434 -0.9263769388 0.9138429761 
-44.94951248 12.29470634 -1.918226242 0.8298084736 
-45.45372772 10.28330994 -1.918301225 0.8298024535 
-15.08167934 1.34577632 -0.6232768297 0.941182971 
-46.64673615 -2.077060461 -1.922022343 0.8295018077 
-46.33674622 -6.222734451 -1.924490213 0.8293033838 
-46.04905319 -8.284179688 -1.925946474 0.829185307 
-45.67271423 -10.33295918 -1.927548885 0.8290567994 
-14.75665474 -4.751225471 -0.6381382346 0.9398234487 
-42.48890686 -20.2622261 -1.937667608 0.8282408118 
-41.5973053 -22.15985298 -1.940084696 0.8280461431 
-39.56895447 -25.83851433 -1.945284963 0.8276270628 
-38.43513489 -27.61242104 -1.948059797 0.8274037838 
-24.24216652 -20.92026901 -1.318079829 0.8796842694 
-34.5763092 -32.63182449 -1.957028031 0.8266830444 
-33.1443367 -34.1931839 -1.960215211 0.8264269829 
-9.890399933 -16.22866631 -0.7823048234 0.9267380238 
-8.923149109 -16.22429657 -0.762185216 0.9285532236 
-7.1221385 -16.2161808 -0.7290505767 0.9315502644 
-6.275829792 -16.21235275 -0.7156075835 0.9327691793 
-4.39248991 -13.04301739 -0.5665174723 0.9463925958 
-2.026459932 -13.70062923 -0.5700956583 0.9460634589 
-0.7931298614 -13.6950531 -0.5646749735 0.9465622902 
-0.182812497 -13.69229984 -0.5636674166 0.9466550946 
0.4265331924 -13.6895504 -0.5637771487 0.9466449618 
1.652045846 -13.6840086 -0.5673652291 0.9463146329 
7.448197842 -12.98947716 -0.6163486838 0.9418170452 
10.6908226 -13.94324684 -0.7232415676 0.9320769906 
11.23868179 -13.38033199 -0.7192829847 0.9324355125 
18.18135643 -16.55705452 -1.012225747 0.906244874 
18.174963 -15.12847614 -0.9733982682 0.9096732736 
20.0387516 -12.58229923 -0.9739800096 0.9096220732 
22.76638794 -12.92002392 -1.07752502 0.9005075693 
25.9917984 -13.25805664 -1.201051474 0.8897538185 
29.09366417 -13.24397469 -1.315830708 0.8798767328 
49.23962784 -12.53052235 -2.091456652 0.8159451485 
49.74411011 -10.3269043 -2.091282845 0.815959096 
50.63733292 -3.611384153 -2.089679003 0.8160858154 
50.58876038 3.155693293 -2.086435556 0.8163434863 
50.36365509 5.399233341 -2.085001707 0.8164573908 
50.03514481 7.628378868 -2.08339715 0.8165846467 
14.0666008 2.789897442 -0.5903028846 0.9442059398 
42.53774261 18.90881729 -1.916186929 0.8299731016 
33.85882187 16.89290428 -1.557565093 0.8594315052 
29.16874886 17.95510292 -1.409919977 0.8718619943 
29.38965225 34.36442947 -1.861307502 0.8344144225 
27.7677536 35.55565262 -1.857021451 0.8347625732 
26.09631538 36.66807175 -1.852598071 0.8351219296 
9.715800285 16.6000042 -0.7917397618 0.9258878231 
6.851591587 18.68082428 -0.8190515041 0.9234319925 
13.38238049 42.20690155 -1.822605252 0.8375614882 
7.447631836 33.6137085 -1.417201757 0.8712449074 
5.650341511 43.54199219 -1.807351232 0.8388049603 
1.751264572 43.70378876 -1.800423861 0.8393700123 
-0.1942187399 43.65896225 -1.797155142 0.8396371603 
-1.939702153 39.59706879 -1.631888509 0.8532416224 
-1.842221618 19.65690422 -0.812684238 0.9240038395 
-1.745434523 9.460453987 -0.395993799 0.9622191191 
-2.592060566 9.313515663 -0.3979432583 0.9620366693 
-3.490971565 9.262226105 -0.4074427783 0.961148262 
-3.969091654 9.260063171 -0.4147126675 0.9604690671 
-10.73409653 19.93513107 -0.9319866896 0.9133445621 
-10.57132816 16.03259277 -0.7904996872 0.9259996414 
-5.433212757 7.4921875 -0.380959928 0.9636271596 
-7.930595398 7.619199276 -0.4526922405 0.9569275975 
-8.02437973 7.050326824 -0.4396894872 0.9581386447 
-10.78590775 7.180883408 -0.5333770514 0.9494479895 
-11.9051857 7.183002949 -0.5723414421 0.9458566904 
-13.21481419 7.191533089 -0.6192942858 0.9415473938 
-14.30593204 6.979189396 -0.6552160382 0.9382637739 
-18.03078651 6.887607098 -0.7945088148 0.9256385565 
-20.76334381 6.889697075 -0.9005069733 0.9161452055 
-23.82848167 6.746098518 -1.01940608 0.9056122899 
-45.3597641 10.68735313 -1.918273568 0.8298045993 
-45.79509735 8.659931183 -1.918474436 0.8297882676 
-46.56523514 -3.737841606 -1.922937751 0.8294285536 
-46.11359406 -7.872831821 -1.925643563 0.8292101026 
-45.75522232 -9.924443245 -1.927216649 0.829082787 
-14.977314 -3.953706026 -0.6376304626 0.9398697615 
-14.75350571 -4.605688572 -0.6362022161 0.9400002956 
-20.18956947 -7.303212643 -0.8837660551 0.9176380634 
-19.86938477 -8.204277039 -0.8848673701 0.9175400138 
-39.78617096 -25.47808456 -1.944743752 0.8276712298 
-38.66806412 -27.26120949 -1.947495937 0.827449739 
-37.47212982 -28.99688339 -1.950359583 0.827219367 
-24.25634193 -20.55867577 -1.308849454 0.8804743886 
-34.85433578 -32.3125 -1.956401587 0.8267329931 
-29.51583862 -32.70263672 -1.813344717 0.8383158445 
-19.09072304 -27.86125374 -1.390256763 0.8735309243 
-8.183334351 -16.2209568 -0.7478638887 0.9298475385 
-7.295327187 -16.21695328 -0.7319750786 0.9312853217 
-3.880737305 -13.04069805 -0.5600597858 0.9469872713 
-3.423310518 -13.70692348 -0.5815495253 0.9450101256 
-2.781445265 -13.70403767 -0.5756016374 0.9455569386 
-2.151337862 -13.70118141 -0.5708934069 0.9459900856 
-0.3046777248 -13.6928463 -0.5637800694 0.946644783 
1.528686523 -13.68455982 -0.5668032765 0.9463664889 
2.776328087 -13.67891598 -0.5745462179 0.945653975 
3.415566444 -13.67603493 -0.5802398324 0.9451305866 
4.068911076 -13.67307091 -0.5872173905 0.9444893003 
5.430805683 -13.66690445 -0.6053609848 0.9428242445 
7.295722485 -12.99017048 -0.6132780313 0.9420985579 
8.073935509 -12.98665524 -0.6294640899 0.9406169057 
9.557534218 -13.94839287 -0.6960133314 0.9345481992 
11.23978043 -13.62607861 -0.7270867825 0.9317281246 
18.18975067 -18.43416023 -1.066027284 0.9015154243 
18.18270302 -16.85669899 -1.020611286 0.9055060148 
18.17018509 -14.06056595 -0.9457235336 0.9121249914 
18.35447502 -12.94002438 -0.92441082 0.9140177369 
19.9236927 -12.75867176 -0.9738650322 0.9096319675 
25.43497086 -13.26058102 -1.180728197 0.8915143013 
48.49956894 -15.14045906 -2.091411352 0.8159487844 
49.12636185 -12.96838856 -2.091469765 0.8159443736 
49.65147781 -10.76955318 -2.091332436 0.815954864 
50.60688019 -4.062053204 -2.089837074 0.8160737157 
50.71661377 -1.806120515 -2.088971615 0.816141963 
50.10905838 7.183954716 -2.083731413 0.8165581822 
14.58980656 2.758955002 -0.6112054586 0.9422884583 
13.82300472 3.256879807 -0.5845788717 0.9447318912 
13.93339062 3.944692373 -0.5960819721 0.9436752796 
44.2178421 14.67241955 -1.91772747 0.8298484087 
43.49809647 16.61595345 -1.916703701 0.8299312592 
42.70603561 18.53016853 -1.916264415 0.8299670219 
29.1714592 17.60061073 -1.402423501 0.8724980354 
36.99352646 27.07925224 -1.887138128 0.8323209286 
26.47692299 23.2631855 -1.450788856 0.8684033155 
31.27563477 32.84537125 -1.8669101 0.8339602351 
29.70783043 34.11704636 -1.862159252 0.8343456388 
9.886698723 16.55232811 -0.7936334014 0.9257175326 
17.75882339 36.81666946 -1.682581186 0.8490456939 
6.680844784 17.72563934 -0.7797482014 0.9269685745 
11.05787086 33.82745743 -1.464949608 0.8672080636 
9.458374023 33.98480988 -1.452088594 0.868293643 
6.709955692 36.36965561 -1.522352695 0.862380147 
4.090517521 43.64713287 -1.804519653 0.8390356898 
1.410942316 28.80310059 -1.187039971 0.8909667134 
0.194291994 43.67456818 -1.797797918 0.8395846486 
-1.745654225 43.56331635 -1.794638038 0.8398425579 
-1.81000483 13.94801712 -0.5789570212 0.945248425 
-1.72210443 9.823226929 -0.41052109 0.96086061 
-2.053632736 9.26871109 -0.3907810748 0.9627070427 
-2.503071308 9.313916206 -0.3969928026 0.9621255994 
-2.952490091 9.311894417 -0.4021110535 0.9616467357 
-3.397284985 9.262646675 -0.4061149359 0.9612724185 
-3.872080088 9.260507584 -0.4131701589 0.9606129527 
-10.46974564 22.20836449 -1.010660172 0.906382978 
-10.73609829 20.37120056 -0.9478667378 0.9119349718 
-10.71870613 16.57513618 -0.8125161529 0.9240190387 
-10.62721634 11.36130333 -0.6403703094 0.9396194816 
-7.434858322 7.271225452 -0.4280703664 0.9592218399 
-8.693315506 7.106137753 -0.4621841311 0.9560447335 
-10.61463833 7.204032898 -0.5280581713 0.9499393106 
-11.40817356 7.022402287 -0.5514320135 0.9477822185 
-13.93203068 6.95098114 -0.6408975124 0.9395710826 
-17.73624992 6.956659794 -0.7842286229 0.9265645146 
-23.74643898 6.951762676 -1.01850009 0.9056918621 
-45.26236343 11.09036064 -1.918252349 0.8298063278 
-45.71496964 9.066767693 -1.918421626 0.8297925591 
-15.24892521 0.271435529 -0.6277920604 0.9407696128 
-15.35482407 -0.410068363 -0.6322759986 0.9403592944 
-46.42710876 -5.3955369 -1.923948884 0.8293470144 
-46.17465591 -7.460849285 -1.925346494 0.829234302 
-45.8338089 -9.515116692 -1.926890492 0.8291096687 
-15.25039005 -3.880913019 -0.6477618217 0.9389442801 
-20.6201458 -7.25206995 -0.8997504711 0.9162124395 
-19.88212395 -8.003129959 -0.8822224736 0.917775631 
-42.82219696 -19.49335861 -1.936736226 0.8283159137 
-41.96376038 -21.40519524 -1.939103007 0.8281255364 
-41.02272415 -23.28066444 -1.941594601 0.8279246092 
-40.0002327 -25.11618996 -1.944207311 0.8277143836 
-38.89788818 -26.90835953 -1.946936607 0.8274948001 
-24.3510685 -20.26940918 -1.304177046 0.8808745742 
-33.72556686 -33.57584763 -1.9589293 0.8265301585 
-29.79569244 -32.42765427 -1.812736034 0.8383657932 
-10.29211426 -16.2304821 -0.7910982966 0.9259456992 
-7.469945908 -16.21775818 -0.7349846959 0.9310129285 
-6.61062479 -16.21386147 -0.7207528353 0.9323023558 
-4.652944088 -13.04418945 -0.5700752139 0.9460651875 
-4.007553577 -13.04127407 -0.5615942478 0.9468460083 
-3.553310394 -13.70750904 -0.5828914046 0.9448866844 
-2.276523352 -13.70175743 -0.5717387199 0.9459123015 
0.1827734262 -13.69064426 -0.5635983348 0.9466613531 
0.7926952839 -13.68789005 -0.5643803477 0.9465895295 
3.936943293 -13.67367172 -0.5857159495 0.944627285 
4.603818417 -13.67064953 -0.5937805176 0.9438868165 
5.29068327 -13.66753864 -0.6032798886 0.9430151582 
6.001386642 -13.66432571 -0.6143244505 0.9420026541 
6.74002409 -13.66098118 -0.6270452738 0.9408379197 
7.198955059 -13.08928204 -0.6149091721 0.9419491291 
7.915043831 -12.9873724 -0.6260588169 0.94092834 
10.30331993 -13.94500923 -0.7137046456 0.9329417348 
11.24090576 -13.8771286 -0.7351173162 0.9310007095 
18.19124031 -18.76688957 -1.075861216 0.9006535411 
18.18406487 -17.16143608 -1.029221892 0.9047480822 
18.17746544 -15.68662071 -0.9883363843 0.9083530307 
19.80305672 -12.93140602 -0.9735609889 0.9096592665 
24.89651871 -13.26302719 -1.161167502 0.8932119608 
27.78424835 -13.2499218 -1.267077088 0.8840586543 
31.25958252 -13.23415947 -1.397307992 0.8729321361 
49.55464172 -11.2110815 -2.091374397 0.815951705 
50.70298767 -2.257670879 -2.08915925 0.8161273599 
50.72878647 -0.0002172851528 -2.088149548 0.8162072301 
50.64959717 2.255319834 -2.086960554 0.8163020015 
50.17889404 6.738700867 -2.084059238 0.8165321946 
13.84280777 3.131752968 -0.5842123032 0.944765389 
13.8701582 3.793766975 -0.5919085741 0.9440584183 
41.61083984 13.39758301 -1.799425364 0.8394519091 
43.64633179 16.2291584 -1.91680181 0.8299236894 
30.97205544 16.49962807 -1.444531202 0.8689322472 
29.13373947 17.22620583 -1.393181086 0.8732821345 
29.14117622 19.0291996 -1.43263948 0.8699374795 
26.43188667 24.94544601 -1.49604857 0.8645890355 
26.77036476 36.23230743 -1.854362726 0.8349783421 
11.13612747 16.56643295 -0.8216744661 0.9231961966 
9.950107574 16.32660675 -0.7870237827 0.9263125658 
9.714994431 17.66415977 -0.8298237324 0.9224647284 
9.669252396 19.59827614 -0.8995703459 0.9162288904 
12.23472118 42.49321365 -1.820209265 0.8377565742 
8.09025383 33.66544342 -1.425226092 0.8705649972 
4.480615139 43.62592316 -1.805220127 0.8389784694 
-1.986210942 9.358071327 -0.393787235 0.9624255896 
-2.861694336 9.31229496 -0.4010140896 0.9617494345 
-3.304238319 9.26307106 -0.404827714 0.9613926411 
-3.77581048 9.260937691 -0.4116743505 0.9607527256 
-10.73816395 20.82217216 -0.9643647671 0.9104726911 
-7.471884727 7.43871069 -0.4339984059 0.9586690664 
-11.11406708 6.978481293 -0.540196836 0.9488185048 
-12.58919907 7.144370079 -0.5958413482 0.9436974525 
-13.74239254 7.009755611 -0.6350190639 0.9401085377 
-17.47039032 7.032362938 -0.7752097845 0.9273776412 
-27.15415001 6.910204887 -1.153371692 0.8938892484 
-45.63131714 9.473105431 -1.918375254 0.8297963738 
-46.01454926 7.434989929 -1.918670297 0.82977283 
-15.3335247 -0.2729443312 -0.6312747002 0.9404509664 
-43.69115067 -2.725322247 -1.801956773 0.8392450213 
-46.46696091 -4.981376648 -1.9236871 0.8293681145 
-46.23229218 -7.048486233 -1.925055027 0.8292576075 
-14.8949461 -5.090077877 -0.6479324102 0.9389284849 
-19.90450096 -7.807089806 -0.8801018596 0.9179652333 
-26.3499794 -13.14657688 -1.21214807 0.8887941241 
-40.21123886 -24.75237274 -1.943675041 0.8277571201 
-39.12472534 -26.55353546 -1.94638145 0.8275393248 
-37.95978546 -28.30861282 -1.949200988 0.8273122311 
-36.71803665 -30.01422691 -1.952129126 0.8270765543 
-24.23169327 -21.67552185 -1.338274837 0.8779580593 
-34.01212692 -33.26356506 -1.958291531 0.8265810013 
-28.66147423 -33.51281738 -1.8151896 0.83816576 
-27.18907738 -34.81482697 -1.818324804 0.8379099965 
-19.93757248 -28.01450539 -1.415384769 0.8713984489 
-17.95122528 -27.75959015 -1.360776305 0.8760390878 
-4.135131836 -13.04184532 -0.563180387 0.9466998577 
-3.036601543 -13.7051897 -0.5778289437 0.9453521371 
-2.40213871 -13.70231438 -0.5726315379 0.9458301663 
-1.77775383 -13.69950199 -0.5686411858 0.9461972117 
-1.160805583 -13.69671822 -0.5658201575 0.9464569092 
-0.5487402081 -13.6939497 -0.5641376972 0.9466118217 
0.06090331823 -13.69119072 -0.5635768175 0.9466633797 
0.6705371141 -13.688447 -0.5641328096 0.9466121197 
1.282646418 -13.68566895 -0.5658128262 0.9464575648 
2.523935556 -13.68006325 -0.5726161003 0.945831418 
3.158354521 -13.67718697 -0.5778108239 0.945353806 
3.805698156 -13.67426682 -0.5842669606 0.9447603226 
5.151572227 -13.6681633 -0.6012586951 0.9432004094 
6.589804649 -13.66166019 -0.6243594289 0.9410837293 
7.200219631 -13.37209415 -0.6251577735 0.9410105944 
9.198154449 -13.95001888 -0.6878160238 0.9352935553 
10.11330986 -13.94587326 -0.7091160417 0.9333584309 
11.29556847 -12.9720602 -0.7080288529 0.9334563613 
18.17874146 -15.9720993 -0.996090591 0.9076680541 
18.17254448 -14.5867815 -0.9592120051 0.9109295607 
19.42592239 -12.93311501 -0.9606354833 0.9108031988 
20.75370789 -12.52178192 -0.9977396131 0.907522738 
24.37579346 -13.26538563 -1.142340779 0.8948490024 
27.16540718 -13.25273418 -1.244182229 0.8860293031 
30.50832176 -13.2375679 -1.368934274 0.8753439188 
48.22081757 -16.00069809 -2.091335297 0.8159543276 
48.8878212 -13.84067345 -2.091470242 0.8159442544 
49.45368195 -11.65193081 -2.091408968 0.8159490228 
49.91732788 -9.439437866 -2.091165304 0.8159680367 
50.73212814 -0.4516601562 -2.088365793 0.8161897659 
50.67392349 1.804814458 -2.087212563 0.8162814975 
50.24456787 6.292958736 -2.08438015 0.816506803 
13.92093754 3.019496918 -0.5863525271 0.9445687532 
13.80005074 3.642936945 -0.5875103474 0.9444622993 
48.15890121 15.03411007 -2.076721668 0.8171154261 
43.79138947 15.84080505 -1.916903496 0.8299154639 
42.19125366 19.66138077 -1.916042089 0.8299849033 
32.05335236 16.71110153 -1.48796165 0.8652693033 
29.35973358 18.80127335 -1.435099721 0.8697293997 
36.19974518 28.01232338 -1.884137034 0.8325644732 
26.47371483 22.43799591 -1.428492069 0.8702881336 
26.41269875 24.48653221 -1.48257184 0.8657233715 
26.41785622 26.77302933 -1.548243523 0.8602112532 
30.33811378 33.61370087 -1.86386621 0.8342071176 
25.41536522 37.09154129 -1.850840092 0.8352646828 
10.08455563 16.22066879 -0.7862119675 0.9263857603 
9.71261692 17.2935009 -0.8164422512 0.9236662984 
7.806874752 17.35413933 -0.78330338 0.9266479611 
6.953369141 17.49851608 -0.775077045 0.9273896217 
14.5075531 41.84368896 -1.823001266 0.8375291824 
4.870649338 43.60121155 -1.805925846 0.8389213681 
2.920473576 43.69039154 -1.80244875 0.8392053246 
-0.9707275033 43.61766052 -1.795885563 0.8397411108 
-1.874716759 28.0440464 -1.156957507 0.8935778737 
-1.820795894 16.29937553 -0.6751055717 0.9364504814 
-1.727509737 11.00193787 -0.4584214687 0.9563946128 
-2.326352596 9.314711571 -0.3951997161 0.9622934461 
-3.211723566 9.263485909 -0.4035819769 0.9615092874 
-10.752285 23.90156174 -1.078831792 0.9003933072 
-11.01673794 19.61548805 -0.9260647297 0.9138708115 
-10.72178173 17.24559593 -0.8358919621 0.9219206572 
-10.30096149 13.68535137 -0.7050774693 0.933724761 
-10.56328106 12.80583 -0.6833240986 0.9357025027 
-7.709418774 7.147182465 -0.4327345192 0.9587868452 
-8.655771255 7.33626461 -0.4670573175 0.9555917978 
-10.14703083 7.153710842 -0.5110468864 0.9515120387 
-16.4901371 6.808935165 -0.7343713045 0.931068182 
-21.52689362 6.72018528 -0.9282876253 0.9136732817 
-45.54429626 9.878710747 -1.91833508 0.8297994137 
-45.94489288 7.844003677 -1.918598533 0.8297784328 
-15.20690441 0.5415527225 -0.6263599992 0.9409006238 
-15.31229496 -0.1362988204 -0.6303263903 0.9405377507 
-42.86711884 -4.210048676 -1.773036718 0.8416093588 
-46.28620911 -6.635898113 -1.924769878 0.8292809129 
-16.32538033 -3.846474409 -0.6904028058 0.9350582957 
-14.82667446 -4.197582722 -0.6342974901 0.9401744604 
-19.92801666 -7.612353325 -0.8781087995 0.918143034 
-19.87939453 -8.625663757 -0.8920075893 0.9169028997 
-42.31724548 -20.64460945 -1.938140988 0.8282026052 
-39.34845734 -26.19684601 -1.945830941 0.8275834322 
-18.27317429 -27.71331024 -1.366425753 0.8755577207 
-9.692866325 -16.22777748 -0.7780721784 0.9271195531 
-7.823534966 -16.21935081 -0.7412501574 0.9304457307 
-4.263452053 -13.04243088 -0.5648226738 0.9465487003 
-3.629072189 -13.03956985 -0.5571490526 0.9472554326 
-2.528095722 -13.7029047 -0.5735722184 0.9457435608 
-1.901923776 -13.70005322 -0.5693449378 0.9461325407 
-1.283691406 -13.69727516 -0.5662913322 0.9464133978 
-0.6708398461 -13.69450665 -0.5643829107 0.9465891123 
-0.06091796607 -13.69174767 -0.56359905 0.9466612935 
0.548525393 -13.68899918 -0.5639327765 0.9466305971 
1.159902334 -13.68622971 -0.5653855801 0.9464967847 
1.775659084 -13.68344688 -0.5679760575 0.9462585449 
4.334877968 -13.67186451 -0.590388298 0.9441982508 
6.440854549 -13.66233349 -0.6217445135 0.9413230419 
7.198549747 -13.65890598 -0.6355457902 0.9400603771 
7.602221489 -12.98878384 -0.6195034385 0.9415282011 
10.88856411 -13.94236279 -0.7281911969 0.931628108 
18.19429207 -19.45108414 -1.096340418 0.8988611102 
18.17374802 -14.85567379 -0.9662153125 0.9103091359 
18.16789436 -13.54877377 -0.932907939 0.9132629633 
29.78690147 -13.24083996 -1.341804147 0.8776570559 
33.63005447 -13.19064426 -1.486995459 0.8653510213 
40.36374283 -11.81628609 -1.731230855 0.845038116 
49.34870148 -12.09161377 -2.091436148 0.815946877 
49.8328743 -9.883481026 -2.091228008 0.8159630299 
50.21396255 -7.655531883 -2.090841293 0.8159935474 
50.49091721 -5.412770748 -2.09026885 0.8160392046 
50.73092651 -0.9030297399 -2.088574409 0.8161739707 
50.69395065 1.353850126 -2.087457418 0.8162620068 
50.55210876 3.605302572 -2.086162806 0.8163650036 
33.64434433 3.909995079 -1.394225717 0.8731936812 
13.98738003 2.903789043 -0.5880381465 0.9444137812 
13.80000496 3.511838198 -0.5861558318 0.9445868731 
43.1912384 17.38575935 -1.916517735 0.8299465179 
42.36623383 19.28580475 -1.916112781 0.8299788833 
29.14644051 16.54079628 -1.379493713 0.8744457364 
29.16759491 18.31438637 -1.417686939 0.8712035418 
37.76285934 26.12323761 -1.890121818 0.8320794702 
29.06933022 34.60871887 -1.860457063 0.8344837427 
10.27912045 16.21003342 -0.7901014686 0.9260355234 
9.710092545 16.93416977 -0.8035259843 0.9248272181 
9.700824738 18.81071281 -0.8712085485 0.9187594652 
11.2546339 36.62457657 -1.577158213 0.8577958941 
7.207978249 43.38298798 -1.810259819 0.838567853 
5.260444164 43.57326126 -1.806635976 0.838863492 
3.310507774 43.67935562 -1.803133965 0.8391490579 
-0.582636714 43.63999939 -1.796517611 0.8396892548 
-1.827661037 17.79512596 -0.7363570929 0.9308887124 
-1.730712891 11.70112801 -0.4868943691 0.9537498951 
-2.681455135 9.31311512 -0.398929894 0.9619443417 
-3.11978507 9.263895988 -0.4023742676 0.9616222382 
-10.75496578 24.48752785 -1.100913167 0.8984613419 
-10.74252892 21.77338791 -0.9994063377 0.9073751569 
-10.788867 19.6165123 -0.9215447307 0.9142726064 
-10.72338867 17.59539032 -0.8481879234 0.9208188057 
-10.70987797 15.93229485 -0.7902232409 0.9260244966 
-10.30213833 13.94339848 -0.7136230469 0.9329491854 
-10.37380791 12.80668449 -0.6784136891 0.9361492991 
-6.582060337 7.424462795 -0.408418119 0.9610569477 
-7.625165939 7.866440296 -0.4509638846 0.9570885897 
-8.514033318 7.347353458 -0.4629205167 0.955976367 
-9.379560471 7.392563343 -0.4915945232 0.9533140063 
-16.29674721 6.899418831 -0.7284640074 0.9316033125 
-19.01209831 7.069184303 -0.8349422812 0.9220055938 
-21.42208862 6.897216797 -0.9263769984 0.9138430357 
-44.94953156 12.29464817 -1.918226242 0.8298084736 
-45.45372772 10.28330994 -1.918301225 0.8298024535 
-45.87176514 8.252206802 -1.918533444 0.8297835588 
-14.97788525 2.011445284 -0.6220698357 0.9412932396 
-15.18594646 0.676186502 -0.625718534 0.9409592152 
-46.04907227 -8.284071922 -1.925946355 0.829185307 
-45.67274475 -10.33285141 -1.927548766 0.8290567994 
-14.90563488 -4.076972485 -0.6360977292 0.9400098324 
-14.75664997 -4.751245022 -0.6381385922 0.9398234487 
-19.95202065 -7.418784142 -0.8762212992 0.9183114171 
-42.48888397 -20.26237297 -1.937667847 0.828240633 
-40.62347412 -24.01982307 -1.942625284 0.8278415203 
-37.22369003 -29.33805656 -1.950945377 0.8271723986 
-24.24216652 -20.92026901 -1.318079829 0.8796842694 
-34.5763092 -32.63182449 -1.957028031 0.8266830444 
-33.1443367 -34.1931839 -1.960215211 0.8264269829 
-27.7852478 -34.30144882 -1.817061901 0.8380129337 
-21.25143051 -28.76268005 -1.472070694 0.8666077256 
-9.89044857 -16.22866249 -0.7823060155 0.9267379642 
-8.00259304 -16.2201519 -0.7445127964 0.9301506281 
-7.122104168 -16.21617699 -0.7290498018 0.931550324 
-6.275785923 -16.21234894 -0.7156071067 0.9327692389 
-3.293833017 -13.7063427 -0.580257237 0.9451288581 
-2.026459932 -13.70062923 -0.5700956583 0.9460634589 
-0.7931298614 -13.6950531 -0.5646749735 0.9465622902 
1.037333965 -13.68678188 -0.5650062561 0.9465318918 
2.273085833 -13.68119621 -0.570881784 0.9459912777 
4.876010418 -13.66941357 -0.5974017382 0.9435543418 
7.044360161 -13.65959454 -0.6326377988 0.9403263927 
8.847016335 -13.95161057 -0.6800216436 0.9360028505 
9.740522385 -13.9475584 -0.7002733946 0.934161365 
11.23868179 -13.38033199 -0.7192829847 0.9324355125 
18.19586182 -19.80317307 -1.107015491 0.8979285955 
18.18829155 -18.10757828 -1.056455255 0.9023548365 
18.17496872 -15.12853527 -0.9733998179 0.9096731544 
18.16903114 -13.80297852 -0.9392377734 0.9127008915 
18.70355034 -12.93843746 -0.9361563921 0.9129744172 
20.03878403 -12.58225536 -0.9739800692 0.9096220732 
47.92594147 -16.85549355 -2.091228724 0.8159629107 
48.63301086 -14.70832443 -2.091438293 0.8159467578 
49.23962784 -12.53052235 -2.091456652 0.8159451485 
49.74411011 -10.3269043 -2.091282845 0.815959096 
50.44377899 -5.862333775 -2.090398073 0.816029191 
50.72578812 -1.35469234 -2.088776588 0.816157937 
50.58876419 3.155600548 -2.086435795 0.8163434863 
50.03513718 7.628488541 -2.08339715 0.8165845871 
48.43938065 14.18063927 -2.07760191 0.8170453906 
44.07593536 15.0620985 -1.917312145 0.8298820257 
43.34630203 17.00162888 -1.916609049 0.8299390078 
42.53774261 18.90881729 -1.916186929 0.8299731016 
33.85882187 16.89290428 -1.557565093 0.8594315052 
29.16874886 17.95510292 -1.409919977 0.8718619943 
29.23281097 19.8399868 -1.454271555 0.8681088686 
36.73171234 27.39282608 -1.88613975 0.8324016929 
26.89397621 21.98378944 -1.429829717 0.8701751828 
26.43364716 23.64519691 -1.459887385 0.8676351905 
30.96528435 33.10424805 -1.865890861 0.8340428472 
27.76766777 35.55571365 -1.857021332 0.8347626328 
9.715800285 16.60008812 -0.7917426825 0.9258875251 
13.38238049 42.20690155 -1.822605252 0.8375614882 
7.447631836 33.6137085 -1.417201757 0.8712449074 
3.700619936 43.66492462 -1.803824425 0.8390925527 
-0.1942187399 43.65896225 -1.797155142 0.8396371603 
-1.745434523 9.460453987 -0.395993799 0.9622191191 
-2.140273333 9.268320084 -0.3915528655 0.9626348019 
-3.490971565 9.262226105 -0.4074427783 0.961148262 
-3.969091654 9.260063171 -0.4147126675 0.9604690671 
-10.74482441 22.27559471 -1.018030047 0.9057334065 
-10.73409653 19.93513107 -0.9319866896 0.9133445621 
-10.72581005 11.26413059 -0.6402465701 0.9396308064 
-8.02437973 7.050326824 -0.4396894872 0.9581386447 
-9.781644821 7.160078049 -0.4989840686 0.9526289701 
-11.9051857 7.183002949 -0.5723414421 0.9458566904 
-16.17502975 7.018320084 -0.7257881165 0.9318459034 
-20.76334381 6.889697075 -0.9005069733 0.9161452055 
-45.3597641 10.68735313 -1.918273568 0.8298045993 
-15.05898857 2.158964872 -0.6262120008 0.9409141541 
-15.16503429 0.8105712533 -0.6251283288 0.9410131574 
-15.2699995 0.1358593702 -0.6285853386 0.9406970143 
-15.50706959 -0.5522997975 -0.6387217641 0.9397699237 
-46.56523514 -3.737841606 -1.922937751 0.8294285536 
-45.64270401 -5.716572285 -1.893472075 0.8318085074 
-46.11359406 -7.872831821 -1.925643563 0.8292101026 
-20.18956947 -7.303212643 -0.8837660551 0.9176380634 
-19.86938477 -8.204277039 -0.8848673701 0.9175400138 
-42.65726471 -19.87855339 -1.937199354 0.8282783031 
-41.78230286 -21.78329086 -1.939591169 0.8280856609 
-40.82490158 -23.65101433 -1.942107201 0.8278828263 
-39.78617096 -25.47808456 -1.944743752 0.8276712298 
-38.66806412 -27.26120949 -1.947495937 0.827449739 
-37.47212982 -28.99688339 -1.950359583 0.827219367 
-28.07956505 -34.04105759 -1.816435099 0.8380643725 
-10.09010696 -16.2295742 -0.786644876 0.9263468385 
-8.183334351 -16.2209568 -0.7478638887 0.9298475385 
-7.295327187 -16.21695328 -0.7319750786 0.9312853217 
-4.522328854 -13.04359818 -0.5682693124 0.9462314844 
-3.880737305 -13.04069805 -0.5600597858 0.9469872713 
-2.781445265 -13.70403767 -0.5756016374 0.9455569386 
-1.530244112 -13.69837856 -0.5673753023 0.9463137984 
-0.9154833555 -13.69559574 -0.5650109649 0.946531415 
0.3046582043 -13.69010258 -0.5636656284 0.9466552138 
3.415566444 -13.67603493 -0.5802398324 0.9451305866 
4.739501953 -13.67003918 -0.5955606103 0.9437232018 
6.146689415 -13.66366673 -0.6167309284 0.9417823553 
6.891479492 -13.66029739 -0.6298035979 0.9405855536 
7.295722485 -12.99017048 -0.6132780313 0.9420985579 
8.073935509 -12.98665524 -0.6294640899 0.9406169057 
11.23978043 -13.6259613 -0.7270840406 0.9317284822 
18.18270683 -16.85684586 -1.020615935 0.9055056572 
19.92364502 -12.75874996 -0.9738650918 0.9096319675 
21.60759163 -12.51790524 -1.027912974 0.9048632979 
32.04268646 -13.23060513 -1.426988482 0.8704156876 
47.77241898 -17.28086472 -2.091164112 0.8159683943 
49.12636185 -12.96838856 -2.091469765 0.8159443736 
49.65137482 -10.76930428 -2.091331959 0.8159553409 
50.07395935 -8.548940659 -2.091018438 0.8159795403 
50.39250946 -6.311266899 -2.090519905 0.8160197139 
50.60685349 -4.062265396 -2.089837074 0.8160737753 
50.71661377 -1.806120515 -2.088971615 0.816141963 
50.72119522 0.4512841702 -2.087925911 0.8162254691 
50.62123871 2.705727577 -2.086701632 0.8163225651 
14.59013367 2.758950233 -0.6112189889 0.9422872663 
44.2178421 14.67241955 -1.91772747 0.8298484087 
43.49803162 16.61613464 -1.916703701 0.8299312592 
33.66466904 16.42359734 -1.541852355 0.8607459664 
30.28679085 16.48217201 -1.41934967 0.8710625172 
29.14313316 19.40250206 -1.441167593 0.8692164421 
36.99352646 27.07925224 -1.887138128 0.8323209286 
27.39323616 21.98807144 -1.445913076 0.8688153625 
26.47692299 23.2631855 -1.450788856 0.8684033155 
26.43096352 25.39293861 -1.508725286 0.8635239005 
28.09609222 35.32352448 -1.857879043 0.834692657 
26.43436623 36.4516716 -1.853479862 0.8350500464 
10.70547104 16.23606491 -0.800532639 0.9250966311 
17.75881767 36.81707001 -1.682596087 0.8490445018 
1.411054611 28.80310059 -1.187043309 0.8909666538 
-1.809999943 13.94749928 -0.5789358616 0.9452503324 
-2.053681612 9.268715858 -0.3907817006 0.9627069831 
-2.503071308 9.313916206 -0.3969928026 0.9621255994 
-3.397284985 9.262646675 -0.4061149359 0.9612724185 
-3.872128725 9.260507584 -0.4131709337 0.9606128931 
-10.73609829 20.37097168 -0.9478580952 0.9119356871 
-10.72673321 18.32731438 -0.8741259575 0.9184988737 
-5.824467659 7.457997799 -0.3895211816 0.9628250003 
-6.511152267 7.613315105 -0.4123649597 0.9606881738 
-10.62721634 11.36130333 -0.6403703094 0.9396194816 
-8.693344116 7.106093407 -0.4621836841 0.9560447931 
-9.557523727 7.127558231 -0.4907698035 0.9533904195 
-12.92952156 7.186113358 -0.6088947654 0.9424999952 
-13.93203068 6.95098114 -0.6408975124 0.9395710826 
-15.86937428 7.054130554 -0.7148597836 0.9328367114 
-17.73624992 6.956659794 -0.7842286229 0.9265645146 
-23.74643898 6.951762676 -1.01850009 0.9056918621 
-45.71492004 9.066962242 -1.918421626 0.8297926188 
-15.24891567 0.2714990079 -0.6277915835 0.9407696128 
