# .PCD v0.7 - Point Cloud Data file format
VERSION 0.7
FIELDS x y z intensities
SIZE 4 4 4 4
TYPE F F F F
COUNT 1 1 1 1
WIDTH 908
HEIGHT 1
VIEWPOINT 0 0 0 1 0 0 0
POINTS 908
DATA ascii
-71.09381866 -18.0924015 -0.3353532255 0.7456921339 
-49.87014389 -20.07424736 -0.2457386702 0.8065112829 
-49.78207779 -25.39299774 -0.2554478347 0.7996831536 
-49.63645554 -28.16901398 -0.2608878911 0.7958914638 
-49.8417778 -31.29543877 -0.2690225244 0.7902450562 
-49.53496933 -34.26677704 -0.2753237784 0.7858954072 
-49.38295746 -41.10552597 -0.2937060595 0.7733594179 
-48.09621811 -43.79914093 -0.2973615825 0.7708926797 
-42.97342682 -56.04760742 -0.3228422403 0.7538910508 
-10.30737305 -16.25474167 -0.08798293769 0.9258990884 
-8.374901772 -16.23981857 -0.08352202922 0.9295178652 
-6.615571022 -16.2262249 -0.08009948581 0.932307303 
-4.655112267 -13.05013657 -0.06333465129 0.9460850954 
-4.008739948 -13.04515553 -0.06238280982 0.9468739033 
-3.553989172 -13.70996094 -0.06474136561 0.9449218512 
-1.653378844 -13.69529247 -0.06305770576 0.9463152289 
-1.037680626 -13.69053173 -0.06276092678 0.9465610981 
-0.4264404178 -13.68581963 -0.06258987635 0.9467024803 
0.1827050745 -13.68110847 -0.06254379451 0.9467408657 
3.282001972 -13.65718746 -0.06420745701 0.9453645945 
4.595873833 -13.64704514 -0.06582519412 0.9440264106 
7.127328873 -12.95919895 -0.06760513037 0.9425559044 
8.481742859 -13.91725063 -0.07450073212 0.9368863702 
10.27259254 -13.90341282 -0.07902145386 0.9331889153 
10.90902519 -13.46756363 -0.07922851294 0.9330216646 
11.45914078 -12.92578125 -0.07896438241 0.9332367778 
17.86410332 -16.85949135 -0.112286374 0.9064174891 
17.84252739 -14.06271935 -0.1038476527 0.9131330252 
17.92269897 -12.87585926 -0.1008773744 0.91550982 
21.72679329 -12.84650326 -0.1153782606 0.9039661884 
34.28895569 -12.74955559 -0.1672242731 0.863871038 
81.04896545 -14.5804882 -0.3764237761 0.7193526626 
107.3642654 -14.41881275 -0.4951826334 0.6483548284 
85.69949341 11.5092144 -0.3952676356 0.7075980306 
55.9970932 18.02954483 -0.2689124942 0.790322125 
68.23999023 36.35319901 -0.3534455895 0.7339753509 
28.98084641 18.92448235 -0.1582156271 0.8707054853 
46.77161407 57.74102402 -0.3396737576 0.7428706884 
10.18103504 16.70550346 -0.08942550421 0.9247290492 
17.35486794 35.17557907 -0.1792926043 0.8547919393 
17.83257866 40.60267639 -0.2027056813 0.8374561667 
30.20380783 89.68754578 -0.4325962663 0.6848528981 
10.17176247 35.32759094 -0.1680488586 0.8632484674 
13.24387169 89.54040527 -0.4137513638 0.6962391734 
9.19058609 89.48880768 -0.4112118483 0.6977866888 
5.180947304 89.46173859 -0.4096287489 0.6987583637 
1.193623066 89.43302155 -0.4088427722 0.6992354989 
-2.239321232 71.86811066 -0.328679949 0.7500503063 
-2.361108303 31.15088844 -0.1427996755 0.8825302124 
-2.223847628 13.38440895 -0.06202071905 0.9471742511 
-2.42228508 9.344228745 -0.04412551597 0.9621232152 
-2.86174798 9.312612534 -0.04453399405 0.9617795348 
-4.262685299 9.254565239 -0.04657455161 0.960062623 
-11.47785091 22.25673294 -0.1144688353 0.9046843648 
-11.23181629 19.5879879 -0.1032159403 0.913639009 
-11.79110336 18.59421349 -0.1006469727 0.9156955481 
-11.14791489 15.96278763 -0.0890007019 0.9250741601 
-11.78806114 15.37414551 -0.08855865151 0.9254327416 
-11.67335892 12.70438957 -0.07886458933 0.9333145022 
-12.0255909 11.9722023 -0.07756881416 0.9343754649 
-14.78001881 9.28030777 -0.07977584749 0.9325720668 
-21.44422722 9.761869431 -0.1077021733 0.9100576043 
-111.5466309 33.73556519 -0.5327036977 0.627412796 
-14.88360786 1.729702115 -0.06849121302 0.9418250322 
-15.1875782 -0.2704199255 -0.06943344325 0.9410485029 
-70.48044586 -17.26947212 -0.3317089677 0.7480657697 
-49.74763489 -19.51240158 -0.2442700118 0.8075485826 
-49.66856384 -22.0783596 -0.2484623641 0.8045914769 
-26.64866638 -13.29560471 -0.1361334175 0.8876956105 
-49.70002747 -27.6234169 -0.2599130273 0.7965658903 
-49.48540115 -33.58554459 -0.2733810246 0.7872356176 
-49.4971199 -40.46050644 -0.2922305167 0.7743573189 
-48.58982468 -43.46419907 -0.2980055213 0.7704549432 
-46.32809448 -49.52828979 -0.3100088537 0.7624055147 
-43.2432785 -55.37125015 -0.3211500347 0.7550069094 
-41.74883652 -58.6617775 -0.329133898 0.7497557998 
-10.51253414 -16.25632858 -0.08849319071 0.9254844785 
-8.559609413 -16.24124527 -0.08391997963 0.9291957021 
-7.6533494 -16.23425293 -0.08204192668 0.9307243824 
-6.785263538 -16.22754288 -0.08040099591 0.932061255 
-4.78679657 -13.05114746 -0.06354492158 0.9459120035 
-3.036704063 -13.70596123 -0.0641720593 0.9453935623 
-2.401904345 -13.70106411 -0.06358490139 0.9458789825 
-1.777270436 -13.69624519 -0.06313247234 0.9462534189 
0.6700488329 -13.67735291 -0.0625968948 0.9466975927 
1.281367183 -13.67263126 -0.06277404726 0.9465506673 
1.897499919 -13.66787529 -0.0630761683 0.9462992549 
2.520737171 -13.66307068 -0.06350875646 0.9459409118 
6.978500843 -12.96035099 -0.06728698313 0.9428203702 
9.173007965 -13.9119091 -0.07617324591 0.935516715 
17.87888718 -18.77622604 -0.1185154691 0.9014880657 
17.86645699 -17.16480446 -0.1132516488 0.9056482315 
17.84453773 -14.32351494 -0.1045979261 0.9125345349 
20.76173782 -13.82246017 -0.114012599 0.9050459266 
26.97232628 -13.15870094 -0.1371838301 0.8868804574 
33.39492035 -12.75645924 -0.1634109467 0.8667583466 
63.13076401 -20.94815445 -0.3040513396 0.7663893104 
65.57662201 -18.56515503 -0.3115357757 0.7613831162 
80.65597534 -15.25183582 -0.3752108812 0.7201146483 
101.7893143 -14.59319305 -0.4700588882 0.6627717614 
112.8912201 4.020231724 -0.5163786411 0.6364458799 
90.94203186 11.38972664 -0.4189567566 0.6930772662 
85.29301453 14.56173897 -0.3955253661 0.7074331641 
85.47764587 18.53993607 -0.3998202384 0.7047836781 
68.90304565 35.92308044 -0.3552029431 0.732842803 
29.00708771 18.57560539 -0.1574546844 0.8712887764 
68.09645844 48.00839615 -0.3808537126 0.7165719867 
28.1465416 21.78069115 -0.1626879871 0.8673087358 
49.13949966 41.64852905 -0.2944494486 0.7728558779 
18.26646042 40.60547638 -0.2035295069 0.8368574381 
35.65890503 89.73726654 -0.441408366 0.6795976162 
14.06024361 89.54785156 -0.4143598974 0.6958761215 
9.997514725 89.49617004 -0.4116452038 0.6975262165 
5.980536938 89.46903229 -0.4098866284 0.6985989213 
1.990297794 89.43263245 -0.4089138806 0.6991969347 
-2.404848576 35.97660446 -0.1648207009 0.8656893969 
-2.277983427 20.39205551 -0.09379516542 0.9212015271 
-2.230170965 14.20370579 -0.06572265178 0.9441110492 
-2.771523476 9.313310623 -0.04441802949 0.9618774652 
-3.227822304 9.309784889 -0.04504134879 0.9613523483 
-4.16363287 9.255331993 -0.04639144614 0.9602175355 
-11.22928715 22.25865173 -0.1139640808 0.9050869942 
-11.5613327 18.59598541 -0.1000910923 0.9161376953 
-12.12516594 17.69542885 -0.09805541486 0.917773068 
-11.57337379 15.3758049 -0.08796996623 0.9259087443 
-12.10179615 14.67096615 -0.08693664521 0.9267480969 
-11.46781254 12.70597649 -0.07823913544 0.9338269234 
-11.81509209 11.97382832 -0.07689300179 0.9349264503 
-12.06747532 10.22787571 -0.07230911404 0.9386846423 
-12.02019978 9.30160141 -0.06947845221 0.9410151839 
-20.50463295 11.87890625 -0.1084579453 0.9095647931 
-21.45522499 11.18560028 -0.1106016487 0.9077513218 
-21.4460144 9.993964195 -0.1081541404 0.9096983075 
-22.18713379 9.16118145 -0.1097265631 0.9084482789 
-67.58033752 24.44600487 -0.3285041749 0.7501615882 
-81.91057587 17.76623917 -0.3831216395 0.7151491642 
-14.863554 1.86154294 -0.06847122312 0.9418405294 
-14.96395969 1.201171875 -0.06862136722 0.9417183995 
-106.693512 -20.17638588 -0.4963589311 0.6476903558 
-48.80526352 -13.81752872 -0.2318588197 0.8163628578 
-49.97340775 -16.58227539 -0.2406797707 0.8100873232 
-49.85174561 -21.63069344 -0.2484057546 0.8046310544 
-49.54715729 -26.96372986 -0.2578584254 0.7980069518 
-49.48491287 -29.85706902 -0.2641862333 0.7935963273 
-49.35760498 -32.86061478 -0.2710545361 0.7888447642 
-49.55044937 -36.27092743 -0.2807014287 0.7822109461 
-49.28279114 -39.55846405 -0.288874656 0.7766352296 
-48.40911102 -42.53331757 -0.2945649624 0.7727782726 
-42.12662125 -58.09154129 -0.3280137479 0.7504840493 
-10.7198925 -16.25792885 -0.08901809156 0.9250599146 
-6.956088543 -16.22885132 -0.08071273565 0.9318084717 
-4.264975548 -13.04712868 -0.06274734437 0.9465734959 
-0.67056638 -13.68770027 -0.06264220923 0.9466583133 
0.5480419993 -13.67829514 -0.06257522106 0.9467145801 
1.158828139 -13.67357349 -0.06272704899 0.946588397 
1.773823261 -13.66884232 -0.06300674379 0.9463579655 
2.395405293 -13.66404247 -0.06341201812 0.9460212588 
3.026454926 -13.65915966 -0.06395156682 0.9455747604 
3.669492006 -13.65419388 -0.06463073939 0.9450142384 
5.702700138 -13.63850594 -0.06757369637 0.9425827265 
6.866991997 -13.0296526 -0.06732604653 0.9427874088 
7.582777977 -12.95569324 -0.06862045079 0.9417201877 
8.99732399 -13.91326141 -0.07573867589 0.9358720183 
17.85726738 -15.97355461 -0.1095176637 0.9086118937 
17.83666229 -13.30176258 -0.1017109677 0.9148430228 
20.37102509 -13.82547855 -0.1125401258 0.9062144756 
21.4382515 -13.19652271 -0.1150744632 0.9042057395 
23.72072029 -13.1837883 -0.1240505949 0.8971303105 
29.55755997 -13.13875008 -0.1478602588 0.8786346316 
61.65606308 -12.22868347 -0.2874496281 0.777687192 
95.52306366 -14.56333923 -0.4416981339 0.6794229746 
98.97528839 11.50242615 -0.4554664493 0.6712793708 
85.48571777 13.81302452 -0.3958392143 0.7072425485 
56.29330063 14.32578564 -0.2655345201 0.7926665545 
56.02198029 16.94300461 -0.2675411999 0.7912712097 
85.34634399 30.01657104 -0.4135545194 0.6963606477 
85.24889374 34.31520844 -0.4200743139 0.6924020052 
74.01461029 33.6930275 -0.3717303276 0.722314775 
69.32112122 35.35951614 -0.3557134867 0.7325108647 
68.53895569 47.41316223 -0.3809625208 0.7165089846 
49.13096237 40.89574432 -0.2922065556 0.7743744254 
64.02303314 91.6751709 -0.5111338496 0.6393667459 
9.596215248 16.73553658 -0.08818389475 0.9257350564 
36.5901413 89.74575043 -0.4430265725 0.6786316037 
15.47182369 50.34802628 -0.2407690436 0.8100261688 
2.786826134 89.43991089 -0.4090493619 0.6991170645 
-2.446855307 42.25059128 -0.1934544295 0.8442662954 
-2.136689425 11.02987766 -0.05135467276 0.9560546875 
-3.135478497 9.310498238 -0.04490890354 0.9614645839 
-12.15924263 22.1083889 -0.1153358445 0.9039990306 
-11.33425236 18.59773827 -0.0995555073 0.9165685773 
-12.10389614 14.94263649 -0.08790282905 0.9259637594 
-11.60821724 11.97542477 -0.07624129951 0.9354632497 
-12.06892586 10.4150238 -0.07286926359 0.9382238388 
-12.93764591 9.2945261 -0.07281814516 0.9382663369 
-14.21845627 9.284638405 -0.07762252539 0.9343292117 
-21.35998535 12.62961388 -0.1134291068 0.9055083394 
-21.44782257 10.22804642 -0.1086193845 0.9093291759 
-21.73485374 9.201835632 -0.1078906208 0.9099087715 
-115.3818207 31.55917931 -0.5467968583 0.6197215319 
-71.19963074 16.10827065 -0.3336851299 0.746769011 
-81.44119263 14.65102482 -0.3782581985 0.7182068825 
-14.97047806 2.010502815 -0.06904403865 0.9413689375 
-54.85081863 -2.442412138 -0.7529793978 0.8028066754 
-78.00292969 -14.03261662 -1.086919785 0.7282941341 
-74.22331238 -16.79215813 -1.043631077 0.7375472784 
-60.33096695 -16.5018158 -0.8577791452 0.7786358595 
-21.64554214 -8.048441887 -0.3167054653 0.9117563963 
-49.91162872 -21.13088799 -0.7433125377 0.8050732017 
-49.79940414 -26.52936554 -0.7738239765 0.7979403138 
-49.56407166 -29.30618095 -0.7896586657 0.7942624092 
-49.63819122 -32.41369247 -0.8130270243 0.7888662815 
-49.49618149 -35.55885696 -0.835809052 0.7836417556 
-49.46305466 -38.98455811 -0.8637099266 0.7772907615 
-26.69270515 -23.03500366 -0.4835284352 0.8684507608 
-47.79824066 -45.11019516 -0.9013485312 0.7688038349 
-45.46629715 -51.28542709 -0.9399163127 0.7601986527 
-42.49235153 -57.51134491 -0.9806486964 0.7512233853 
-40.45084 -60.1759758 -0.9943816066 0.7482190132 
-8.021420479 -14.5847559 -0.2282736152 0.9355819225 
-8.010961533 -16.23705101 -0.2483036816 0.9301311374 
-7.128300667 -16.23022461 -0.2431046963 0.9315428138 
-3.9483006 -13.71301746 -0.19570297 0.9445130229 
-3.294228554 -13.70797825 -0.1933450252 0.9451625943 
-2.654467821 -13.70302677 -0.191418916 0.9456939101 
-2.026093721 -13.69818306 -0.1899024993 0.9461122751 
-1.406391621 -13.69340801 -0.1887811273 0.946421802 
-0.1826904267 -13.68395996 -0.1876801997 0.9467257261 
1.036420822 -13.67454052 -0.1880735755 0.9466174841 
1.650312424 -13.66980934 -0.1888297945 0.9464080334 
2.270424843 -13.6650238 -0.1899723709 0.9460927844 
3.539765596 -13.65522385 -0.193459928 0.9451311827 
4.194692135 -13.65017509 -0.1958409101 0.9444750547 
4.867275238 -13.64499474 -0.1986785829 0.943693459 
5.561035156 -13.63963318 -0.2020065188 0.9427779913 
6.279872894 -13.63408184 -0.2058610469 0.9417183995 
6.869013309 -13.31963825 -0.2055276483 0.9418099523 
10.65802002 -13.90047359 -0.2402194142 0.9323273301 
10.90504646 -12.98310471 -0.2325286865 0.9344217181 
17.87092209 -17.79160118 -0.3458329737 0.9040427804 
17.84831429 -14.85662079 -0.318474412 0.9112859964 
17.83825874 -13.55166435 -0.3072219789 0.9142816663 
19.99002075 -13.82846165 -0.3333462477 0.9073410034 
23.23783875 -13.18756771 -0.3664291203 0.898627758 
28.87421799 -13.14408207 -0.4350825548 0.8808105588 
32.58247757 -13.11546803 -0.4816836417 0.8689187169 
63.80960464 -22.44185066 -0.9276396632 0.762929678 
68.95680237 -17.54823112 -0.9758200049 0.7522810698 
73.72531128 -15.30544853 -1.03263545 0.7399169207 
72.82307434 -1.944790006 -0.9990576506 0.7471991181 
62.96393585 9.599475861 -0.8734708428 0.7750792503 
41.01834488 10.05055904 -0.5791723728 0.8445572257 
56.02643585 16.40161324 -0.8005996346 0.7917311788 
85.29413605 29.14756012 -1.236157537 0.6972705722 
85.22253418 33.42648697 -1.255433559 0.6933582425 
69.73918152 34.79429626 -1.068842411 0.732144177 
29.16348076 17.951828 -0.4696479738 0.8719735146 
68.56651306 46.53536606 -1.136446476 0.7178472877 
49.00882721 40.06103516 -0.8680925369 0.7762975097 
48.78983307 57.04835892 -1.029469609 0.7406005859 
26.17942619 36.78485107 -0.6191866994 0.8347563148 
17.74990845 33.6794281 -0.52210325 0.8587337732 
17.35080719 41.49627304 -0.6168345213 0.8353306651 
11.61554146 89.51075745 -1.237860799 0.6969239116 
7.58283186 89.47398376 -1.231464386 0.6982257962 
3.584160089 89.44702148 -1.227674246 0.6989969611 
-2.311337948 24.66217232 -0.3397032022 0.9056609273 
-2.141303778 11.60626888 -0.1618559211 0.9538841844 
-3.043735266 9.31118679 -0.1343450844 0.9615700245 
-3.494907141 9.272689819 -0.1359056085 0.9611338973 
-3.967705011 9.256820679 -0.1381207258 0.960511744 
-11.98204517 22.25279236 -0.3466061354 0.9038389921 
-11.69773865 19.58434486 -0.3128456175 0.912783742 
-12.13090324 18.39784622 -0.3022224307 0.9156169295 
-11.15261173 15.37900829 -0.2605293095 0.9268198609 
-11.40463829 11.97696304 -0.2268066406 0.9359818697 
-12.07834911 11.60404778 -0.2297033668 0.9351917505 
-12.70001411 9.296332359 -0.2158439606 0.9389796853 
-15.37356377 9.275688171 -0.2462364137 0.9306918383 
-21.45938492 11.67827129 -0.3350558281 0.9068898559 
-21.44999886 10.46447754 -0.3273098767 0.9089412689 
-14.90492153 1.463813424 -0.2053909302 0.9418472648 
-15.10677719 0.1344433576 -0.207183525 0.9413547516 
-44.63521194 -3.58283186 -0.6141035557 0.8359955549 
-118.139183 -20.16928673 -1.643616915 0.6191305518 
-49.65194321 -25.88613129 -0.7679207921 0.7993152142 
-49.5815506 -31.75091743 -0.8074401617 0.7901532054 
-49.31610107 -34.7682724 -0.8275117874 0.7855410576 
-49.45534134 -38.26990128 -0.8575859666 0.7786786556 
-49.00641632 -41.53587723 -0.8810095787 0.7733784914 
-47.94128799 -44.44525146 -0.8965479136 0.7698802948 
-45.76118088 -50.70176697 -0.9366564751 0.7609240413 
-44.26478577 -53.66235352 -0.9539996386 0.7570860386 
-42.61923599 -56.62172699 -0.9719110131 0.7531410456 
-40.93306732 -59.73820114 -0.9931352735 0.7484927177 
-10.10482407 -16.25321198 -0.2624636889 0.9262969494 
-8.193822861 -14.58920383 -0.2294753939 0.9352539778 
-8.192148209 -16.23844719 -0.2494291663 0.9298255444 
-7.301879883 -16.2315712 -0.2440902591 0.9312754869 
-6.447304726 -16.22496033 -0.2394349575 0.9325405955 
-3.95680666 -13.29637146 -0.1902505457 0.9460160732 
-3.423803568 -13.70897961 -0.1937817335 0.9450423121 
-2.15099597 -13.69915485 -0.1901730299 0.9460373521 
0.3044189513 -13.68019962 -0.1876585335 0.9467317462 
3.410619974 -13.65622044 -0.1930358857 0.9452479482 
6.133901119 -13.63521481 -0.2050440907 0.9419423938 
7.277709961 -12.95807076 -0.203818351 0.9422795773 
10.4640255 -13.90197277 -0.2386253327 0.9327606559 
17.88652039 -19.81766129 -0.3661119044 0.8987113833 
17.85042 -15.12931633 -0.3209025562 0.910640955 
22.16893196 -12.84314442 -0.35136199 0.9025858641 
25.26489639 -13.17193317 -0.3907481432 0.8922756314 
31.77843666 -13.12167931 -0.4715058804 0.871502459 
63.81454849 -23.08374977 -0.9306609035 0.762257576 
64.72274017 -20.20490265 -0.9298554659 0.7624348402 
68.96186066 -18.20450211 -0.9781505466 0.7517709136 
85.21618652 -14.54850101 -1.185595036 0.7076333761 
105.499527 0.9389697313 -1.446883559 0.6556982994 
85.4570694 12.25153828 -1.183954954 0.7079684138 
56.03830338 15.8650341 -0.798717916 0.792165339 
55.9452095 18.56378937 -0.808378756 0.7899377942 
85.50338745 32.66162872 -1.255247235 0.6933977008 
85.29555511 37.00987625 -1.27512753 0.6893885136 
69.86613464 34.08450699 -1.066101432 0.7327307463 
29.75545883 17.95302391 -0.4765916467 0.8702098727 
61.78462219 41.13425827 -1.017925262 0.7430972457 
67.98422241 59.73204422 -1.241029739 0.6962659955 
61.67462921 59.25284195 -1.172908425 0.7102521062 
63.75971603 66.9596405 -1.267902613 0.6908201575 
32.86870193 41.32372284 -0.7241315842 0.8095911145 
26.18862724 36.11312866 -0.6117851138 0.8365620971 
64.06957245 97.16860199 -1.596198678 0.6277557611 
9.977421761 16.70419121 -0.2668371499 0.9251163602 
11.6652832 21.66450119 -0.3374406397 0.9062580466 
17.24472618 35.75085449 -0.5443500876 0.8531793952 
17.38812065 40.567379 -0.6052988768 0.8381451964 
9.724794388 34.94221115 -0.4974153042 0.8649404645 
6.524101257 35.36179733 -0.4931394756 0.8660194278 
8.3862257 89.48130798 -1.232523203 0.6980060339 
-2.575756788 64.28070068 -0.8822600842 0.7730950117 
-2.239941359 12.77718735 -0.1778996289 0.9494304061 
-2.12573719 9.594164848 -0.134766534 0.9614515901 
-2.490781307 9.268222809 -0.1316166669 0.9623357058 
-3.870859385 9.257568359 -0.1376107782 0.9606541991 
-4.362538815 9.253779411 -0.1403027326 0.9599000812 
-12.09801769 14.14580059 -0.255267024 0.9282433391 
-12.07212353 10.79866219 -0.2221288979 0.9372599125 
-15.07252407 9.278007507 -0.2427305579 0.9316449165 
-21.28602409 11.83067322 -0.3339785635 0.9071745276 
-20.61831474 9.165195465 -0.3094406128 0.9136909842 
-14.98527336 0.9347509742 -0.2059066743 0.9417049885 
-15.08642101 0.2685497999 -0.2069285512 0.9414246678 
-116.7237778 -18.8601265 -1.621513605 0.6231331229 
-81.67527008 -16.95578003 -1.143985391 0.7162698507 
-54.16405106 -16.38116264 -0.7760443091 0.7974236012 
-49.96203995 -20.111269 -0.7386152744 0.8061771989 
-49.81065369 -22.6747551 -0.7505607605 0.803373158 
-49.75549698 -25.37956047 -0.7660035491 0.7997635007 
-49.5424118 -28.11548805 -0.7812159657 0.7962208986 
-49.68325043 -31.19604492 -0.8045436144 0.7908212543 
-49.47657013 -34.22631836 -0.8250608444 0.7861029506 
-46.04711914 -50.11467743 -0.9333497882 0.7616596222 
-44.49600601 -52.97506714 -0.9487809539 0.7582387328 
-42.99374008 -56.0735321 -0.9690384269 0.7537738681 
-41.30694199 -59.14783096 -0.9893898368 0.7493100762 
-8.375 -16.23985291 -0.2505868375 0.9295119047 
-6.615624905 -16.22626495 -0.2403149307 0.9323016405 
-4.655097485 -13.0501709 -0.1900160164 0.9460806251 
-4.008784294 -13.04517555 -0.1871594191 0.9468694329 
-3.553969622 -13.70998001 -0.1942332387 0.9449173212 
-2.276254892 -13.70011234 -0.1904623359 0.9459581971 
-1.653398395 -13.69530773 -0.1891816705 0.9463108182 
-1.037641525 -13.69056606 -0.1882928461 0.9465566278 
2.646543026 -13.66211891 -0.1908479333 0.9458515644 
3.282026291 -13.65722179 -0.192628935 0.9453600049 
4.595898151 -13.64707947 -0.1974858046 0.9440217018 
9.350814819 -13.91055679 -0.2298669368 0.935147047 
21.72670364 -12.84655285 -0.3461514115 0.9039587379 
34.2889061 -12.74963379 -0.5016976595 0.8638605475 
67.8121109 -18.5480423 -0.9641507268 0.7548483014 
68.9417572 -15.59726524 -0.9693702459 0.7536984086 
110.2740326 4.910219669 -1.51381135 0.6430230141 
55.96689224 18.01970673 -0.8063314557 0.790407002 
85.22608185 31.68948364 -1.246988058 0.6950705051 
33.16017151 17.66521263 -0.5152694583 0.8604478836 
31.88174438 18.8509922 -0.507941246 0.8622883558 
71.09344482 67.09532928 -1.340668201 0.6763414741 
64.98962402 67.04616547 -1.280560851 0.6882975698 
46.67061234 57.6159935 -1.016863227 0.7433300614 
10.18216324 16.70743561 -0.2683242857 0.9247147441 
17.24067307 34.94429016 -0.5343827605 0.85566324 
17.80826569 40.54710388 -0.6073358059 0.8376470208 
10.0612278 34.94410706 -0.4986930788 0.8646171093 
-2.36162591 31.1590519 -0.4285488725 0.882492125 
-2.373061419 19.65633774 -0.2715252638 0.9238517284 
-2.224052668 13.38593674 -0.1860932857 0.9471641183 
-2.422275305 9.344277382 -0.1323828101 0.9621199369 
-3.32062006 9.309052467 -0.1355445832 0.9612334371 
-11.47792435 22.25668907 -0.3434309363 0.904676795 
-11.23176765 19.58795357 -0.3096609414 0.9136322737 
-11.79098129 18.59416962 -0.3019526601 0.9156891704 
-11.14801693 15.96292973 -0.2670182884 0.9250674844 
-11.78792 15.37410641 -0.2656843364 0.9254271984 
-11.67322731 12.70436001 -0.2366100997 0.9333095551 
-12.0255518 11.97216797 -0.2327149957 0.9343703985 
-12.07363701 10.99501896 -0.2239475995 0.9367625713 
-13.72443295 9.494101524 -0.2288656533 0.9354203343 
-20.8527832 11.83400822 -0.328818202 0.9085404873 
-21.45371056 10.94323254 -0.3302860856 0.9081523418 
-21.44457054 9.761977196 -0.3231303394 0.9100491405 
-23.10340691 9.299858093 -0.3415505886 0.9051731825 
-101.9980316 25.95654297 -1.443408728 0.6563668847 
-106.5775833 -16.24888611 -1.478517532 0.6496788859 
-86.03590393 -17.06391525 -1.202889562 0.7040681839 
-70.44607544 -17.26119041 -0.994677484 0.7481534481 
-49.66067123 -27.60124969 -0.7791776657 0.7966946959 
-49.53245163 -30.49017525 -0.7976751328 0.7924070358 
-49.46274185 -33.56988144 -0.8198107481 0.7873066068 
-49.40904999 -40.3882103 -0.8751769662 0.7746938467 
-48.55373764 -43.4318924 -0.8933981061 0.7705874443 
-47.27344513 -46.23326111 -0.9068239331 0.7675757408 
-46.30050659 -49.4989624 -0.9295208454 0.7625110745 
-43.30669022 -55.4526825 -0.9649274945 0.7546775341 
-9.510146141 -16.24861717 -0.2581999004 0.9274507761 
-4.786801815 -13.05117607 -0.1906449795 0.9459074736 
-3.684755802 -13.71098137 -0.1947062612 0.9447875023 
-1.777329087 -13.69626427 -0.1894073486 0.9462489486 
-1.160351515 -13.69151783 -0.1884400845 0.9465158582 
0.06089355424 -13.68208504 -0.1876408309 0.9467369318 
0.670024395 -13.6773777 -0.1877973825 0.9466931224 
1.281396508 -13.67265606 -0.1883294582 0.9465462565 
1.8974756 -13.66790009 -0.1892419457 0.9462947845 
2.520776272 -13.66309071 -0.1905390918 0.9459363818 
3.153950214 -13.65820312 -0.192238465 0.9454674721 
3.799819231 -13.65321732 -0.1943589747 0.9448833466 
5.845331669 -13.63744068 -0.2034831196 0.9423720837 
6.575405121 -13.63180161 -0.2075590491 0.9412515163 
7.737729549 -12.95452595 -0.2069383264 0.941422224 
10.08359814 -13.90490723 -0.2355583161 0.9335958362 
10.91069794 -13.71736336 -0.2403744459 0.9322855473 
11.25668716 -12.92737293 -0.2350813299 0.9337259531 
17.8785038 -18.77575111 -0.3555560112 0.9014824629 
17.86609077 -17.16452026 -0.3397735655 0.9056424499 
17.84420395 -14.3233099 -0.3138035536 0.9125289321 
17.83442879 -13.05473614 -0.3031082153 0.9153801799 
21.43585396 -12.93343735 -0.3433393836 0.9047008753 
26.97274017 -13.15874958 -0.4115830958 0.8868701458 
33.39467239 -12.75653267 -0.4902554154 0.8667486906 
68.94675446 -16.24476433 -0.9714310765 0.7532446384 
101.7906113 -14.5933733 -1.410238624 0.6627454758 
110.4110413 3.932160616 -1.515160203 0.6427716613 
74.48464966 12.71629715 -1.036279678 0.7391327024 
78.38253021 17.00119019 -1.099950671 0.7255315781 
56.20183945 14.83615112 -0.7971616983 0.7925257683 
85.44573975 35.28144455 -1.267786503 0.690867126 
72.27256775 33.67943954 -1.093493938 0.7268980742 
31.87966919 18.46880531 -0.5052706599 0.8629607558 
29.29617691 18.76056671 -0.4770925939 0.8700833917 
28.14540863 21.77972031 -0.4880599976 0.8673036098 
49.0250473 41.55169678 -0.8813380003 0.7733029127 
49.20410156 54.51634216 -1.007124424 0.7454420328 
26.57700539 35.30876923 -0.6060737371 0.8379559517 
9.38613224 16.71214867 -0.2628671229 0.9261885285 
17.21769524 34.1288681 -0.5242369175 0.8581997156 
18.0758934 40.18136597 -0.6042437553 0.8384029865 
20.22784042 50.90429688 -0.7511996031 0.8032215238 
17.41362572 50.22563553 -0.7290249467 0.808435142 
10.39892769 34.94421387 -0.4999983013 0.8642886877 
9.170150757 36.71735764 -0.5190069675 0.8595082164 
9.997333527 89.4960022 -1.234995842 0.6975057721 
5.980707645 89.46887207 -1.229725718 0.6985783577 
1.990117192 89.43247986 -1.22678566 0.6991764307 
-2.1328125 10.50827599 -0.1470495611 0.9580127597 
-3.679272413 9.259052277 -0.1366381794 0.96092695 
-11.22926235 22.25860214 -0.3419059813 0.9050796628 
-12.15602016 21.64400291 -0.3404403627 0.9054661393 
-11.5613575 18.59594727 -0.3002943397 0.9161310792 
-12.10207939 14.67137623 -0.2608244121 0.9267404079 
-11.46782207 12.70594215 -0.2347291559 0.9338216782 
-12.07518482 11.19462395 -0.2258151174 0.936252296 
-13.72584915 9.676796913 -0.2303167731 0.9350246191 
-20.50561905 11.87949181 -0.3250772059 0.9095534086 
-28.44347572 10.2889204 -0.4148121476 0.8860337734 
-58.77400208 18.34784126 -0.8443982601 0.7816811204 
-60.2346077 10.283535 -0.8380242586 0.7831370831 
-14.94504833 1.199619055 -0.2056169063 0.9417851567 
-54.94172668 -2.936542988 -0.7545544505 0.8024374843 
-106.6720963 -20.17183495 -1.488845825 0.6477235556 
-21.31521416 -8.142270088 -0.3129200637 0.9127636552 
-49.8425293 -21.62669945 -0.7451188564 0.804648757 
-49.73334885 -24.26270485 -0.7588845491 0.8014239073 
-49.53476334 -26.95713806 -0.7734049559 0.7980367541 
-49.48842621 -29.85908127 -0.7926549911 0.7935681939 
-49.36229324 -32.86388779 -0.8132727742 0.7888110876 
-49.6008873 -36.30765533 -0.8430012465 0.7819996476 
-49.24760818 -39.5303421 -0.8660519719 0.77675879 
-47.68574905 -45.81319046 -0.9068743587 0.7675644159 
-46.51749039 -48.85198212 -0.9251046777 0.7634926438 
-43.7682991 -55.02720642 -0.9642569423 0.7548237443 
-10.71990681 -16.2579689 -0.2670690715 0.9250537157 
-9.706205368 -16.25014687 -0.2595832646 0.9270757437 
-6.956098557 -16.22889137 -0.2421473712 0.9318028688 
-4.264955997 -13.04715347 -0.1882476807 0.9465690851 
-1.283261657 -13.69246101 -0.1886025965 0.9464709163 
-0.06090331823 -13.68301773 -0.187652424 0.9467333555 
0.5481005907 -13.67831516 -0.1877348274 0.9467101097 
1.77376461 -13.66885757 -0.1890289336 0.9463535547 
2.395419836 -13.66405773 -0.19024764 0.9460167885 
3.026396513 -13.65917969 -0.1918661445 0.9455703497 
3.669492006 -13.65422344 -0.1939007491 0.9450096488 
6.86677742 -13.02930641 -0.2019842416 0.9427843094 
7.582827091 -12.95573235 -0.2058731019 0.9417152405 
9.897016525 -13.90635204 -0.2340815663 0.9339981079 
10.85460663 -13.89896488 -0.2418525666 0.9318831563 
11.05723095 -12.92890072 -0.2333103865 0.9342084527 
17.85691452 -15.97322273 -0.3285714686 0.9086063504 
17.84624481 -14.58796883 -0.3161088526 0.9119152427 
17.83633423 -13.30151367 -0.3051413 0.914837718 
20.37090683 -13.82551765 -0.3376353383 0.9062073231 
23.72059059 -13.18383789 -0.372177422 0.8971225023 
29.55753517 -13.13881302 -0.4435971081 0.8786251545 
68.95175934 -16.89501953 -0.9735947847 0.7527722716 
61.6545639 -12.22824192 -0.8620564342 0.7776756883 
95.31661987 -14.53204536 -1.322293639 0.6799687743 
89.06321716 -5.555566311 -1.223800302 0.6997872591 
85.55126953 13.82328129 -1.1884799 0.7070343494 
56.00715256 16.93850517 -0.8024496436 0.7913047671 
85.4648056 30.05803871 -1.242450833 0.695990026 
31.8777771 18.0907383 -0.5026701093 0.8636159301 
29.8856163 18.76511955 -0.4839526117 0.8683439493 
69.41131592 52.73141098 -1.195446134 0.7055969834 
50.09593582 54.5210762 -1.015417576 0.743643105 
27.08455467 35.32439804 -0.6104496717 0.8368856907 
63.97798538 91.61071777 -1.532407641 0.6395440102 
9.567744255 16.68596649 -0.2637823522 0.9259408116 
17.38209724 33.70549393 -0.5200927854 0.8592386246 
10.74427509 34.96348953 -0.5016235113 0.863879323 
19.01473045 89.5874176 -1.255985737 0.6932484508 
9.129878044 54.94973373 -0.7639244199 0.8002483845 
-1.193735361 89.41109467 -1.226302743 0.6992759109 
-2.293271542 22.3286171 -0.30788818 0.9141206145 
-2.237539053 15.12773418 -0.2097228914 0.9406585693 
-2.66815424 9.26685524 -0.1322499067 0.9621577263 
-3.135488272 9.310473442 -0.1347320527 0.9614614844 
-11.30202103 22.90750885 -0.3503130972 0.9028624296 
-11.33417988 18.59770012 -0.2986834645 0.91656214 
-11.26565933 12.7074995 -0.2328953445 0.9343209863 
-11.60808563 11.97539997 -0.2287271023 0.9354584813 
-12.06915951 10.41531181 -0.2186295986 0.9382174611 
-12.93749523 9.294496536 -0.2184681594 0.9382618666 
-14.21846676 9.284604073 -0.2328855842 0.9343239665 
-21.35982895 12.62956524 -0.3403080702 0.9055014253 
-21.44817352 10.22826672 -0.3258784413 0.9093204737 
-115.3694611 31.55610275 -1.640307069 0.6197283268 
-14.94685555 2.007255793 -0.2068208307 0.9414539933 
-15.02561474 0.6690429449 -0.2062667757 0.9416066408 
-78.00289917 -14.03265572 -1.086919427 0.7282942533 
-60.33093643 -16.50184441 -0.8577790856 0.7786359191 
-50.48358154 -16.25429726 -0.7273391485 0.8088327646 
-49.9116478 -21.13088799 -0.7433120608 0.8050731421 
-49.95051575 -23.82057571 -0.7589401007 0.801412642 
-49.63818359 -32.41373062 -0.8130273819 0.7888662219 
-49.49617004 -35.55892563 -0.8358092904 0.7836416364 
-49.46305466 -38.98460007 -0.863710165 0.7772906423 
-47.79824066 -45.11019516 -0.9013485312 0.7688038349 
-45.4661026 -51.28515625 -0.93991822 0.760199666 
-44.01010513 -54.33142471 -0.9588897228 0.756006062 
-40.45080948 -60.17601395 -0.9943823814 0.7482189536 
-8.02141571 -14.58475018 -0.2282737643 0.9355819821 
-8.010961533 -16.23705101 -0.2483036816 0.9301311374 
-5.052924633 -13.05323219 -0.1919580102 0.9455451369 
-4.394218445 -13.04813957 -0.1888182014 0.9464113712 
-3.94828105 -13.71301746 -0.195702821 0.9445130825 
-0.7927441001 -13.68866634 -0.1880435199 0.9466256499 
-0.1826953143 -13.68395996 -0.1876803488 0.9467257261 
0.4262206852 -13.67925739 -0.1876907349 0.9467229843 
1.650331974 -13.66980934 -0.1888299584 0.9464080334 
4.194692135 -13.65017509 -0.1958409101 0.9444750547 
4.867265701 -13.6449852 -0.1986784339 0.9436935186 
5.561025143 -13.63963318 -0.2020065188 0.9427780509 
6.279858112 -13.63408661 -0.2058608979 0.9417184591 
6.869013309 -13.31959915 -0.2055271864 0.9418100715 
7.429511547 -12.95689392 -0.2048320025 0.9420010448 
10.65802193 -13.90047836 -0.2402194142 0.9323273301 
10.90504646 -12.98310471 -0.2325286865 0.9344217181 
17.87092209 -17.79162598 -0.3458331227 0.9040427208 
17.83825874 -13.55164528 -0.3072216809 0.9142817259 
19.99005318 -13.82846642 -0.3333499134 0.9073409438 
21.43992615 -13.46212387 -0.3471865654 0.9036858678 
23.23783875 -13.18756771 -0.3664291203 0.898627758 
28.87415695 -13.14408207 -0.435081929 0.8808107972 
32.58259583 -13.11547375 -0.4816850126 0.8689183593 
64.71786499 -19.57296753 -0.9272497892 0.763015449 
68.95680237 -17.54820251 -0.975820601 0.7522810698 
73.72534943 -15.30544853 -1.032635808 0.7399168015 
88.91794586 -6.341535568 -1.222520471 0.7000463605 
72.82307434 -1.94484365 -0.9990575314 0.7471991181 
108.0750961 11.58616161 -1.490654826 0.6473821998 
62.96393585 9.599485397 -0.8734709024 0.7750792503 
41.01834488 10.05055904 -0.5791723728 0.8445572257 
56.02643585 16.40158463 -0.8006001115 0.7917311788 
85.2940979 29.14748955 -1.236156583 0.697270751 
69.73912811 34.79436874 -1.068835378 0.732144177 
31.87630081 17.71673203 -0.5001371503 0.8642533422 
68.56651306 46.53536606 -1.136446476 0.7178472877 
69.62719727 51.92470169 -1.191181064 0.7064800858 
27.04868507 24.19535065 -0.4977009594 0.8648681641 
48.78983307 57.04837799 -1.029469728 0.7406005263 
32.25027847 41.29534149 -0.7185680866 0.8109041452 
26.17942619 36.78485107 -0.6191866994 0.8347563148 
9.776484489 16.70366669 -0.2654303014 0.9254965782 
17.24831963 36.58702469 -0.5547246933 0.8506020308 
18.20121384 49.62543869 -0.7249050736 0.8094081879 
9.389609337 34.938797 -0.4961550832 0.8652579188 
9.623432159 54.89434433 -0.7643049359 0.8001573086 
3.584267616 89.44702148 -1.227674484 0.6989969611 
-0.3977734149 89.41835785 -1.226306438 0.6992753744 
-2.518378735 51.40982437 -0.7058882117 0.8139101863 
-2.311342716 24.66265488 -0.3397097588 0.9056591988 
-2.1816504 9.447509766 -0.1329734772 0.9619544148 
-2.579267502 9.267539024 -0.1319270283 0.962248385 
-11.98204517 22.25279236 -0.3466061354 0.9038389921 
-11.69773865 19.58434486 -0.3128456175 0.912783742 
-12.13090801 18.39786148 -0.3022229075 0.9156168699 
-11.11593723 12.76575184 -0.2321058661 0.9345268011 
-12.07834911 11.60408211 -0.2297036648 0.9351916909 
-12.07062435 10.60541439 -0.2203572094 0.9377449155 
-11.59225082 9.304877281 -0.2038578689 0.9422688484 
-12.70004845 9.296327591 -0.2158445716 0.9389796257 
-13.94889164 9.286688805 -0.2298146039 0.9351612329 
-15.37362766 9.27569294 -0.2462365627 0.9306915998 
-21.44999886 10.46443844 -0.3273091018 0.9089413285 
-21.11402321 9.161372185 -0.3156451285 0.9120391607 
-24.04232407 9.183979034 -0.3529527187 0.9021661282 
-69.21089935 22.96562386 -1.000056148 0.7469820976 
-14.90491199 1.463832974 -0.2053909302 0.9418473244 
-44.63510513 -3.582910061 -0.6140941978 0.8359959126 
-49.82157135 -20.57185555 -0.7392210364 0.8060359359 
-49.80207825 -23.20810509 -0.7535113096 0.8026813865 
-49.65194321 -25.88613129 -0.7679207921 0.7993152142 
-49.75799561 -28.82626915 -0.788625598 0.7945008874 
-49.45534134 -38.26981354 -0.8575847149 0.7786788344 
-45.76110077 -50.70194244 -0.9366753697 0.7609238029 
-44.26467514 -53.66242981 -0.9540008307 0.7570860386 
-40.93300629 -59.73821259 -0.9931346178 0.748492837 
-8.19214344 -16.23844719 -0.2494293153 0.9298255444 
-7.301879883 -16.2315712 -0.2440902591 0.9312754869 
-6.447304726 -16.22496033 -0.2394349575 0.9325405955 
-4.52423811 -13.04915524 -0.1894090176 0.9462485909 
-3.956801653 -13.29633713 -0.1902481019 0.9460161924 
-3.423803568 -13.70897961 -0.1937817335 0.9450423121 
-2.781425714 -13.70401859 -0.191771701 0.9455968142 
-1.529790044 -13.69435501 -0.1889750659 0.9463683963 
-0.9151366949 -13.6896143 -0.1881596297 0.946593225 
-0.3045019507 -13.68489742 -0.1877218634 0.9467139244 
0.3044433594 -13.68019962 -0.1876586825 0.9467317462 
1.527143478 -13.67076111 -0.188647911 0.9464583397 
4.731176853 -13.64603996 -0.198071897 0.9438602328 
5.420405388 -13.64071751 -0.2012975961 0.9429723024 
6.133886814 -13.63521481 -0.2050439417 0.9419423938 
7.277685165 -12.95807076 -0.2038201839 0.9422796369 
8.651689529 -13.91596127 -0.2247207612 0.9365515113 
10.46400166 -13.90197277 -0.2386251837 0.9327607155 
10.90688229 -13.22252369 -0.2350657582 0.9337297082 
17.87340355 -18.11357307 -0.3489874303 0.9032116532 
17.86142731 -16.55885696 -0.3340251148 0.9071621299 
17.85041428 -15.12927246 -0.3209019303 0.9106410742 
17.84021187 -13.80522442 -0.3093629479 0.9137119055 
18.25980759 -12.87329578 -0.3063943386 0.9145031571 
28.21665001 -13.14915466 -0.4269229174 0.8829101324 
64.72273254 -20.20498085 -0.9298558831 0.7624347806 
68.96186066 -18.20458412 -0.9781508446 0.751770854 
68.93679047 -14.95262623 -0.9674038291 0.7541336417 
85.21526337 -14.54850578 -1.185545444 0.7076359391 
72.5654068 -2.58419919 -0.9958008528 0.7479097843 
105.4995422 0.9390990734 -1.446883202 0.6556982398 
78.39933777 14.825387 -1.094235063 0.7267410159 
55.9452095 18.56378937 -0.808378756 0.7899377942 
85.29560089 37.00975037 -1.275129557 0.6893885136 
69.86618042 34.08445358 -1.066092491 0.7327306867 
32.45301056 17.66101074 -0.5066984296 0.8626006842 
29.75551605 17.95302963 -0.4765923917 0.8702096343 
61.78468704 41.1341095 -1.017925143 0.7430973053 
67.98394012 59.73206711 -1.241105199 0.6962665915 
61.67473984 59.25312042 -1.172911763 0.7102513313 
48.88698196 56.14272308 -1.020932794 0.7424461842 
32.8686409 41.32371521 -0.7241300941 0.8095912337 
9.977421761 16.70419121 -0.2668371499 0.9251163602 
11.6652832 21.66450119 -0.3374406397 0.9062580466 
17.38816452 40.56732941 -0.6052984595 0.8381453156 
33.8158989 89.72026825 -1.314935327 0.6814300418 
15.99608612 48.93410492 -0.7060348392 0.8138751388 
6.52403307 35.36185837 -0.4931396246 0.8660193086 
12.4294138 89.53281403 -1.239642978 0.6965610385 
0.3978417814 89.4256134 -1.226405263 0.6992551088 
-2.575800657 64.28063202 -0.8822592497 0.7730951905 
-2.254941463 17.37679672 -0.2403065413 0.9323037863 
-2.239941359 12.77718735 -0.1778996289 0.9494304061 
-2.12573719 9.594164848 -0.134766534 0.9614515901 
-2.490781307 9.268222809 -0.1316166669 0.9623357058 
-2.952499866 9.311889648 -0.1339707971 0.9616750479 
-3.41404295 9.308334351 -0.1359701455 0.9611138105 
-3.870859385 9.257573128 -0.1376107782 0.9606541991 
-11.7287693 22.25474548 -0.344997853 0.9042634368 
-11.33519459 15.92705536 -0.2680966258 0.9247769117 
-12.09801769 14.14578629 -0.255267024 0.9282433987 
-11.20456982 11.97850513 -0.2249392718 0.9364919662 
-12.07211876 10.79864693 -0.2221292108 0.9372599721 
-11.3851366 9.306479454 -0.2016645819 0.9428719282 
-13.72304153 9.313672066 -0.2274501026 0.935806334 
-15.07252407 9.278007507 -0.2427305579 0.9316449165 
-21.45185089 10.70278263 -0.3287756145 0.9085519314 
-23.31395912 9.144379616 -0.343449235 0.9046726823 
-27.56449699 6.753954887 -0.3892059326 0.8926772475 
-14.8848877 1.595703125 -0.2053027302 0.9418715835 
-14.98527336 0.934741199 -0.2059066743 0.9417049885 
-15.08643055 0.2685351372 -0.2069282532 0.9414246678 
-116.7237778 -18.8601265 -1.621513605 0.6231331229 
-81.67527008 -16.95578003 -1.143985391 0.7162698507 
-54.1640892 -16.38113213 -0.7760443091 0.7974235415 
-50.16080856 -17.64150429 -0.7292120457 0.8083900809 
-49.96211624 -20.11125946 -0.7386158705 0.8061770201 
-49.54232407 -28.1156044 -0.7812170386 0.7962209582 
-49.47657013 -34.22638702 -0.8250613809 0.7861028314 
-49.45846558 -37.57348633 -0.8518178463 0.779992044 
-48.18416977 -43.87960815 -0.8937481642 0.7705084085 
-42.99374008 -56.0735321 -0.9690384269 0.7537738681 
-8.375023842 -16.23985863 -0.2505869865 0.9295117855 
-6.615668774 -16.22626877 -0.2403152436 0.9323015213 
-4.655068398 -13.05016041 -0.1900158674 0.9460806847 
-4.008749962 -13.04517555 -0.187160641 0.9468694925 
-3.553940296 -13.70998001 -0.1942332387 0.9449173212 
-1.037622094 -13.69057083 -0.1882913113 0.9465566278 
-0.4264306426 -13.68583965 -0.1877801418 0.9466980696 
0.1826464832 -13.68114185 -0.1876414418 0.9467363954 
0.7920361161 -13.6764307 -0.1878747493 0.9466720819 
1.404150367 -13.67170906 -0.1884826571 0.9465043545 
2.021464825 -13.66694832 -0.1894686818 0.9462317824 
2.646523476 -13.66211891 -0.1908477694 0.9458515644 
3.282011747 -13.6572113 -0.192628786 0.9453600645 
4.595883846 -13.64707947 -0.1974858046 0.9440217018 
7.127416611 -12.95922852 -0.2028324902 0.9425510168 
8.481762886 -13.91728497 -0.2235130221 0.9368810654 
9.350834846 -13.91055679 -0.2298672497 0.9351469874 
10.27261162 -13.90345669 -0.237072289 0.9331833124 
11.45916748 -12.92580986 -0.2368995547 0.9332312346 
17.86374283 -16.85913086 -0.3368611038 0.9064118862 
17.85254669 -15.4062252 -0.3233942986 0.909979701 
17.92259216 -12.87590313 -0.302646786 0.9155032635 
21.72664452 -12.84655285 -0.3461508155 0.9039589167 
24.73318291 -13.17603016 -0.384324491 0.8939493895 
34.28913498 -12.74962902 -0.5017008781 0.8638598323 
63.89726257 -20.57293892 -0.9205944538 0.764498353 
67.8123703 -18.5480423 -0.9641544223 0.7548475266 
68.9417572 -15.59719181 -0.9693693519 0.7536984682 
107.3626938 -14.41813946 -1.485603094 0.6483356357 
72.55223083 -3.230597973 -0.995967567 0.7478716969 
85.69936371 11.50885582 -1.18584919 0.707578063 
70.36782837 12.65893936 -0.9805369377 0.7512502074 
76.39767456 17.28395081 -1.073716998 0.7309991121 
56.19557571 15.37059498 -0.7989856005 0.7921053171 
55.96688843 18.01982689 -0.8063369393 0.7904069424 
62.21458817 26.33967781 -0.9265388846 0.7631750703 
33.15995407 17.66515541 -0.5152636766 0.8604486585 
31.88174438 18.85102654 -0.5079417229 0.8622882962 
28.95342255 18.90658569 -0.474232465 0.8708094954 
69.8832016 50.20521545 -1.180075765 0.7087703943 
49.14773941 38.73606491 -0.8582009673 0.7785400748 
48.78972626 55.03409958 -1.008636951 0.7451152205 
46.67075729 57.61600113 -1.016864657 0.7433297634 
10.18222141 16.70744133 -0.2683250308 0.9247146249 
17.24066544 34.94447327 -0.5343850851 0.8556627035 
5.180971622 89.46157837 -1.22894609 0.6987378597 
1.194008708 89.43286896 -1.226600289 0.6992149949 
-2.237460852 71.80836487 -0.9852693081 0.7502116561 
-2.361630917 31.15961266 -0.4285566509 0.8824901581 
-2.422290087 9.344262123 -0.1323851049 0.9621199965 
-3.774745941 9.258310318 -0.1371173114 0.9607925415 
-11.47795868 22.25668335 -0.3434320092 0.904676795 
-11.23180676 19.58795357 -0.3096612394 0.9136322141 
-11.79098129 18.59416962 -0.3019526601 0.9156891704 
-11.14801693 15.96292973 -0.2670182884 0.9250674844 
-11.78792 15.37410641 -0.2656843364 0.9254271984 
-12.10002422 14.40578079 -0.2580076456 0.9275023341 
-12.0255518 11.97216797 -0.2327149957 0.9343703985 
-12.07363701 10.99501896 -0.2239475995 0.9367625713 
-13.72443771 9.494131088 -0.2288661152 0.9354202151 
-20.85289001 11.83402348 -0.3288194239 0.9085401297 
-21.45370483 10.94315434 -0.3302856386 0.9081524611 
-21.44457054 9.761919022 -0.3231300414 0.9100492001 
-101.9980316 25.95654297 -1.443408728 0.6563668847 
-14.96514606 1.067290068 -0.2057542354 0.9417473078 
-15.06610775 0.40234375 -0.206690371 0.9414899349 
-15.16815376 -0.2699999809 -0.2080485523 0.9411168694 
-44.79951096 -4.802636623 -0.61790663 0.8350682855 
-70.44598389 -17.26132774 -0.9946766496 0.7481536269 
-49.67623901 -22.08200073 -0.745542109 0.8045495152 
-49.46274185 -33.56988144 -0.8198107481 0.7873066068 
-49.48127747 -36.90081787 -0.8465198874 0.7811983824 
-49.40904999 -40.3882103 -0.8751769662 0.7746938467 
-47.27350616 -46.23312378 -0.9068232775 0.76757586 
-10.51245594 -16.25636673 -0.2654948235 0.925478518 
-9.510097504 -16.24862671 -0.2581994534 0.9274508357 
-4.786801815 -13.05117607 -0.1906449795 0.9459074736 
-3.036777258 -13.70599079 -0.1925251782 0.9453889728 
-2.40191412 -13.70108414 -0.190764457 0.9458745122 
-1.777329087 -13.69626427 -0.1894073486 0.9462489486 
-0.5484423637 -13.68678188 -0.1878540069 0.9466780424 
0.6699999571 -13.67738247 -0.1877973825 0.9466931224 
1.897499919 -13.66790009 -0.1892420948 0.9462947845 
3.79984355 -13.65322685 -0.1943594366 0.944883287 
5.142035961 -13.64286137 -0.1999464333 0.9433439374 
6.575405121 -13.63180161 -0.2075590491 0.9412515163 
9.173027039 -13.91192818 -0.2285316437 0.9355114102 
10.08359814 -13.90490723 -0.2355583161 0.9335958362 
10.91069794 -13.71736336 -0.2403744459 0.9322855473 
11.25664043 -12.92737293 -0.2350767404 0.9337260127 
17.8785038 -18.77582932 -0.355556637 0.9014822245 
17.84420395 -14.32324219 -0.3138029277 0.9125291109 
20.76181412 -13.82250977 -0.3420596123 0.9050380588 
30.26804924 -13.13332939 -0.4524908364 0.8763492703 
33.39467239 -12.75653267 -0.4902554154 0.8667486906 
63.12979507 -20.94782257 -0.9121887088 0.7663754225 
68.94675446 -16.24476433 -0.9714310765 0.7532446384 
101.7906113 -14.5933733 -1.410238624 0.6627454758 
110.4110489 3.932385206 -1.515160441 0.6427716017 
91.39601135 11.44698238 -1.263208866 0.6917885542 
78.38253021 17.00137329 -1.099949718 0.7255314589 
85.44573975 35.28144455 -1.267786503 0.690867126 
68.09525299 48.00756073 -1.142620802 0.716556251 
28.14543915 21.77964973 -0.4880598485 0.8673036695 
49.20383835 54.51633835 -1.007121921 0.7454426289 
48.77082825 59.12519836 -1.051117063 0.7359398007 
26.57691193 35.30878448 -0.6060729623 0.8379560709 
10.38627434 16.7059536 -0.2697766125 0.924323678 
9.38613224 16.71214867 -0.2628671229 0.9261885285 
18.0758934 40.18136597 -0.6042437553 0.8384029865 
17.41362572 50.22563553 -0.7290249467 0.808435142 
10.39892769 34.94421387 -0.4999983013 0.8642886877 
9.170150757 36.71735764 -0.5190069675 0.8595082164 
7.155742168 35.25603104 -0.4933646917 0.8659630418 
8.874028206 56.51594162 -0.784563601 0.7954437733 
-2.278305531 20.39494514 -0.281439513 0.9211844802 
-2.230390549 14.20469666 -0.1971920729 0.9441027045 
-2.1328125 10.50827599 -0.1470495611 0.9580127597 
-4.163574219 9.255311966 -0.1391808987 0.9602144361 
-11.22926235 22.25860214 -0.3419059813 0.9050796628 
-12.15602016 21.64400291 -0.3404403627 0.9054661393 
-11.5613184 18.59594727 -0.3002938628 0.9161311388 
-11.46787071 12.70594215 -0.2347297668 0.933821559 
-12.07518482 11.19457531 -0.2258125246 0.9362524748 
-13.72584915 9.676796913 -0.2303167731 0.9350246191 
-14.49534607 9.282465935 -0.2360601723 0.9334596395 
-21.44636154 9.994135857 -0.3244866729 0.9096896648 
-81.88226318 17.76047897 -1.14905715 0.7152117491 
-15.04584885 0.535800755 -0.2064694166 0.9415505528 
-15.14764595 -0.1348437518 -0.2077436745 0.9412008524 
-44.22307587 -4.343242168 -0.6093987823 0.8371432424 
-71.77387238 -16.91084862 -1.011265874 0.7445431352 
-50.00651169 -16.59326172 -0.7225616574 0.8099600077 
-21.31521416 -8.142270088 -0.3129200637 0.9127636552 
-49.73334885 -24.26260757 -0.7588839531 0.8014240265 
-49.3624115 -32.8638382 -0.8132731915 0.7888108492 
-49.60045624 -36.30751038 -0.8429933786 0.7820010185 
-49.247509 -39.53043747 -0.8660526276 0.7767588496 
-48.47899246 -42.59469604 -0.8850223422 0.7724742293 
-9.706205368 -16.25014687 -0.2595832646 0.9270757437 
-8.74591732 -16.24272919 -0.2529920936 0.9288595915 
-6.956098557 -16.22889137 -0.2421473712 0.9318028688 
-4.91942358 -13.05221176 -0.1912916452 0.9457289577 
-4.264980316 -13.04715347 -0.1882478297 0.9465690255 
-3.816210747 -13.7120018 -0.1951942444 0.9446526766 
-3.165185452 -13.70698738 -0.1929261684 0.9452781677 
-2.52793932 -13.70206547 -0.1910832226 0.9457864761 
-0.6704980135 -13.68772411 -0.187941134 0.9466539025 
-0.06087402254 -13.6830225 -0.187652424 0.9467333555 
0.5481005907 -13.67831516 -0.1877348274 0.9467101097 
1.77376461 -13.66885757 -0.1890289336 0.9463535547 
3.026396513 -13.65917969 -0.1918661445 0.9455703497 
3.669492006 -13.65422344 -0.1939007491 0.9450096488 
4.327675819 -13.64915466 -0.1963696182 0.9443290234 
5.702641487 -13.63854504 -0.2027305514 0.9425780177 
6.427006721 -13.63295364 -0.2066967785 0.9414881468 
8.997348785 -13.91328621 -0.2272291481 0.9358667135 
9.897055626 -13.90635681 -0.2340821773 0.9339979887 
17.84624481 -14.58796883 -0.3161088526 0.9119152427 
21.43787956 -13.19630814 -0.3452352881 0.9041996598 
26.38347816 -13.16329575 -0.4043629467 0.8887398243 
29.55736542 -13.13881302 -0.4435946643 0.8786256909 
68.95176697 -16.89486694 -0.9735947847 0.7527723312 
61.65440369 -12.22808552 -0.8617789745 0.7776762843 
95.31773376 -14.53202629 -1.32230866 0.6799657345 
85.55126953 13.82328129 -1.1884799 0.7070343494 
70.3302536 14.60058689 -0.9850664139 0.7502518892 
56.0816803 14.27167606 -0.7936184406 0.7933440804 
85.46496582 30.05788803 -1.242452264 0.695989728 
85.30177307 34.33649063 -1.261051059 0.6922228932 
31.87778091 18.09082413 -0.5026704073 0.8636157513 
69.41123199 52.73152542 -1.195446014 0.7055969834 
49.0123558 40.79702377 -0.8745493889 0.7748360038 
48.79077911 58.08820343 -1.040353775 0.7382523417 
27.08455467 35.32439804 -0.6104496717 0.8368856907 
63.97798538 91.61071777 -1.532407641 0.6395440102 
9.567797661 16.68597221 -0.2637829483 0.9259406924 
17.38217735 33.70546722 -0.5200927854 0.8592386246 
17.26304626 37.4792099 -0.5659005642 0.8478336334 
10.7441988 34.9634819 -0.5016230941 0.8638794422 
9.060722351 34.95338821 -0.4952023327 0.8654996753 
