# .PCD v0.7 - Point Cloud Data file format
VERSION 0.7
FIELDS x y z intensities
SIZE 4 4 4 4
TYPE F F F F
COUNT 1 1 1 1
WIDTH 935
HEIGHT 1
VIEWPOINT 0 0 0 1 0 0 0
POINTS 935
DATA ascii
109.7754288 36.42581558 6.881173611 0.6291016936 
109.6744766 41.89538574 6.984872341 0.6247231364 
78.39447021 34.01537704 5.08414793 0.7100437284 
69.38269043 33.8489151 4.59291029 0.7339293361 
64.73643494 39.05916977 4.498190403 0.7386264801 
64.58492279 47.2761116 4.761860847 0.7256247997 
64.41309357 56.59469604 5.101269245 0.7092254758 
38.44696808 89.69851685 5.806093693 0.6763435602 
28.04381752 100.7657471 6.22283411 0.6576244235 
16.98373413 92.05603027 5.569316864 0.6872201562 
8.445361137 90.11447144 5.384796143 0.6958107352 
5.139150143 104.9011078 6.248509884 0.6564881802 
-22.26409149 100.4832535 6.123167515 0.6620535254 
-5.88443327 21.89603043 1.348913193 0.9131526947 
-4.043627739 12.75308609 0.7959619164 0.947801888 
-4.864682674 9.230400085 0.6207556129 0.9590527415 
-5.396679401 9.220576286 0.6356240511 0.9580927491 
-12.74546814 14.90295887 1.166671395 0.9244299531 
-16.82383728 10.35605907 1.1753546 0.9238895774 
-16.72951126 9.298119545 1.13870728 0.9261727333 
-73.19914246 36.52059937 4.866863728 0.7205114365 
-57.94705963 25.7583046 3.772783756 0.7756103277 
-54.11184311 18.49147987 3.402131796 0.7952163815 
-59.84994888 9.124633789 3.601874828 0.7845897675 
-14.92091751 0.9307177663 0.8894335628 0.9418536425 
-102.2899094 -21.23543358 6.215416908 0.6579524875 
-64.92766571 -19.63640022 4.035564899 0.7620005012 
-61.5880928 -21.66075706 3.884155273 0.7698140144 
-59.70207977 -24.03190804 3.828896284 0.7726843357 
-56.32643509 -25.64102936 3.681982994 0.7803678513 
-56.21060562 -31.89993668 3.845216513 0.7718358636 
-56.01342773 -42.55294418 4.185054302 0.7543695569 
-55.93916702 -46.56281662 4.330141068 0.7470339537 
-55.31459045 -60.20138168 4.863972664 0.7206519246 
-55.68805695 -66.29985046 5.151277542 0.7068411112 
-44.87915039 -58.53317642 4.388190746 0.7441188693 
-11.42321301 -16.35703087 1.186970472 0.9231670499 
-9.401005745 -14.82540989 1.044412255 0.9320736527 
-8.406611443 -16.3012886 1.091202974 0.9291408658 
-6.032041073 -13.09597588 0.8578124642 0.9438617826 
-5.334082127 -13.08308601 0.8405761719 0.9449581504 
-4.662431717 -13.07069302 0.8256237507 0.9459102154 
-4.012890339 -13.05868149 0.8127725124 0.946729362 
-3.382138491 -13.04704094 0.8018810749 0.9474240541 
-2.164033175 -13.02453136 0.7855093479 0.9484694004 
-0.9855468273 -13.00276375 0.775809586 0.9490892291 
1.331113219 -12.95995617 0.77510041 0.9491345882 
4.345732212 -12.90427685 0.8100970387 0.9468999505 
4.990688324 -12.89235783 0.8224841356 0.946110189 
5.656874657 -12.88005829 0.8369402885 0.9451895952 
6.348437309 -12.86727524 0.8536349535 0.9441275001 
7.067900181 -12.85110855 0.8725726008 0.9429238439 
7.823495865 -12.83714294 0.894395709 0.9415390491 
8.619311333 -12.82244587 0.9191985726 0.9399675131 
16.66703033 -20.57597542 1.575377464 0.8993301988 
16.63342285 -18.76228905 1.491749525 0.9044100046 
16.60315704 -17.1283989 1.419218421 0.9088388085 
16.54904938 -14.2812252 1.300497413 0.9161351323 
17.62091827 -12.65904236 1.290833354 0.9167317152 
23.55694771 -12.54940891 1.587972045 0.8985675573 
29.38746071 -12.44172382 1.898622036 0.8799620867 
61.97881699 -19.95553589 3.873804808 0.7703507543 
64.88671875 -14.68006802 3.957949162 0.7659969926 
103.5481415 -13.90629387 6.215842247 0.6579344273 
61.52191162 8.262248039 3.693063974 0.7797858119 
70.93372345 16.04813004 4.326813221 0.7472016215 
109.8328857 35.36325073 6.864768505 0.6297966838 
109.694931 40.78750992 6.962761879 0.6256540418 
71.04418182 33.87960434 4.682739735 0.7295023799 
64.85086823 34.54772949 4.371593475 0.7449514866 
64.75070953 38.28540039 4.475309849 0.7397654653 
64.81574249 42.32471085 4.605504036 0.7333065271 
64.60089111 46.40991974 4.732385159 0.7270672917 
33.35000992 99.02986145 6.216842651 0.657889843 
24.45575714 101.7659683 6.226876259 0.65744555 
15.33925247 103.7070694 6.237112522 0.6569923759 
6.07125473 104.833786 6.247470379 0.6565341949 
-4.037841797 11.31967735 0.7150213718 0.9529830217 
-4.010546684 9.836791992 0.6320043802 0.9583263397 
-4.278295994 9.288471222 0.6084133983 0.9598502517 
-4.761132717 9.23231411 0.6180084348 0.9592301846 
-5.288251877 9.222578049 0.6324926615 0.9582948089 
-5.841796875 9.212353706 0.6489892602 0.9572306275 
-12.75057602 15.18030739 1.179457068 0.9236343503 
-12.7039156 12.64753914 1.066521883 0.9306874871 
-12.66511726 10.54222679 0.9803832769 0.9361019135 
-16.74748039 9.504296303 1.145645976 0.9257400036 
-57.65081024 26.24393082 3.768563032 0.7758308053 
-50.90927505 20.49247551 3.264984608 0.802595973 
-29.01336861 10.20409203 1.829775691 0.8840519786 
-57.92601395 17.51877403 3.600429535 0.7846662402 
-60.41292953 15.37357903 3.70877552 0.7789610028 
-71.51863098 14.84727001 4.345674515 0.7462528944 
-17.14569283 1.992592692 1.026936054 0.9331713319 
-14.99564457 0.4004638493 0.8924746513 0.941660881 
-15.09028244 -0.2686718702 0.8979290724 0.9413149953 
-15.34332943 -0.9570751786 0.9146139026 0.9402576685 
-102.4030762 -20.3103466 6.211073875 0.6581453085 
-67.22029114 -19.67877388 4.167097569 0.7552838326 
-61.09082794 -23.96153831 3.904132605 0.7687787414 
-56.45539856 -28.16687012 3.753605843 0.7766125202 
-56.22266388 -31.24871445 3.826874256 0.7727901936 
-55.95440292 -45.73892975 4.299649715 0.7485697269 
-51.29391479 -45.88296127 4.094447136 0.7589873075 
-49.19202042 -48.10989761 4.093630314 0.75902915 
-54.37460709 -58.13066864 4.735602379 0.7269095182 
-53.16823196 -62.1682663 4.866822243 0.720513463 
-45.64170837 -58.44238663 4.411684513 0.7429423928 
-10.56742191 -16.34122086 1.157779217 0.9249837399 
-8.593061447 -16.30473137 1.096511841 0.9288086295 
-6.175117016 -13.09862804 0.8615502715 0.9436241388 
-5.471523285 -13.08563423 0.8438369632 0.944750607 
-4.794843674 -13.07312965 0.8284414411 0.9457308054 
-2.88868165 -13.03790951 0.7944936752 0.9478957057 
-2.283691406 -13.02673817 0.7868359089 0.9483846426 
-1.102167964 -13.00491142 0.7764925957 0.9490455985 
0.0577685535 -12.98348618 0.7724499106 0.949303925 
0.6355370879 -12.97281265 0.772734642 0.9492858052 
2.387426615 -12.94044876 0.7828756571 0.9486376047 
2.985693216 -12.929389 0.789468646 0.9482164979 
4.219052792 -12.90661621 0.8078561425 0.947042942 
4.860029221 -12.89477539 0.8198458552 0.9462783933 
6.207958698 -12.86987305 0.8501083255 0.9443516731 
7.66940403 -12.83999443 0.8898043633 0.9418302774 
16.63986015 -19.10938835 1.5075109 0.9034501314 
16.60897446 -17.44256401 1.432936668 0.9079994559 
16.58096123 -15.92978001 1.367962003 0.9119817019 
16.55393028 -14.5446434 1.311005831 0.9154868126 
18.97664833 -12.63400364 1.356326222 0.9126966596 
20.88118362 -12.59882259 1.450922251 0.9069002271 
23.07645988 -12.55828094 1.563050866 0.9000769854 
25.64440346 -12.510849 1.697574735 0.8919585943 
28.70327377 -12.45436001 1.861501455 0.8821647167 
32.42419434 -12.38562965 2.065000772 0.8701562285 
61.99016953 -20.56966209 3.885797024 0.7697287202 
97.98175812 -14.04731369 5.888948441 0.6725798249 
71.14828491 15.43193722 4.331346512 0.7469735742 
65.19494629 33.98989105 4.374219894 0.7448192239 
64.69274139 41.42808533 4.570401669 0.7350427508 
64.53580475 49.939888 4.854846478 0.7210948467 
25.35611725 101.5279465 6.225862503 0.6574901342 
16.25870514 103.5495071 6.236082077 0.6570376158 
11.64642525 104.2565079 6.241244793 0.6568089724 
7.002553463 104.7582169 6.246432304 0.6565800905 
-4.015488148 10.10517025 0.6469271779 0.9573636651 
-12.78380871 16.98394966 1.264698744 0.9183467031 
-13.0392189 15.80741692 1.219118953 0.9211702943 
-12.73077106 14.10530281 1.1304425 0.9266885519 
-12.70817852 12.87891579 1.076443791 0.9300649762 
-12.66872025 10.73747063 0.9880154133 0.9356206656 
-13.03034115 9.186459541 0.9485210776 0.9381129146 
-16.76587296 9.712953568 1.152771831 0.9252958894 
-71.50379944 37.27825546 4.797492027 0.723885715 
-50.47330856 20.84067917 3.248784065 0.8034719825 
-51.42198944 18.60098076 3.253321409 0.8032267094 
-54.76398468 17.09576607 3.413213968 0.7946231961 
-90.0110321 23.76114655 5.538594723 0.6886402369 
-59.40061569 10.14125443 3.585137367 0.7854750752 
-14.97689915 0.5333495736 0.8916030526 0.9417159557 
-15.0712204 -0.1340966821 0.8966885209 0.9413936734 
-104.1004333 -24.5274353 6.362961769 0.6514464617 
-69.66762543 -19.72399902 4.307739735 0.7481620312 
-61.73038101 -23.58086395 3.931448221 0.7673660517 
-56.20058441 -24.38549232 3.6448071 0.7823246717 
-56.40855408 -30.69771957 3.820751905 0.7731081843 
-56.0263176 -33.80389023 3.892973661 0.7693570256 
-55.96946335 -44.92570877 4.269896984 0.7500715256 
-54.20056534 -56.92089081 4.676143646 0.7298260927 
-11.86767578 -16.36523819 1.202702045 0.9221894145 
-10.77736759 -16.34509659 1.164803386 0.924546361 
-9.040951729 -15.13652802 1.048946261 0.9317890406 
-8.781157494 -16.308218 1.101956487 0.9284681082 
-6.319443226 -13.10129356 0.8653908968 0.943380177 
-4.928164005 -13.07559586 0.8313430548 0.945546031 
-4.270297527 -13.063447 0.8176720738 0.9464170337 
-3.632353544 -13.05165005 0.8060113192 0.9471606612 
-3.011264563 -13.04018021 0.7962322831 0.947784543 
-2.403740168 -13.02895451 0.7882296443 0.9482955933 
-1.218994141 -13.00706482 0.7772366405 0.9489979148 
-0.6366894245 -12.9963131 0.7741345167 0.9491963387 
-0.05776366964 -12.98561478 0.7725768685 0.9492958188 
1.09872067 -12.96425724 0.7740631104 0.9492007494 
3.472290039 -12.92039967 0.7959661484 0.9478016496 
5.387656212 -12.88502407 0.8309008479 0.9455741048 
6.06849575 -12.8724556 0.8466750979 0.9445700645 
9.119010925 -12.81321239 0.9356603622 0.9389258623 
9.996337891 -12.79990673 0.9662359357 0.936994195 
16.61490631 -17.76259232 1.44702661 0.9071382284 
16.58636475 -16.22149849 1.380271912 0.9112258554 
16.55887985 -14.81211376 1.321785212 0.9148225784 
16.990448 -12.6706934 1.260972261 0.9185771942 
18.62503433 -12.64050293 1.339182973 0.9137512445 
28.04528427 -12.4665041 1.825951457 0.8842795491 
31.61574173 -12.4005661 2.020471096 0.8727701902 
62.00159836 -21.18764687 3.898180485 0.7690871954 
64.00188446 -15.6820116 3.920379639 0.7679377794 
92.80840302 -14.1494236 5.585373402 0.6864737868 
102.8139038 16.61302757 6.196171761 0.6588058472 
74.56744385 33.94468307 4.874375343 0.7201469541 
66.24607086 33.79097366 4.424379826 0.7423073649 
64.63223267 44.71063995 4.67565012 0.7298506498 
26.50028229 22.05835724 2.05123353 0.8709577322 
10.02023697 21.75459671 1.424971223 0.9084869027 
30.70908546 99.93292999 6.219826698 0.6577574015 
12.57142544 104.131485 6.240210533 0.6568548083 
3.271996975 105.0108948 6.250589848 0.6563963294 
-1.201879859 89.99625397 5.354737282 0.6972203851 
-24.07827568 100.1952591 6.13075304 0.6617151499 
-3.817641497 13.25909138 0.8208877444 0.9462120533 
-4.293271542 12.7484808 0.8003176451 0.9475239515 
-4.060483456 9.245258331 0.6007503867 0.9603456855 
-4.579985142 9.282899857 0.6158407331 0.9593701959 
-62.91391373 93.59331512 6.709385395 0.6364230514 
-12.78981876 17.31034088 1.280479431 0.9173712134 
-12.80784607 15.81169415 1.210605145 0.9216987491 
-9.008764267 10.16177177 0.8079394102 0.9470375776 
-12.71251965 13.11466789 1.086653709 0.929425776 
-56.92365265 53.7223587 4.656693459 0.7307829857 
-12.67236805 10.93577099 0.9958502054 0.9351271987 
-12.65463829 9.973828316 0.9586114287 0.9374756217 
-16.88624954 11.02671337 1.199860215 0.9223659635 
-51.37446213 19.10237694 3.26093936 0.8028147221 
-60.4973526 16.54716301 3.731459856 0.7777721286 
-29.08412933 6.580034256 1.774070144 0.8873749971 
-60.45808411 10.87626457 3.654662371 0.7818058133 
-60.37385559 8.108090401 3.624156475 0.7834137082 
-14.95820236 0.6659911871 0.8908089995 0.9417664409 
-15.11748981 -0.6731591821 0.7615326047 0.941193521 
-102.853775 -23.2694664 5.306868076 0.6555069089 
-71.70362091 -19.61250496 3.7409935 0.7425045967 
-61.62240982 -19.84063911 3.257897854 0.7716080546 
-61.74258804 -22.95769882 3.315006018 0.7681087255 
-56.42106247 -30.05687904 3.217129469 0.774115324 
-56.05637741 -40.27178192 3.473535776 0.7584789395 
-50.21006775 -47.38645935 3.474398136 0.7584263086 
-53.37285995 -60.20397949 4.048909664 0.7245303392 
-44.18286896 -59.79940796 3.741679668 0.7424638867 
-10.98994637 -16.34901237 0.9913644195 0.9241345525 
-8.97121048 -16.31170845 0.9368392825 0.9281535149 
-8.039297104 -16.294487 0.9143838286 0.929813683 
-4.400141716 -13.06582451 0.6938143969 0.946279645 
-3.758535147 -13.05397415 0.6836221218 0.9470475912 
-3.134272337 -13.04244137 0.675039947 0.9476946592 
0.9827538729 -12.9663868 0.6543985009 0.9492527843 
1.564106464 -12.95565414 0.6567208767 0.9490773678 
2.150761604 -12.94481373 0.6603710651 0.9488016367 
3.349873066 -12.92266083 0.6718206406 0.9479374886 
3.96762681 -12.91124439 0.6797378659 0.9473403692 
5.254384518 -12.88747978 0.7003878355 0.9457847476 
5.930243969 -12.87498951 0.71335572 0.9448093772 
6.631552696 -12.85914993 0.7281179428 0.9437000155 
7.365693092 -12.84558105 0.7451803684 0.9424192905 
8.136626244 -12.8313427 0.7646136284 0.940962851 
9.816699028 -12.8032074 0.811907351 0.9374276996 
16.61929703 -18.08731842 1.236132503 0.9063069224 
16.59020996 -16.51655769 1.178099632 0.9105023146 
16.56368637 -15.08393002 1.127403855 0.9141833186 
16.53931046 -13.76702595 1.082945585 0.9174234867 
16.6860218 -12.67629337 1.054548621 0.9194992781 
20.08834839 -12.61345196 1.193699956 0.9093726873 
27.41143799 -12.47818851 1.515669227 0.8863668442 
30.8419323 -12.41483879 1.673128963 0.8753287792 
62.01243973 -21.8097744 3.308123589 0.7685294747 
87.91606903 -14.20541477 4.481714249 0.6999991536 
102.7705383 15.66838837 5.231633186 0.6594437957 
71.88355255 14.25694466 3.687964439 0.7456448078 
109.8163223 37.52756882 5.840226173 0.6282649636 
64.79190063 36.0110817 3.730391741 0.7431312799 
52.88140869 67.7127533 4.323654175 0.7088604569 
25.32467651 114.2988434 5.8913908 0.6257053614 
-3.826826096 13.75024891 0.718272686 0.9444395304 
-4.168095589 12.75079536 0.675090611 0.9476908445 
-3.931274414 10.43048763 0.5609551668 0.9563384056 
-4.478583813 9.284785271 0.5187689066 0.959554553 
-5.506239891 9.218559265 0.5403741598 0.9579060674 
-12.85131836 19.49042892 1.174870253 0.9107362032 
-12.79621029 17.64547348 1.096918941 0.9164039493 
-12.74067402 14.63161087 0.9763595462 0.9252389669 
-12.71714783 13.35535622 0.928062439 0.928802073 
-13.10017586 12.58576107 0.9142113924 0.9298264384 
-12.65825176 10.16059017 0.8168520927 0.9370589852 
-15.72902298 9.490156174 0.924472034 0.9290674925 
-16.7541256 9.117666245 0.9599084258 0.9264509678 
-22.02828979 9.558080673 1.208418846 0.9083080292 
-53.51737976 17.75816917 2.837632656 0.7978518605 
-71.82203674 13.58160591 3.678458214 0.7462089658 
-14.81753826 1.455224633 0.7492718101 0.9421124458 
-15.00341797 0.1335204989 0.7550692558 0.9416778684 
-102.8836975 -22.31566811 5.297969818 0.6559720635 
-63.06253815 -22.81175232 3.374837637 0.7644597292 
-57.43651199 -23.71616554 3.127177715 0.7796770334 
-56.25879669 -29.3306675 3.192877769 0.7756115794 
-60.30493164 -38.61793518 3.603742599 0.7506591678 
-55.92441177 -47.3993187 3.689244986 0.7455688715 
-50.75858307 -47.05712128 3.483243227 0.7578930259 
-54.64893341 -55.38339233 3.915568113 0.7322602868 
-54.74335861 -66.36559296 4.329431057 0.7085341215 
-11.20518017 -16.35298729 0.9976156354 0.9236751199 
-9.247094154 -14.87362289 0.8813717365 0.9322596788 
-9.163217545 -16.31523895 0.9416878819 0.9277953506 
-8.222119331 -16.2978611 0.9186434746 0.9294985533 
-5.197812557 -13.08057117 0.7083410621 0.9451864362 
-0.2890527248 -12.98988247 0.6538720727 0.9492926598 
0.2888281047 -12.97920895 0.6533318758 0.9493332505 
1.44748044 -12.95780754 0.6561495662 0.9491204023 
3.227983236 -12.92490673 0.6704162359 0.9480433464 
5.122070312 -12.88992119 0.6980160475 0.9459633231 
5.793056488 -12.87751961 0.7106106281 0.9450157285 
6.490107059 -12.86465263 0.7251281738 0.943924427 
7.216103554 -12.84835434 0.7415859699 0.9426888824 
16.65831947 -20.19493675 1.317439795 0.9004612565 
16.62546158 -18.42042923 1.248734713 0.9053983092 
16.59580612 -16.81885719 1.189078689 0.9097070694 
16.5688076 -15.36053658 1.137012005 0.9134845138 
16.54403305 -14.0220747 1.091385722 0.9168076515 
17.94731903 -12.65300274 1.105080485 0.9158086777 
21.72044563 -12.58330536 1.263252854 0.9043529034 
24.05324364 -12.54022884 1.365096092 0.8970524073 
30.09982872 -12.42854023 1.638808846 0.8777230382 
61.9668541 -19.34454536 3.266862631 0.7710569501 
67.42160797 -17.79789543 3.509181976 0.7563298345 
114.3753128 16.39742088 5.814734936 0.6295412779 
109.8357391 36.4458046 5.823787212 0.629087925 
64.73567963 39.05846405 3.804837465 0.7387418151 
64.5841217 47.27529144 4.027860641 0.7257449031 
64.6676712 51.90780258 4.173096657 0.7174053192 
53.86758041 67.72429657 4.354823112 0.7071037889 
26.01844597 112.6728897 5.819427967 0.6293062568 
16.98290062 92.05040741 4.710476398 0.6873651743 
8.445586205 90.11453247 4.554838181 0.6959372163 
-22.15132332 99.97646332 5.15326786 0.6635689139 
-4.04358387 12.75309563 0.6732812524 0.9478273988 
-3.970546722 10.82561493 0.5802807212 0.9548686147 
-3.909941435 9.351035118 0.5100662112 0.9602193236 
-4.378036976 9.286635399 0.5166760087 0.9597144723 
-4.889306545 9.277196884 0.5277404785 0.9588697553 
-5.396704197 9.220581055 0.5376559496 0.9581132531 
-12.83685017 19.85067749 1.189656019 0.9096654654 
-12.80254364 17.98892593 1.11113894 0.9153671861 
-12.77243137 16.3546524 1.044291973 0.9202502966 
-12.87323189 12.58996582 0.9061574936 0.9304226041 
-12.68003845 11.34246063 0.8561593294 0.934132278 
-12.64477539 9.429872513 0.7938088775 0.9387791157 
-13.52222633 9.177382469 0.8224239945 0.9366436005 
-16.41596222 9.123925209 0.945151031 0.927539885 
-22.05495644 11.00366688 1.240376592 0.9060009122 
-22.03263664 9.793896675 1.213393211 0.9079486132 
-51.77956772 20.30929184 2.799045563 0.8003054857 
-53.33536911 18.22624397 2.836472988 0.7979257107 
-69.66327667 17.06932068 3.609470844 0.7503172755 
-60.38886642 9.20690918 3.074155092 0.7829738855 
-14.89893055 1.597211838 0.7540774345 0.941752255 
-15.51033211 -1.106181622 0.7825329304 0.939621985 
-108.111084 -17.46854973 5.511194229 0.6449338794 
-64.92729187 -19.63635254 3.41361022 0.7621055841 
-63.07416916 -22.18320847 3.364766836 0.7650730014 
-56.44075012 -28.78964233 3.188525438 0.7758795619 
-56.03977585 -38.76663589 3.429201603 0.7611595988 
-56.18741226 -42.68538666 3.551019907 0.7538158298 
-54.59363174 -59.4161644 4.060639381 0.7238542438 
-55.61322021 -66.21079254 4.351453304 0.7072936893 
-45.31461716 -59.10058975 3.747839212 0.742100358 
-10.35984325 -16.33736801 0.9735372663 0.9254468083 
-9.357240677 -16.31882858 0.946664691 0.9274280071 
-8.406664848 -16.30127335 0.9230181575 0.9291750789 
-6.032011509 -13.0959816 0.7255977988 0.9438891411 
-5.334111214 -13.08309078 0.7110192776 0.9449849129 
-4.662402153 -13.07067394 0.6983706355 0.9459367394 
-4.012924671 -13.05867672 0.6875008941 0.9467553496 
-2.766757727 -13.0356493 0.6706243753 0.9480276704 
-2.163994074 -13.02451611 0.6644372344 0.9484946728 
-0.9855028987 -13.00274849 0.6562328935 0.9491141438 
0.7511718869 -12.97066402 0.6538342237 0.9492952824 
1.331054688 -12.95995617 0.6556329131 0.9491594434 
1.915312409 -12.94915485 0.6587487459 0.9489241838 
3.718779325 -12.91584396 0.6763885617 0.9475929737 
4.345751762 -12.90425777 0.6852355599 0.9469259381 
4.990653992 -12.89234829 0.6957144141 0.9461365938 
7.067919731 -12.85108376 0.7380828857 0.9429517388 
9.462382317 -12.80685997 0.8013339043 0.9382171035 
16.66674805 -20.5755024 1.332535982 0.8993800282 
16.63175774 -18.76040459 1.261698008 0.9044647217 
16.601511 -17.12683105 1.200361252 0.9088906646 
16.54883003 -14.28115654 1.100042343 0.9161761999 
17.62078285 -12.65902805 1.09187007 0.9167721868 
19.33744621 -12.6273241 1.16225338 0.9116514921 
21.29480743 -12.5911665 1.244963408 0.9056699872 
23.55695915 -12.54938984 1.343216181 0.8986157775 
26.21255302 -12.50033665 1.461454153 0.8901997805 
62.03568268 -23.06667519 3.330737829 0.7671473622 
61.97814178 -19.95516586 3.276693106 0.7704539895 
103.5470657 -13.90581036 5.257730484 0.6580756307 
115.0158768 15.44598579 5.840075493 0.6282726526 
72.83752441 13.10332012 3.724350452 0.743488729 
111.1605225 41.33272934 5.968292236 0.6218943 
64.74994659 38.28523254 3.785489321 0.7398795485 
64.60009003 46.40966797 4.002947807 0.7271858454 
64.51818085 50.8503685 4.134072304 0.7196363211 
54.88728333 67.75961304 4.388338089 0.7052205801 
38.71474075 70.3923111 4.042919159 0.7248782516 
-3.919716597 12.7553854 0.6715331674 0.9479591846 
-4.278290749 9.288481712 0.5146392584 0.9598699808 
-4.785292625 9.279120445 0.5254049301 0.9590478539 
-12.80904293 18.34139633 1.125826716 0.914297998 
-12.77815914 16.66560555 1.056841969 0.9193314314 
-12.72627449 13.85043907 0.9465716481 0.9274348617 
-12.6652832 10.54232407 0.829285562 0.9361322522 
-13.2732563 9.181986809 0.8122195005 0.937404573 
-15.84938431 9.9518013 0.9418066144 0.9277864695 
-16.08797264 9.129980087 0.9309063554 0.9285918474 
-22.05953979 11.2522707 1.246219397 0.905579865 
-59.21038818 17.90723038 3.113026142 0.7805556655 
-69.37811279 17.65537643 3.602690458 0.7507220507 
-70.3073349 14.59579563 3.613612652 0.7500697374 
-15.10652351 1.755610347 0.7653448582 0.940908134 
-14.96588326 0.3996679485 0.7534179688 0.9418016076 
-15.06015587 -0.26812011 0.7580157518 0.9414571524 
-104.3536377 -20.6969471 5.353827477 0.6530616283 
-67.22080994 -19.67874527 3.524807692 0.7553886771 
-61.60003662 -21.05059052 3.276005268 0.7704967856 
-61.09104538 -23.9615078 3.302408934 0.7688795924 
-56.19026184 -24.97763062 3.094536066 0.781704843 
-56.45603561 -28.1671524 3.17510438 0.7767089009 
-57.12930679 -38.77309036 3.474610567 0.7584134936 
-56.02838898 -41.78339386 3.51733017 0.7558398247 
-54.1081543 -57.84601974 3.98608017 0.7281620502 
-9.553349495 -16.32246017 0.9517718554 0.9270512462 
-5.471445084 -13.08562469 0.713773787 0.9447777271 
-2.888740063 -13.03790474 0.6720361114 0.9479211569 
-1.6890136 -13.01574707 0.6605013609 0.9487917423 
-1.102158189 -13.00490189 0.6568105817 0.9490705132 
0.05779296905 -12.98347092 0.6533923149 0.9493287802 
0.6355175376 -12.97280216 0.653631866 0.9493106604 
1.798002839 -12.95132256 0.6580181718 0.9489792585 
2.985654116 -12.92938423 0.6677862406 0.9482418299 
3.595239162 -12.91813946 0.6748049855 0.9477123022 
6.921152115 -12.85380363 0.7346734405 0.9432076812 
7.669316292 -12.83998013 0.7526556253 0.9418587685 
8.456638336 -12.82544422 0.7731100321 0.9403268099 
9.289646149 -12.81006336 0.7963274717 0.9385908246 
16.60731888 -17.44075203 1.211955547 0.9080523849 
16.57932091 -15.92826176 1.157006502 0.9120320678 
16.5537014 -14.54437447 1.10892427 0.9155286551 
16.5300827 -13.26846695 1.066707134 0.9186099172 
25.64463615 -12.51082516 1.435938716 0.8920090795 
32.42374039 -12.38562489 1.746704102 0.8702184558 
61.98950195 -20.56942749 3.286848068 0.7698319554 
65.30817413 -15.38746548 3.376588106 0.7643530965 
39.45431519 10.4151516 2.053533792 0.8492259383 
109.7771683 39.70998764 5.874817848 0.6265382171 
85.64716339 35.36462784 4.663136005 0.6899654269 
65.19490814 33.98946381 3.700013399 0.7449300885 
66.02749634 42.28243256 3.945713997 0.7305049896 
64.5349884 49.93900681 4.106513023 0.721216619 
64.44857025 54.62405014 4.251565933 0.7129383683 
64.40522003 59.70859146 4.419706345 0.7034611106 
25.54594612 102.2864456 5.305512428 0.6555723548 
7.511005878 112.3609924 5.667125225 0.6369799376 
-4.044326305 11.66494083 0.6213140488 0.9517555237 
-4.15823698 9.243461609 0.5100698471 0.9602187872 
-5.180839539 9.224570274 0.5324267745 0.9585121274 
-5.728749752 9.214443207 0.5460253954 0.9574753642 
-64.11598206 93.57118225 5.708314896 0.6348952055 
-12.65141582 9.789984703 0.8050372005 0.9379405379 
-14.30855465 9.162851334 0.8550619483 0.9342139363 
-15.7697258 9.135854721 0.9171609282 0.9296082854 
-22.01968765 9.092153549 1.198878765 0.9089978933 
-14.94718742 0.5323290825 0.7526876926 0.9418565035 
-15.04117107 -0.133872062 0.7569692731 0.9415355325 
-100.6385803 -23.71177101 5.203258991 0.6609345675 
-69.66866302 -19.72397995 3.643842697 0.7482680082 
-27.95635605 -13.63867188 1.565383554 0.8828670382 
-56.40918732 -30.69823647 3.231904268 0.7732055187 
-56.02698135 -33.80414581 3.292989492 0.7694560885 
-59.4155159 -39.55700684 3.592106819 0.7513548136 
-19.93020439 -14.58884239 1.242969632 0.9058137536 
-52.21535873 -45.87732697 3.497886896 0.7570103407 
-55.06984329 -57.83359909 4.018843174 0.7262659073 
-54.40133667 -68.39549255 4.397986889 0.7046793699 
-11.86777306 -16.36522865 1.017330885 0.922226727 
-10.77735806 -16.34507751 0.985270381 0.924582839 
-9.007558823 -15.08046341 0.8839889169 0.9320656657 
-8.781162262 -16.30819702 0.9321123958 0.9285027385 
-6.319511414 -13.10129833 0.7320098877 0.9434076548 
-2.403779268 -13.02894497 0.6667404175 0.9483208656 
-1.807236314 -13.01792908 0.6614031792 0.9487237334 
1.09872067 -12.96423817 0.6547573805 0.9492256641 
1.680947185 -12.95350075 0.6573413014 0.9490302801 
2.268945217 -12.94262695 0.6612637043 0.9487342834 
4.092998028 -12.90893078 0.6815063357 0.947206974 
6.775707722 -12.85648441 0.7313494682 0.9434571266 
7.51675272 -12.84279728 0.7488705516 0.9421426058 
8.29575634 -12.82841301 0.7688089013 0.9406487346 
9.119045258 -12.81319809 0.7914474607 0.9389555454 
16.64474487 -19.46221161 1.288762808 0.90251863 
16.61324883 -17.7608242 1.223873258 0.9071913958 
16.58471489 -16.21973991 1.167410254 0.9112771749 
18.62485886 -12.64048767 1.132765532 0.9137931466 
20.4793129 -12.6062355 1.210216999 0.9081780314 
22.6105175 -12.56686974 1.301800251 0.9015825987 
25.09601974 -12.52096176 1.411404967 0.8937524557 
28.04507828 -12.46649361 1.544508934 0.8843348622 
31.61585045 -12.40053654 1.709057331 0.8728294373 
92.80745697 -14.14946747 4.724448204 0.6866059899 
71.47507477 14.83825207 3.673633337 0.7464954853 
109.796814 38.61563492 5.857222557 0.6274150014 
74.56803894 33.94475174 4.123121262 0.720263958 
64.90554047 44.8995018 3.971715689 0.7289954424 
64.55158234 49.0394783 4.07962513 0.7227612138 
26.499403 22.05763435 1.734882832 0.8710221052 
51.95015335 67.75478363 4.296645641 0.7103857398 
10.01995087 21.75407219 1.20535183 0.9085327983 
26.16974068 100.9537125 5.248352528 0.6585664153 
-3.87019515 16.1046524 0.833532095 0.9358159304 
-3.817792892 13.25971127 0.6943954229 0.9462358952 
-4.293291092 12.7484808 0.6769649982 0.9475495219 
-3.89461422 10.06097126 0.5429244637 0.9577116966 
-4.060512543 9.2452631 0.5081594586 0.9603651166 
-5.074467659 9.226537704 0.5299127102 0.9587039351 
-12.80797863 15.81170845 1.024019718 0.9217361212 
-13.33122063 12.58149433 0.9224856496 0.9292144775 
-12.67254829 10.93602562 0.8423757553 0.9351575375 
-12.79322243 9.190854073 0.7927325368 0.9388595819 
-51.42533875 19.12141991 2.76107192 0.8027285337 
-54.14545822 17.43322754 2.862598896 0.7962684035 
-58.68482208 16.05153847 3.061764717 0.7837464213 
-73.34682465 13.19494629 3.750397921 0.7419493794 
-60.02273178 8.060688019 3.047725201 0.7846223116 
-15.0222702 0 0.7559869289 0.941609025 
-15.11748981 -0.6731494069 0.7615326047 0.941193521 
-104.4653015 -18.79325676 5.341547966 0.6537001729 
-56.22518539 -23.80386162 3.072633028 0.7830685377 
-56.07964706 -33.15877533 3.278589487 0.7703371644 
-59.72245026 -38.99881363 3.589543343 0.7515083551 
-56.05636597 -40.27190018 3.473539352 0.7584787607 
-55.98502731 -44.12498474 3.587305784 0.7516422272 
-55.84729385 -48.19456482 3.712278366 0.7442016602 
-54.95330048 -67.84101105 4.39361763 0.704924643 
-5.749443054 -13.09075642 0.7195227146 0.9443455338 
-5.062529087 -13.07807064 0.7057384849 0.9453822374 
-4.400156021 -13.06583023 0.6938143969 0.9462795854 
-3.758515596 -13.05397415 0.6836215258 0.9470476508 
-3.134267569 -13.04244614 0.675039947 0.9476945996 
-0.7527685165 -12.99845219 0.6552358866 0.9491894841 
-0.1733886749 -12.98774338 0.6536605954 0.9493085742 
0.4043554664 -12.97707462 0.6533813477 0.9493296146 
0.9827734232 -12.9663868 0.6543985009 0.9492527843 
2.745180607 -12.93383312 0.6653884649 0.9484229088 
3.349877834 -12.92265606 0.6718206406 0.9479374886 
3.96762681 -12.91124439 0.6797378659 0.9473403692 
5.254374981 -12.88747025 0.7003878355 0.9457848072 
5.930234432 -12.87499523 0.7133550644 0.9448093772 
6.631562233 -12.8591404 0.7281179428 0.9437000751 
7.365703106 -12.84558582 0.7451812625 0.9424192309 
8.136640549 -12.83134747 0.7646142244 0.9409627914 
16.53930664 -13.76699638 1.082944632 0.9174235463 
18.28191566 -12.64681149 1.118710637 0.9148160219 
20.08835983 -12.61345196 1.193699956 0.9093726277 
27.41139984 -12.47818851 1.515671611 0.886367023 
30.84204292 -12.41483879 1.67313385 0.8753284216 
62.01243591 -21.8096962 3.308122396 0.7685295343 
64.80641174 -13.45384693 3.330884933 0.7671386003 
102.7705154 15.66841793 5.231631279 0.6594438553 
71.88353729 14.2569685 3.687963724 0.7456448674 
109.8163223 37.52751541 5.840225697 0.6282649636 
86.29692841 33.84802628 4.664959431 0.6898647547 
76.44075775 33.97934723 4.209786415 0.715313375 
67.78514862 33.81945801 3.812242985 0.7383057475 
64.79190063 36.0111618 3.730393648 0.7431311011 
64.48384857 52.71064758 4.191331863 0.7163645029 
64.39366913 57.60083008 4.347876072 0.7074952126 
25.32467651 114.2988434 5.8913908 0.6257053614 
17.69865608 100.9572525 5.158090115 0.6633142829 
-5.881518364 25.4696579 1.315478444 0.9006018639 
-3.992455959 9.314579964 0.5099963546 0.9602247477 
-4.478593826 9.284785271 0.5187689066 0.9595544934 
-4.994272232 9.275253296 0.5301358104 0.9586868286 
-12.74067402 14.63164043 0.9763607383 0.9252388477 
-12.64152336 9.25349617 0.7884225249 0.939183116 
-16.75416374 9.117671013 0.9599111676 0.9264508486 
-22.02828598 9.558071136 1.208418846 0.9083080292 
-51.53031921 19.68418503 2.775999308 0.8017751575 
-53.51737976 17.75816917 2.837632656 0.7978518605 
-71.82198334 13.58163548 3.678456306 0.746209085 
-50.14770508 7.189477444 2.549467087 0.8163613081 
-14.81753826 1.455248952 0.749271214 0.9421123862 
-62.26620865 -19.43811035 3.282658577 0.7700889707 
-57.43645477 -23.71617699 3.127174616 0.7796771526 
-60.30493164 -38.61787415 3.603744984 0.750659287 
-55.9229393 -39.42608643 3.443384409 0.7603009939 
-55.92442322 -47.39920425 3.689240694 0.7455690503 
-50.75870132 -47.05708313 3.483246326 0.7578929067 
-9.163192749 -16.31524849 0.9416875839 0.9277954102 
-5.197812557 -13.08057117 0.7083410621 0.9451864362 
-3.885380745 -13.05631828 0.6855282187 0.9469038844 
-2.04472661 -13.02231407 0.6633712649 0.9485751987 
-0.8690673709 -13.00059986 0.655708015 0.9491537809 
0.2888574302 -12.97920895 0.6533318758 0.9493332505 
1.44749999 -12.95780754 0.6561495662 0.9491204023 
2.032910109 -12.94698715 0.6595336795 0.9488649368 
3.227993011 -12.92491627 0.6704162359 0.9480432868 
5.122070312 -12.88992119 0.6980160475 0.9459633231 
5.79305172 -12.87752438 0.7106103301 0.9450157285 
7.216084003 -12.84835434 0.7415853739 0.942688942 
7.979198933 -12.83426285 0.760524869 0.9412690401 
8.783945084 -12.81938457 0.7820467949 0.9396582842 
16.59580612 -16.81877899 1.189076185 0.9097072482 
16.56881142 -15.36048317 1.137009859 0.913484633 
16.54403305 -14.02202606 1.091383934 0.9168077707 
16.52112198 -12.7844677 1.051275253 0.9197388291 
17.94734764 -12.65300274 1.105081201 0.9158086181 
19.70790482 -12.62048817 1.177719355 0.9105298519 
24.05324364 -12.54022884 1.365096092 0.8970524073 
26.80106926 -12.48946762 1.488008738 0.8883203268 
30.09982872 -12.42854023 1.638808846 0.8777230382 
61.9668541 -19.3446331 3.266864538 0.7710568309 
64.82198334 -14.06009293 3.337986469 0.7667051554 
108.6420898 -13.60658169 5.510077 0.6449918747 
64.80562592 35.26738358 3.71296382 0.7441628575 
64.66759491 51.90797424 4.173093319 0.7174052 
64.41223907 56.59393311 4.314957619 0.7093510032 
38.44639587 89.6971817 4.911141872 0.6764802933 
33.07191849 101.1712418 5.356508732 0.6529224515 
16.98288536 92.05140686 4.710667133 0.6873624921 
8.445370674 90.11453247 4.554835796 0.6959372163 
-22.15132332 99.97646332 5.15326786 0.6635689139 
-3.970546722 10.82566833 0.5802838206 0.9548684359 
-4.378017426 9.286644936 0.5166760087 0.9597144723 
-12.8368454 19.85057068 1.189651489 0.909665823 
-12.77243137 16.35458946 1.044289231 0.9202504754 
-12.72165966 13.60042 0.9371868968 0.9281278253 
-12.87324715 12.58996105 0.9061584473 0.9304225445 
-12.68003368 11.3424263 0.8561578393 0.9341323376 
-12.66174316 10.35001469 0.8229904175 0.9366014004 
-13.52222633 9.177382469 0.8224239945 0.9366436005 
-15.78825188 9.718593597 0.9329983592 0.9284371138 
-22.03263664 9.793915749 1.213393807 0.9079486132 
-51.77959824 20.30937004 2.799049377 0.8003053069 
-53.33533096 18.22635269 2.836472988 0.7979257107 
-58.44475555 17.10966301 3.064644337 0.7835667133 
-69.66327667 17.06917381 3.609468222 0.7503173947 
-71.29799652 14.14067841 3.657929659 0.7474297285 
-14.89140129 0.928881824 0.7508599758 0.941993475 
-14.98462868 0.2667333782 0.7542114258 0.9417420626 
-15.51033211 -1.106181622 0.7825329304 0.939621985 
-100.7490692 -20.91558075 5.178245544 0.6622515917 
-63.07416916 -22.18310928 3.364765644 0.7650731206 
-56.21125793 -31.90024757 3.252589703 0.7719339728 
-60.31869125 -37.87423325 3.584287643 0.7518225312 
-56.18740082 -42.68548203 3.551024199 0.7538156509 
-55.93989182 -46.56342316 3.662791729 0.7471404672 
-55.61322021 -66.21079254 4.351453304 0.7072936893 
-45.31461716 -59.10058975 3.747839212 0.742100358 
-11.42320251 -16.35702133 1.004020691 0.923204124 
-8.406694412 -16.30127335 0.9230187535 0.9291750789 
-6.032041073 -13.09597588 0.7255990505 0.9438891411 
-5.334140301 -13.08309555 0.7110204697 0.9449848533 
-4.012885571 -13.05867195 0.6875 0.9467554092 
0.1733105481 -12.98133278 0.6533370614 0.9493329525 
0.7511718869 -12.97066402 0.6538342237 0.9492952824 
1.331054688 -12.95995617 0.6556329131 0.9491594434 
1.915312409 -12.94915485 0.6587487459 0.9489241838 
2.506313324 -12.93824673 0.6632131934 0.9485870004 
3.106577158 -12.92715836 0.6690744162 0.9481447339 
3.718759775 -12.9158392 0.6763885617 0.9475929737 
5.656943321 -12.88003349 0.7079430819 0.9452163577 
7.067968369 -12.85108376 0.7380834818 0.9429516196 
7.823495865 -12.83713341 0.756541431 0.9415675998 
8.619397163 -12.82243633 0.7775238156 0.9399966002 
9.462404251 -12.80685997 0.8013345003 0.9382170439 
16.66674805 -20.57546425 1.332534432 0.8993801475 
16.63175774 -18.76040459 1.261698008 0.9044647217 
16.601511 -17.12683105 1.200361252 0.9088906646 
16.54883003 -14.28115654 1.100042343 0.9161761999 
16.52557564 -13.02472115 1.058892846 0.9191813469 
17.62074471 -12.65902805 1.091868281 0.916772306 
62.03567123 -23.0665226 3.330734253 0.767147541 
65.21851349 -17.83857918 3.402637959 0.7627699971 
65.35810089 -14.78640556 3.372241735 0.7646182775 
76.9124527 -13.83634281 3.932710409 0.731261611 
103.5470657 -13.90572262 5.257731438 0.6580756903 
109.8903122 35.38173676 5.809747696 0.6297906041 
111.1605148 41.33299637 5.968297482 0.6218941212 
64.60009003 46.40975952 4.002951145 0.7271857262 
38.71468353 70.39234924 4.04287672 0.7248782516 
38.50485611 78.04407501 4.379534245 0.7057148814 
26.03086281 90.40938568 4.734634876 0.6860497594 
16.66352463 112.6600952 5.731240749 0.6337380409 
-3.846899271 14.83987713 0.7714947462 0.9404478073 
-4.012734413 11.24927235 0.6010531187 0.9532914162 
-3.828217745 9.389462471 0.5102844238 0.9602026939 
-4.278305531 9.288481712 0.5146395564 0.9598699212 
-4.785312176 9.279115677 0.5254055858 0.9590478539 
-12.80904293 18.34139633 1.125826716 0.914297998 
-12.77815914 16.66560555 1.056841969 0.9193314314 
-12.72627449 13.85043907 0.9465716481 0.9274348617 
-12.70410156 12.64771461 0.9021233916 0.9307200909 
-12.68387699 11.55074215 0.8633263707 0.9335996509 
-15.84937 9.951747894 0.9418044686 0.9277865887 
-16.08806038 9.129984856 0.9309096932 0.9285915494 
-22.05953979 11.25220203 1.246214867 0.9055799246 
-22.22586823 8.946562767 1.205722332 0.9085030556 
-52.60681534 18.50172234 2.806371689 0.799839437 
-14.87288094 1.060703158 0.7503716946 0.9420300722 
-15.06014633 -0.2680859268 0.7580150962 0.941457212 
-15.28996086 -0.9537646174 0.770955205 0.9404881001 
-104.353363 -20.69712448 5.353816509 0.653062284 
-61.60002899 -21.05072784 3.27600646 0.7704966664 
-61.09065247 -23.96149826 3.302392006 0.7688807249 
-56.19026184 -24.97763062 3.094536066 0.781704843 
-56.22330856 -31.24876404 3.23705864 0.7728883624 
-56.02838898 -41.78339386 3.51733017 0.7558398247 
-56.66250992 -55.41556931 3.9885149 0.7280209064 
-53.0178299 -61.99184799 4.10503912 0.7213014364 
-11.64396954 -16.3610878 1.010592937 0.9227216244 
-9.510507584 -14.70696259 0.8813903332 0.9322584867 
-9.553300858 -16.32246017 0.9517706037 0.9270513654 
-6.175107479 -13.09862232 0.7287603617 0.9436516166 
-5.471445084 -13.08562469 0.713773787 0.9447777271 
-4.79483366 -13.07312012 0.7007510066 0.9457573295 
-2.283691406 -13.0267334 0.6655609012 0.9484098554 
0.6354882717 -12.97280216 0.653631866 0.9493106604 
1.21484375 -12.96209908 0.6551687717 0.9491945505 
2.387480497 -12.94043922 0.662211895 0.9486626983 
2.985683441 -12.929389 0.6677868366 0.9482418299 
3.595268488 -12.91812515 0.6748052835 0.9477123022 
4.219042778 -12.90660095 0.6833382845 0.9470688701 
6.921152115 -12.85380363 0.7346734405 0.9432076812 
8.456638336 -12.82544422 0.7731100321 0.9403268099 
9.289646149 -12.81006336 0.7963274717 0.9385908246 
10.17828846 -12.79653263 0.822845459 0.9366121888 
16.63818741 -19.10763168 1.275040507 0.9035049677 
16.6073246 -17.44082069 1.211958647 0.9080521464 
16.5300827 -13.26840782 1.066704392 0.918610096 
17.30197906 -12.66491699 1.079057336 0.9177075624 
18.97662354 -12.63398933 1.147275925 0.9127386212 
20.88137245 -12.59880829 1.227297902 0.9069441557 
25.64463615 -12.51082516 1.435938716 0.8920090795 
28.70322609 -12.45434093 1.574587941 0.8822203875 
32.42374039 -12.38562489 1.746704102 0.8702184558 
61.98950195 -20.56942749 3.286848068 0.7698319554 
63.14442062 -17.87687874 3.302607298 0.768867135 
111.1005554 34.68305588 5.857189178 0.6274178624 
85.64716339 35.36462784 4.663136005 0.6899654269 
64.7640686 37.51969528 3.766649008 0.7409901619 
66.02749634 42.28243256 3.945713997 0.7305049896 
64.61585999 45.55459976 3.978639364 0.7285938263 
64.5349884 49.93881226 4.106506824 0.7212169766 
64.44857025 54.62381744 4.251567364 0.7129387856 
-3.858100414 15.44789505 0.8012850881 0.9382206202 
-4.044326305 11.66494083 0.6213140488 0.9517555237 
-3.860341787 9.714745522 0.5260745287 0.958996892 
-4.682182312 9.281020164 0.5231320262 0.9592213631 
-64.11569214 93.57118225 5.708308697 0.6348956227 
-12.78403282 16.98422813 1.069790006 0.9183846712 
-12.73096657 14.10541439 0.9562173486 0.9267231226 
-12.68778801 11.76249027 0.8706783652 0.9330533147 
-12.66889095 10.73761654 0.8357470632 0.9356510639 
-12.65141582 9.789984703 0.8050372005 0.9379405379 
-13.03034115 9.1864748 0.8023269176 0.9381429553 
-22.06417465 11.50319767 1.252213717 0.9051478505 
-22.04144478 10.27143574 1.223753333 0.9072002769 
-70.44486237 15.27971172 3.627537251 0.7492395043 
-15.12031174 1.893701077 0.7668673396 0.9407941699 
-14.8544035 1.192304611 0.7499450445 0.9420620203 
-14.94719696 0.532294929 0.752687335 0.9418564439 
-15.04117107 -0.1339013577 0.7569698691 0.9415355325 
-61.61124039 -20.44395065 3.266791344 0.7710617781 
-61.73106384 -23.5808239 3.325522423 0.7674661279 
-19.930233 -14.5889349 1.242973566 0.9058134556 
-56.14331055 -45.06567764 3.623004675 0.7495095134 
-52.21521378 -45.87740707 3.49788332 0.7570104599 
-11.86777306 -16.36522865 1.017330885 0.922226727 
-8.781162262 -16.30819702 0.9321123958 0.9285027385 
-5.609902382 -13.08817387 0.716608882 0.9445645809 
-3.632411957 -13.05165482 0.6817806959 0.9471864104 
-3.011201143 -13.0401659 0.6735088825 0.947810173 
-2.403749943 -13.02894497 0.6667401195 0.9483208656 
-1.807211876 -13.01791477 0.6614028811 0.948723793 
-1.218994141 -13.00706959 0.6574416757 0.9490228295 
-0.6366259456 -12.99630356 0.654817462 0.9492211938 
0.5199316144 -12.97493649 0.6534802318 0.9493221045 
1.680947185 -12.95350075 0.6573413014 0.9490302801 
2.268945217 -12.94262695 0.6612637043 0.9487342834 
4.730322361 -12.89715767 0.6913204789 0.9464675188 
5.387587547 -12.88502407 0.7028335333 0.9456007481 
6.068490982 -12.87244129 0.7161764503 0.9445971251 
7.516787052 -12.84280205 0.7488714457 0.9421425462 
8.295790672 -12.82841778 0.7688094974 0.940648675 
9.119084358 -12.81319809 0.7914480567 0.9389554262 
16.64474487 -19.46212387 1.288759112 0.9025188684 
16.61324883 -17.7608242 1.223873258 0.9071913958 
16.58471489 -16.21973991 1.167410254 0.9112771749 
16.55865479 -14.81189919 1.118041992 0.9148645401 
16.53466034 -13.51584911 1.074722528 0.9180241227 
16.99044228 -12.67067337 1.066619277 0.9186164141 
20.4793129 -12.6062355 1.210216999 0.9081780314 
25.09601974 -12.52096176 1.411404967 0.8937524557 
28.04491234 -12.46649361 1.544501305 0.8843353987 
62.0009346 -21.18770409 3.297319889 0.7691904306 
38.76708221 -11.34888649 2.032816648 0.8506275415 
65.54283905 -16.05957985 3.395985126 0.7631747723 
70.00179291 -13.88363743 3.59142518 0.7513960004 
101.7862778 16.44651413 5.188770771 0.6616969109 
85.42525482 34.38621521 4.634190083 0.6915558577 
74.56842804 33.94475937 4.123148918 0.7202629447 
66.04251099 41.46816254 3.924409151 0.7317447662 
64.90545654 44.89960861 3.971716166 0.7289954424 
26.499403 22.05763435 1.734882832 0.8710221052 
64.37480164 58.62382126 4.381659985 0.7055952549 
38.73037338 67.54472351 3.918315887 0.7321000695 
10.01999283 21.75405502 1.205280781 0.9085327983 
16.81434059 101.2013626 5.162909508 0.6630704403 
-3.817797661 13.2598238 0.6944009066 0.9462354779 
-4.293261528 12.74848652 0.6769644022 0.9475495219 
-5.074491978 9.226532936 0.5299136043 0.9587038755 
-13.08606434 19.4671669 1.180443406 0.9103324413 
-12.79322243 9.190854073 0.7927325368 0.9388595819 
-14.03955078 9.167826653 0.8438287377 0.935049355 
-17.10302162 9.111225128 0.9752157331 0.9253231287 
-22.04591179 10.51327133 1.229144216 0.9068109989 
-51.42546844 19.12135124 2.761074543 0.8027282357 
-29.08440399 6.579950809 1.500650883 0.88742733 
-73.34682465 13.19494629 3.750397921 0.7419493794 
-14.83595657 1.323847651 0.7495785356 0.942089498 
-14.92855453 0.6647265553 0.7520166039 0.9419067502 
-71.70420837 -19.61253357 3.741020918 0.7425028682 
-56.22516632 -23.80398941 3.072633505 0.7830684781 
-56.30467606 -26.85094261 3.139204025 0.7789305449 
-56.42106247 -30.0569973 3.217134237 0.7741151452 
-55.98502731 -44.12498474 3.587305784 0.7516422272 
-55.84729385 -48.19456482 3.712278366 0.7442016602 
-50.21006775 -47.38645935 3.474398136 0.7584263086 
-54.47419739 -56.19791412 3.938713312 0.7309120297 
-54.95330048 -67.84101105 4.39361763 0.704924643 
-10.9899807 -16.34900856 0.9913656116 0.9241344929 
-9.12749958 -14.97683525 0.8826425076 0.9321655631 
-5.749403954 -13.09075165 0.7195214629 0.9443455935 
-5.0625 -13.07806587 0.7057378888 0.945382297 
-4.400122166 -13.06582451 0.693815589 0.946279645 
-3.758515596 -13.05397415 0.6836215258 0.9470476508 
-3.134267569 -13.04244614 0.675039947 0.9476945996 
-2.524306536 -13.0311718 0.6679778695 0.9482274652 
-1.925791025 -13.02012157 0.6623584032 0.9486515522 
-1.336103439 -13.00922775 0.658126235 0.9489712119 
-0.1733886749 -12.98774338 0.6536605954 0.9493085742 
0.4043554664 -12.97707462 0.6533813477 0.9493296146 
2.150742054 -12.94481373 0.660369575 0.9488016963 
3.34990716 -12.9226656 0.6718224883 0.947937429 
3.967656136 -12.91125011 0.679738462 0.9473403096 
5.930268288 -12.87498951 0.7133560181 0.9448093176 
6.631562233 -12.8591404 0.7281179428 0.9437000751 
7.365703106 -12.84558582 0.7451812625 0.9424192309 
9.816703796 -12.8032074 0.8119085431 0.9374276996 
16.65145683 -19.82454109 1.302892685 0.9015043974 
16.59021378 -16.5165863 1.178100586 0.910502255 
16.6859684 -12.67629337 1.054546475 0.9194993973 
22.15890884 -12.57521915 1.282192349 0.9029907584 
24.56606674 -12.53074646 1.387814045 0.8954319358 
30.84204292 -12.41483879 1.67313385 0.8753284216 
67.70188904 -17.22882271 3.515642643 0.7559406161 
64.80641174 -13.45384693 3.330884933 0.7671386003 
102.7703857 15.66862297 5.231626987 0.6594440937 
86.29692841 33.84802628 4.664959431 0.6898647547 
76.44075775 33.97934723 4.209786415 0.715313375 
66.05738068 40.66220474 3.903634548 0.732955873 
64.48384857 52.71064758 4.191331863 0.7163645029 
64.39366913 57.60083008 4.347876072 0.7074952126 
52.88114929 67.7127533 4.323644161 0.7088608742 
25.32467651 114.2988434 5.8913908 0.6257053614 
17.69865608 100.9572525 5.158090115 0.6633142829 
7.661586761 90.40183258 4.56575346 0.6953340173 
-5.881518364 25.4696579 1.315478444 0.9006018639 
-3.826826096 13.75016594 0.7182690501 0.9444398284 
-4.168105602 12.75079536 0.675090909 0.9476908445 
-4.994272232 9.275253296 0.5301358104 0.9586868286 
-12.85130787 19.49043846 1.174873352 0.9107362032 
-12.79621029 17.64549255 1.096919179 0.9164038897 
-12.76683044 16.050951 1.032112956 0.9211426377 
-12.71714783 13.35540485 0.9280645251 0.9288019538 
-12.64152336 9.25349617 0.7884225249 0.939183116 
-16.75416374 9.117671013 0.9599111676 0.9264508486 
-22.02828598 9.558071136 1.208418846 0.9083080292 
-69.08506012 16.27732849 3.571872473 0.7525662184 
-71.82198334 13.58163548 3.678456306 0.746209085 
-14.90995598 0.7969335914 0.7514071465 0.9419524074 
-15.00342751 0.1334863305 0.7550677061 0.9416778684 
-15.59542942 -1.251874924 0.7873562574 0.9392613173 
-102.8836975 -22.31584358 5.297970295 0.6559719443 
-63.06253815 -22.81178093 3.374837637 0.7644596696 
-56.31590652 -26.24359894 3.126682758 0.7797071934 
-56.25879669 -29.3306675 3.192877769 0.7756115794 
-55.9229393 -39.42608643 3.443384409 0.7603009939 
-55.92442322 -47.39920425 3.689240694 0.7455690503 
-50.75839615 -47.05720139 3.483237743 0.7578933239 
-54.648983 -55.38365555 3.915580273 0.7322596312 
-54.31061554 -60.17459488 4.079276562 0.7227817774 
-11.20516109 -16.35298729 0.9976150393 0.9236751795 
-9.247084618 -14.8736372 0.8813717365 0.9322596788 
-2.04472661 -13.02231407 0.6633712649 0.9485751987 
-0.8690087795 -13.00059986 0.6557077169 0.9491538405 
-0.2890234292 -12.9898777 0.6538717747 0.9492926598 
0.8669335842 -12.9685297 0.6540902853 0.9492759705 
1.44749999 -12.95780754 0.6561495662 0.9491204023 
2.032910109 -12.94698715 0.6595336795 0.9488649368 
3.227993011 -12.92491627 0.6704162359 0.9480432868 
3.842890501 -12.91354942 0.6780319214 0.947468996 
4.473193169 -12.90190887 0.687197268 0.946778059 
6.490092754 -12.86466312 0.7251275182 0.943924427 
7.216084003 -12.84835434 0.7415853739 0.942688942 
7.979198933 -12.83426285 0.760524869 0.9412690401 
16.65831947 -20.19483757 1.317436457 0.9004615545 
16.54403305 -14.02202606 1.091383934 0.9168077707 
16.5211277 -12.78457451 1.051278949 0.9197385311 
19.70772743 -12.62049294 1.177712083 0.9105303884 
24.05348778 -12.54021931 1.365107059 0.8970516324 
26.80106926 -12.48946762 1.488008738 0.8883203268 
62.01636124 -22.43335342 3.318853617 0.7678735256 
61.96685028 -19.34434128 3.266859055 0.7710571289 
67.42137146 -17.79789925 3.509170532 0.7563304901 
64.82154846 -14.05969715 3.33796072 0.7667067051 
80.64060974 -13.76749039 4.116920471 0.7206196785 
108.6420898 -13.60658169 5.510077 0.6449918747 
109.8357391 36.4458046 5.823787212 0.629087925 
64.80562592 35.26738358 3.71296382 0.7441628575 
64.58411407 47.27550507 4.027868748 0.7257446051 
64.41223907 56.59393311 4.314957619 0.7093510032 
53.86749268 67.72429657 4.354820251 0.7071039677 
16.98288536 92.05140686 4.710667133 0.6873624921 
-22.1517334 99.97638702 5.153268814 0.6635689139 
-3.836503744 14.27569294 0.7439080477 0.9425147176 
-4.043622971 12.75309563 0.6732818484 0.9478273392 
-3.970546722 10.82566833 0.5802838206 0.9548684359 
-3.909960747 9.351019859 0.5100659132 0.9602193832 
-4.378017426 9.286644936 0.5166760087 0.9597144723 
