# .PCD v0.7 - Point Cloud Data file format
VERSION 0.7
FIELDS x y z intensities
SIZE 4 4 4 4
TYPE F F F F
COUNT 1 1 1 1
WIDTH 918
HEIGHT 1
VIEWPOINT 0 0 0 1 0 0 0
POINTS 918
DATA ascii
-0.9122363329 -13.64621067 -0.6882731318 0.9466972947 
1.517958999 -13.58849049 -0.6880883574 0.946711123 
2.131337881 -13.57391548 -0.6914715171 0.9464563131 
2.752031088 -13.55917931 -0.6962727308 0.9460946918 
4.026020527 -13.52891541 -0.7103433013 0.9450358152 
5.100209713 -12.83493137 -0.695037663 0.9461875558 
5.860732079 -13.02798843 -0.718913734 0.944391489 
15.59983158 -18.91181183 -1.233734846 0.9064800739 
15.49190903 -14.36212349 -1.063112497 0.9188730121 
15.46208954 -13.10502911 -1.020007253 0.9220303297 
16.02981377 -12.40428162 -1.020012617 0.9220300317 
17.77429008 -12.53098583 -1.094427347 0.9165855646 
19.50831032 -12.49266052 -1.165795326 0.9113946557 
24.41509056 -12.72887135 -1.385632753 0.8955875039 
35.15834045 -12.71790504 -1.881523728 0.8609310985 
35.65359116 -11.130229 -1.879644156 0.8610599637 
36.09604263 -9.528632164 -1.878739119 0.8611219525 
39.48186493 -8.563742638 -2.033108234 0.8506076932 
40.09291077 -5.021315575 -2.033418179 0.8505865932 
40.27786255 -3.232978344 -2.03347683 0.850582242 
40.38161469 -1.438076138 -2.033471584 0.8505828977 
39.98522186 5.7325387 -2.032812595 0.8506277204 
13.80059338 3.251596689 -0.7135238647 0.9447965622 
13.58479691 3.846003294 -0.7105183005 0.9450226426 
34.86705399 13.31896305 -1.87832427 0.8611502647 
34.19730377 14.83822441 -1.875983953 0.8613110185 
33.46085739 16.3239994 -1.873600841 0.8614743352 
32.65937805 17.7733326 -1.871179938 0.8616400957 
25.84195328 17.20467758 -1.562335968 0.8830811977 
27.36129761 20.02845955 -1.706429362 0.8730126023 
24.57988167 23.61476517 -1.715341568 0.8723933101 
23.13755989 26.57161331 -1.773107052 0.8683918118 
22.89190674 28.78059196 -1.850652695 0.8630487919 
21.5654068 29.73791695 -1.848638535 0.8631876111 
20.19958878 30.63496017 -1.846657634 0.8633235097 
15.89099598 32.9444046 -1.840704918 0.8637325764 
7.024213791 16.38779831 -0.8972710371 0.9310808182 
6.280356407 19.21242905 -1.01720345 0.9222362638 
3.407026291 18.46691895 -0.945022881 0.927549243 
4.996615887 35.99220276 -1.8286587 0.8645609617 
3.387885571 36.14984131 -1.82719481 0.8646618724 
0.1612939388 36.25415039 -1.824486494 0.8648479581 
-1.937749028 22.86422348 -1.154757977 0.9121955037 
-4.65637207 35.88213348 -1.820886016 0.865095675 
-5.274316311 23.80481339 -1.227017283 0.9069646001 
-5.271665096 19.61591339 -1.022188425 0.92187047 
-5.089907169 16.05312538 -0.8474991322 0.9347761869 
-4.918881893 11.76407719 -0.6416885257 0.9502133727 
-4.885561466 10.36322212 -0.5765721202 0.955150485 
-4.952338696 9.396811485 -0.5345432758 0.9583506584 
-5.39811039 9.223022461 -0.5377976894 0.9581024647 
-5.964540958 6.97411108 -0.461819917 0.9639135003 
-7.081029892 7.570146084 -0.5216500759 0.9593346119 
-7.138036728 6.980937481 -0.5024510026 0.9608014226 
-8.011142731 7.166059494 -0.5409151912 0.9578649402 
-8.699408531 7.111123085 -0.565446794 0.9559966326 
-10.41816902 7.07070303 -0.6336354017 0.9508226514 
-13.81096172 6.890585899 -0.7767319083 0.9400558472 
-15.32406712 6.811826229 -0.8439316154 0.9350415468 
-17.0874157 6.702148438 -0.9236958027 0.9291248918 
-19.30380249 6.596708775 -1.026611567 0.9215459824 
-19.79480934 2.122060537 -1.001872182 0.9233621955 
-14.61269951 0.911503911 -0.7368050814 0.9430475831 
-14.6995945 0.261669904 -0.7398663163 0.9428179264 
-14.87594223 -1.060927749 -0.7505239844 0.9420184493 
-38.90965271 -4.521879673 -1.971286178 0.8548029065 
-19.48435974 -4.044950962 -1.001445174 0.9233933687 
-17.0525341 -4.339526176 -0.8855112791 0.9319527149 
-22.54281616 -9.074170113 -1.222913146 0.907260716 
-35.70749283 -16.25464249 -1.974385977 0.8545920253 
-31.54548264 -17.90224648 -1.825338364 0.864789784 
-30.72988701 -19.29533195 -1.826047659 0.8647407293 
-25.10867691 -20.90003395 -1.644043803 0.8773573041 
-22.89252853 -20.84739304 -1.558171153 0.8833736181 
-18.84704971 -20.51190376 -1.401831031 0.8944337368 
-17.19920921 -20.47663498 -1.345747948 0.8984347582 
-12.58736324 -16.41677284 -1.041061401 0.9204866886 
-10.37693787 -16.36426735 -0.9751410484 0.9253286719 
-9.36961937 -16.34033203 -0.9479139447 0.9273358583 
-4.901474476 -13.74095631 -0.7341834903 0.9432444572 
-2.272656202 -13.6785202 -0.6978019476 0.9459795356 
-1.649575114 -13.6637249 -0.6926119924 0.946370244 
0.787954092 -13.6058197 -0.6858544946 0.9468795061 
1.395908117 -13.59138107 -0.6875785589 0.946749568 
3.255576134 -13.54721165 -0.7011657357 0.9457262158 
3.896162033 -13.53200626 -0.7086556554 0.9451626539 
4.497924805 -13.35618114 -0.7092351913 0.9451192021 
4.969584942 -12.838027 -0.692781806 0.9463573694 
5.724506855 -13.03388119 -0.7163999677 0.9445804358 
6.415566444 -13.00333977 -0.7296981812 0.9435811639 
7.559731483 -13.74523926 -0.7894386649 0.9391056299 
8.572345734 -12.75245571 -0.7732786536 0.9403141141 
15.65379143 -21.18658638 -1.325658441 0.8998724818 
15.53130341 -16.02275848 -1.122982502 0.9145051837 
15.95750713 -12.5769968 -1.022494197 0.9218479395 
17.45312309 -12.53860855 -1.081485987 0.9175304174 
19.09672356 -12.47016048 -1.147785068 0.912701726 
21.63916206 -12.79481411 -1.265097618 0.9042200446 
26.58362961 -12.67735767 -1.482144594 0.8887351155 
39.40326691 -8.914469719 -2.033063412 0.8506106138 
39.76476669 -7.155236721 -2.033262968 0.8505959511 
40.3674202 -1.797460914 -2.033477783 0.8505821824 
40.40616226 4.882812391e-06 -2.03342104 0.8505864739 
40.36384583 1.797312021 -2.033300877 0.8505944014 
40.24026871 3.590724945 -2.033116817 0.8506069779 
40.03580856 5.376550198 -2.032869577 0.8506237864 
33.61339951 16.02976227 -1.874080658 0.8614413738 
31.05871964 20.28134346 -1.866742492 0.8619444966 
27.38014603 19.67034149 -1.696610212 0.8736946583 
29.04561234 22.89249039 -1.861124635 0.8623296618 
27.91318703 24.08821297 -1.855456829 0.862719059 
26.83609581 25.3269043 -1.856989264 0.8626141548 
23.0721283 23.80220985 -1.668214083 0.8756712675 
24.42741966 27.55376816 -1.853082657 0.8628821969 
19.07973289 31.30687904 -1.845033407 0.8634350896 
17.64896393 32.08998489 -1.843039155 0.8635721207 
7.207385063 16.41039085 -0.9019846916 0.9307317138 
6.473256588 16.7224865 -0.9024023414 0.930700779 
6.37962389 18.94375038 -1.005942822 0.9230630994 
4.884838581 16.96585846 -0.888482213 0.9317322969 
3.445195198 17.78506279 -0.9116612077 0.9300151467 
3.710131645 36.12402725 -1.827481747 0.864641726 
0.4840576053 36.25632858 -1.824743867 0.8648304343 
-1.128471613 36.21707916 -1.823488832 0.8649167418 
-4.337319374 35.92676544 -1.821124434 0.8650796413 
-5.92713356 35.67399216 -1.819888473 0.865164876 
-5.192573071 12.73583508 -0.692148447 0.946405232 
-4.891674519 10.62016582 -0.5884219408 0.9542500973 
-4.865971565 9.435522079 -0.5342612863 0.9583721161 
-4.848164082 7.645478249 -0.4555908144 0.9643913507 
-4.968193054 7.113994122 -0.4366696179 0.9658446312 
-5.790248871 7.551777363 -0.478893429 0.9626045227 
-5.977406979 7.116435528 -0.4677012563 0.9634623528 
-6.550405025 7.129013538 -0.4872152507 0.9619672894 
-7.039448261 7.008183479 -0.4998835623 0.9609978795 
-7.876694202 7.17300272 -0.5361251831 0.9582300186 
-8.290532112 6.900912762 -0.5428411961 0.9577180147 
-9.167397499 6.964457989 -0.5793760419 0.9549373388 
-10.86921406 6.824736118 -0.6458743215 0.9498969316 
-11.84684086 6.723095417 -0.6855005026 0.9469061494 
-13.55221176 6.912744045 -0.7656080723 0.9408884048 
-14.68216228 0.3921093643 -0.7391349673 0.9428727627 
-14.8580904 -0.9268017411 -0.7491781712 0.9421194196 
-38.94747543 -4.17526865 -1.971239567 0.8548059464 
-17.14123535 -4.200088024 -0.888142705 0.9317576289 
-16.88352966 -4.942646503 -0.8853154778 0.9319672585 
-22.62767982 -7.732592583 -1.2033813 0.9086722732 
-31.70128441 -17.61945724 -1.825202107 0.8647989035 
-10.4384079 -14.66711903 -0.9059594274 0.9304373264 
-10.58544445 -16.3692131 -0.9810085297 0.9248965979 
-9.566523552 -16.34500885 -0.953083992 0.9269542694 
-6.914701939 -13.1202879 -0.7463543415 0.9423310757 
-5.753945351 -13.7612009 -0.7506257296 0.9420109391 
-5.041005611 -13.74426746 -0.7367281914 0.9430534244 
-2.398486376 -13.68150806 -0.6990147233 0.9458881617 
-1.157016635 -13.65202618 -0.6894950867 0.9466051459 
0.6666308641 -13.60871029 -0.6856744289 0.946893096 
1.274086833 -13.59427738 -0.6871246099 0.9467837811 
1.885263681 -13.57977009 -0.6899490356 0.9465708733 
3.129042864 -13.55021954 -0.6998541355 0.9458250999 
3.766977549 -13.53506851 -0.7070339918 0.9452847242 
4.41942358 -13.51957035 -0.7157940269 0.9446259141 
7.40314436 -13.74895477 -0.7858380675 0.9393749237 
8.20093441 -13.73000908 -0.8048276305 0.937956214 
8.451251984 -12.81727028 -0.7726191282 0.9403636456 
15.61696529 -19.63426208 -1.262525201 0.904405117 
15.57553196 -17.88726044 -1.193602443 0.9093795419 
15.50457287 -14.89580059 -1.08200717 0.9174920917 
15.67701912 -12.5836668 -1.011656642 0.9226434231 
17.13960648 -12.54605961 -1.068930149 0.9184474945 
18.78582382 -12.50694752 -1.13574183 0.9135769606 
26.01374626 -12.69089317 -1.456605554 0.8905431032 
29.08055115 -12.6180563 -1.595286489 0.8807682991 
39.99629211 -5.734135628 -2.033376455 0.850589633 
40.21352768 -3.949450493 -2.033460855 0.8505836129 
40.34981155 -2.15671134 -2.033481359 0.850582242 
40.08311844 5.020261288 -2.032924175 0.8506201506 
13.62181568 3.59589839 -0.7089927793 0.9451372623 
13.65603733 4.263112545 -0.7199427485 0.9443141222 
35.11575699 12.70252323 -1.879247069 0.861087203 
34.47330856 14.23440552 -1.876925468 0.8612463474 
32.98762512 17.19816017 -1.872152567 0.8615735769 
30.37356567 17.5962944 -1.766516805 0.868847549 
28.19080544 23.89331055 -1.859699368 0.8624278307 
27.06625748 25.09241867 -1.857381105 0.8625868559 
23.16888618 23.48035431 -1.660041451 0.8762412071 
24.67682076 27.34114647 -1.853472114 0.8628552556 
22.10089302 29.36221123 -1.849440217 0.8631321788 
17.93774796 31.93846321 -1.843434691 0.8635449409 
6.646225452 16.72553825 -0.9057239294 0.9304547906 
4.233691216 16.95179176 -0.8792936802 0.9324139953 
3.498452187 17.236763 -0.8851177096 0.9319819212 
4.032163143 36.09524155 -1.827771902 0.8646219969 
0.8067333698 36.25577927 -1.825004101 0.8648124933 
-0.8062939048 36.23048401 -1.823733687 0.8649001122 
-5.610249043 35.73012161 -1.820134521 0.8651480079 
-5.333110332 26.27603912 -1.349291086 0.8981816769 
-5.117074966 17.19525337 -0.9028459787 0.9306678772 
-5.054848671 14.57956505 -0.7765543461 0.9400689602 
-5.062065125 12.7389307 -0.6898408532 0.9465790987 
-4.898041725 10.88799763 -0.6008238196 0.9533088207 
-6.050287724 7.334736347 -0.4784934819 0.9626353383 
-6.317729473 6.999784946 -0.4745239019 0.9629395008 
-8.194096565 6.94498539 -0.5405520797 0.9578925371 
-9.035112381 6.991606236 -0.5749253631 0.955275774 
-10.10682106 7.125360966 -0.6223138571 0.9516797662 
-13.12677193 6.843676567 -0.7449834943 0.9424338341 
-14.43557549 6.727079868 -0.8014698029 0.9382067919 
-38.85968018 4.86687994 -1.970870614 0.8548311591 
-14.7520647 -0.1313183606 -0.7424192429 0.9426263571 
-14.84029293 -0.7932177782 -0.7478951812 0.9422156215 
-38.77813721 -5.559467793 -1.971439719 0.8547922373 
-17.33975601 -4.085478306 -0.8965082169 0.9311374426 
-22.55853462 -8.617197037 -1.215249896 0.9078140855 
-35.98657608 -15.61458492 -1.974134326 0.8546090126 
-35.26773834 -17.20548248 -1.974778056 0.85456568 
-31.06364632 -18.74226952 -1.825758219 0.8647603989 
-30.21132278 -20.11365128 -1.82649529 0.8647098541 
-29.29913521 -21.44695663 -1.827277541 0.8646559715 
-24.8968792 -21.87490654 -1.667835832 0.8756978512 
-25.09081459 -26.35012054 -1.831064224 0.8643956184 
-10.64369106 -14.67724609 -0.9124013782 0.9299604893 
-9.765712738 -16.34974098 -0.9583920836 0.9265628457 
-7.066581726 -13.12388611 -0.7501109242 0.9420496225 
-6.335746765 -13.13493156 -0.7338908315 0.943266511 
-3.163501024 -13.6996727 -0.7075710893 0.9452442527 
-2.524707079 -13.68451118 -0.700289011 0.9457923174 
-1.89768064 -13.66961861 -0.6945123076 0.9462270737 
-0.6681933403 -13.64041519 -0.6872697473 0.9467726946 
0.5454345345 -13.61159134 -0.685547173 0.9469026327 
1.1523633 -13.59716797 -0.6867245436 0.9468138814 
2.37857914 -13.56804657 -0.6932172775 0.9463246465 
3.002924681 -13.55321789 -0.6985999942 0.9459194541 
4.287597656 -13.52271461 -0.7139114141 0.9447674155 
4.710878849 -12.84416962 -0.6884796023 0.9466814995 
6.136108398 -13.01587868 -0.7241569161 0.9439974427 
7.247963905 -13.75264168 -0.7823274732 0.9396372437 
8.291889191 -12.8223772 -0.7684473395 0.9406757951 
15.58345413 -18.22119522 -1.206588507 0.9084404111 
15.4796896 -13.84675217 -1.045191526 0.9201842546 
18.44020271 -12.51516056 -1.121537805 0.9146102667 
20.81738281 -12.81433105 -1.230195761 0.9067352414 
22.96403313 -12.76334 -1.322154522 0.9001234174 
25.46287727 -12.70398426 -1.432040095 0.8922861218 
31.14576912 -12.21623516 -1.683647752 0.8745962977 
35.32300949 -12.07100105 -1.878544569 0.8611355424 
35.83834076 -10.49149132 -1.879238367 0.8610877991 
36.2531662 -8.882890701 -1.878391623 0.8611460328 
39.62979507 -7.859877586 -2.033190727 0.8506016135 
40.32902145 -2.515622616 -2.033482313 0.850582242 
40.40043259 -0.7191332579 -2.033451557 0.850584209 
40.39050674 1.078664541 -2.033356667 0.8505907655 
40.12728119 4.663398266 -2.032975912 0.8506165147 
39.87456512 6.442895412 -2.03269124 0.8506356478 
15.09847641 3.134453058 -0.7760230303 0.9401087761 
13.59370327 4.111217976 -0.7146972418 0.9447082877 
35.23601151 12.39246655 -1.879705667 0.861055851 
34.60721588 13.93045044 -1.877393603 0.8612144589 
27.42965508 17.22312737 -1.629943609 0.8783427477 
28.86459923 19.96765709 -1.766288161 0.8688629866 
26.13393974 26.01797104 -1.855819702 0.8626942635 
23.66773224 28.17777252 -1.851876736 0.8629648685 
21.0237236 30.104105 -1.847842693 0.8632420301 
19.642519 30.97596359 -1.845842361 0.8633793592 
18.22526741 31.78438568 -1.843831897 0.8635175824 
16.775383 32.52885437 -1.841863871 0.8636530638 
7.715600491 16.751091 -0.9281134605 0.9287981987 
6.409819126 17.96949005 -0.9601156116 0.9264358282 
4.393730164 16.94963837 -0.881172061 0.9322744012 
3.607421875 16.99651337 -0.8743924499 0.9327776432 
5.95867157 35.86381149 -1.829571009 0.8644983768 
4.353852272 36.06373978 -1.82806468 0.8646017313 
2.74312973 36.19317245 -1.8266294 0.8647009134 
1.129565358 36.2524147 -1.825267434 0.8647942543 
-0.4838329852 36.24118042 -1.823981404 0.864882946 
-2.094116211 36.15979385 -1.822773576 0.8649661541 
-5.292714596 35.78357697 -1.820383906 0.8651307225 
-5.065864086 15.04264164 -0.7987876534 0.9384071827 
-4.904687405 11.1672802 -0.6138012409 0.9523246288 
-4.874042988 9.878915787 -0.5543658137 0.9568398595 
-5.125473499 9.319232941 -0.5352363586 0.9582977891 
-4.747260571 7.789521217 -0.4590660036 0.9641246796 
-4.975405216 7.401537895 -0.4488134682 0.9649117589 
-5.51591301 7.465487957 -0.4671207964 0.9635068178 
-5.998549461 7.405322075 -0.4795947075 0.9625508785 
-6.200771332 6.994374752 -0.4703959525 0.9632558227 
-6.988559246 7.209682465 -0.5053018332 0.9605834484 
-7.343813419 6.93079567 -0.5081725717 0.9603641629 
-9.69230938 6.963095665 -0.6005828977 0.9533270001 
-10.54435539 6.885463715 -0.6337536573 0.9508135915 
-11.48534679 6.791064262 -0.6714718342 0.9479638338 
-17.76268005 6.604633808 -0.9536916018 0.9269095659 
-38.20446777 8.643256187 -1.9712075 0.8548081517 
-38.5474472 6.934604168 -1.971021414 0.8548209667 
-14.6473875 0.6522216797 -0.7378516793 0.9429690242 
-14.82254887 -0.6600146294 -0.746676445 0.9423071146 
-38.82491684 -5.213920593 -1.971386194 0.8547962904 
-38.56037521 -6.936879635 -1.971677184 0.8547760248 
-30.38651848 -19.84239197 -1.826344252 0.8647204041 
-29.48624992 -21.18341827 -1.827117562 0.8646671772 
-27.5119133 -23.7416935 -1.828784704 0.8645529151 
-20.82754326 -21.48659134 -1.505923271 0.8870548606 
-16.77685547 -20.71137619 -1.341339111 0.8987503052 
-12.12142086 -16.40569878 -1.026517153 0.9215529561 
-11.01037121 -16.37930679 -0.9932042956 0.9239993095 
-9.967143059 -16.35453033 -0.9638326764 0.9261615872 
-7.219936371 -13.12752914 -0.7539604306 0.9417610168 
-1.402734399 -13.65786076 -0.6909402609 0.9464961886 
-0.1819531173 -13.62886238 -0.6859266758 0.9468739629 
0.4242040813 -13.61446762 -0.6854740977 0.9469080567 
2.254780293 -13.57099056 -0.6923159361 0.9463926554 
4.582734108 -12.84721184 -0.6864318848 0.9468359351 
5.231694221 -12.83180618 -0.6973621845 0.9460124969 
7.877231121 -13.73769474 -0.7969340086 0.9385457635 
8.15900898 -12.86663532 -0.7667182684 0.940805316 
8.900464058 -12.74467278 -0.7822931409 0.9396400452 
15.6349287 -20.39148903 -1.293121934 0.9022059441 
15.59155273 -18.56266594 -1.219962835 0.9074741006 
15.5176878 -15.44881344 -1.101942062 0.9160379171 
15.45641041 -12.86566353 -1.012043238 0.9226150513 
16.02433968 -12.17365742 -1.012731552 0.9225644469 
27.78632545 -12.64879322 -1.536396742 0.8849059343 
30.91478539 -12.4441061 -1.677082777 0.8750535846 
35.74652481 -10.81099606 -1.879398942 0.8610770106 
39.55739594 -8.212133408 -2.033150673 0.8506046534 
39.88694382 -6.44553709 -2.033324957 0.8505925536 
40.13637543 -4.664460182 -2.033435106 0.8505852818 
40.30503464 -2.874504328 -2.033480883 0.850582242 
40.32411194 2.515312433 -2.033234835 0.8505989909 
40.16815948 4.306128025 -2.033025503 0.8506132364 
13.72806168 3.363769531 -0.7112953067 0.9449642301 
13.58635998 3.977409601 -0.7124223113 0.944879353 
35.35340118 12.08139133 -1.880161881 0.861024797 
34.73850632 13.62540245 -1.877859712 0.8611821532 
32.4912796 18.05854988 -1.870691538 0.8616740704 
26.01742935 19.40260506 -1.633314013 0.8781070113 
28.62711906 23.4005127 -1.860712528 0.8623585105 
27.52032661 24.61722565 -1.858176827 0.8625323772 
18.51135254 31.62784195 -1.844230652 0.8634901047 
17.06775284 32.38518906 -1.842253804 0.8636261821 
15.59386158 33.07764053 -1.840322495 0.8637589812 
6.876772404 16.44657516 -0.8971009851 0.9310933352 
6.20443821 19.56830597 -1.033077717 0.9210717082 
3.768569231 17.00882339 -0.8767191172 0.9326050878 
-1.863544822 19.88359261 -1.005017638 0.9231311083 
-4.974848747 35.83426666 -1.820636153 0.8651131988 
-5.438022137 29.47477531 -1.508334756 0.8868843913 
-5.296494007 22.93627357 -1.184633255 0.9100291729 
-5.215918064 15.95619583 -0.8448027372 0.9349770546 
-4.911625862 11.45904255 -0.6274104118 0.9512937665 
-5.038847446 9.3580513 -0.5348693728 0.9583258033 
-5.535180569 9.267011642 -0.5432143807 0.9576895237 
-4.723696232 7.164008617 -0.4318426549 0.9662157893 
-5.950287819 7.480922699 -0.4810418487 0.9624400735 
-6.039916992 6.936347485 -0.4628601074 0.9638337493 
-9.398007393 6.879267216 -0.58611691 0.9544252157 
-10.50749493 6.995532036 -0.6352549791 0.9507000446 
-12.57631302 6.844067097 -0.7205456495 0.9442687631 
-13.91694832 6.789433479 -0.7792612314 0.9398664832 
-17.46325684 6.670825005 -0.9407673478 0.9278635383 
-19.78873444 6.56630373 -1.049250007 0.9198870659 
-23.48582458 6.649057388 -1.228362322 0.9068673253 
-38.4848175 7.277553558 -1.971053839 0.854818821 
-14.72965813 1.446635723 -0.7448281646 0.9424456358 
-14.63003349 0.7819873095 -0.7372992039 0.943010509 
-14.71705532 0.1309570223 -0.7406570315 0.9427585602 
-14.80486774 -0.5272802711 -0.7455196977 0.9423938394 
-38.86876297 -4.868159294 -1.971334934 0.8547997475 
-38.61930084 -6.593325138 -1.971614242 0.8547804356 
-18.44582558 -4.000952244 -0.9498618841 0.9271920919 
-16.95162964 -4.474897385 -0.882304132 0.9321905375 
-17.02487755 -5.314770222 -0.8975452185 0.9310605526 
-22.59550667 -8.173524857 -1.209215641 0.9082503915 
-32.15338135 -16.76320839 -1.824804902 0.8648262024 
-31.38737297 -18.18361282 -1.825476527 0.8647800684 
-30.55943298 -19.56952667 -1.826195002 0.8647307158 
-20.90155792 -14.73574638 -1.286987424 0.9026463032 
-27.06885147 -20.94658089 -1.722453237 0.8718996644 
-27.71949577 -23.49451637 -1.828609705 0.8645629883 
-26.66085815 -24.71678734 -1.829573154 0.8644983172 
-18.79467773 -20.82394409 -1.411670685 0.8937337995 
-16.88809586 -20.47355461 -1.335616231 0.8991597891 
-12.35268974 -16.41120529 -1.033696532 0.9210265279 
-11.22673321 -16.38445282 -0.9995344281 0.9235340357 
-10.17079544 -16.35936928 -0.9694148898 0.9257503748 
-7.374950886 -13.13121033 -0.7579119802 0.941464901 
-4.762953758 -13.7376709 -0.7317138314 0.9434298277 
-4.083339691 -13.72152328 -0.7204573154 0.9442754984 
-2.778701067 -13.69054127 -0.7030166388 0.9455869198 
-2.147309542 -13.67554188 -0.6966453195 0.9460664392 
-0.9121825695 -13.64621067 -0.6882730126 0.9466972947 
-0.3033105433 -13.6317482 -0.6861808896 0.9468548298 
2.131337881 -13.57391548 -0.6914715171 0.9464563131 
2.752031088 -13.55917931 -0.6962727308 0.9460946918 
3.382651329 -13.54419899 -0.7025424242 0.9456228018 
4.488173962 -12.945117 -0.6894996762 0.9466047287 
5.100209713 -12.83493137 -0.695037663 0.9461875558 
5.860732079 -13.02798843 -0.718913734 0.944391489 
7.717690468 -13.74148941 -0.7931361198 0.9388293624 
8.043239594 -12.9372797 -0.7666307092 0.9408118725 
15.64424801 -20.78419304 -1.309140444 0.9010563493 
15.56018066 -17.24007225 -1.168717742 0.9111822844 
19.50813866 -12.49267101 -1.165788054 0.9113951325 
24.4153347 -12.72886181 -1.385643482 0.895586729 
27.17419052 -12.66333485 -1.50872159 0.8868570328 
30.47872543 -12.5848341 -1.659432173 0.8762834072 
35.65364075 -11.13007545 -1.879643917 0.8610599637 
39.48190689 -8.563573837 -2.033108234 0.8506076336 
39.82740784 -6.799628735 -2.033295155 0.8505949378 
40.09291077 -5.021315575 -2.033418179 0.8505865932 
40.4041748 0.3594970703 -2.033402205 0.8505877852 
39.68446732 7.50400877 -2.032489538 0.8506493568 
13.58479977 3.846069336 -0.7105192542 0.945022583 
35.46818161 11.76909351 -1.880616426 0.8609933853 
34.86699295 13.31910706 -1.878323913 0.8611502647 
34.19730377 14.83822441 -1.875983953 0.8613110185 
33.46078491 16.32413864 -1.873600721 0.8614743352 
32.65937805 17.7733326 -1.871179938 0.8616400957 
27.36129761 20.02845955 -1.706429362 0.8730126023 
28.84220123 23.15114212 -1.861218691 0.8623234034 
25.25364685 22.18835831 -1.691843033 0.8740338087 
24.57992172 23.61460114 -1.715336442 0.8723936081 
25.41401482 26.68954277 -1.854647994 0.8627745509 
23.13811874 26.57202148 -1.773134589 0.8683894873 
22.89190674 28.78059196 -1.850652695 0.8630487919 
21.5655365 29.7378273 -1.848638892 0.8631875515 
18.79607773 31.46870041 -1.844630957 0.8634626865 
15.89087105 32.94445801 -1.840704799 0.8637325764 
7.024213791 16.38779831 -0.8972710371 0.9310808182 
3.925043821 16.9972744 -0.8778880239 0.9325181842 
1.77527833 36.23722458 -1.82580328 0.8647572994 
-4.65647459 35.88204956 -1.820885897 0.8650959134 
-5.447216511 31.07226562 -1.587543488 0.8813114762 
-5.274301529 23.80423355 -1.226988912 0.9069666266 
-4.885561466 10.36322212 -0.5765721202 0.955150485 
-5.964497089 6.97413063 -0.4618180692 0.9639135599 
-7.137992859 6.980951786 -0.5024498105 0.9608015418 
-8.699438095 7.111078739 -0.5654472113 0.9559966326 
-9.298657417 6.93449688 -0.5837472677 0.9546052217 
-10.41816902 7.070634842 -0.633633554 0.9508228302 
-12.1842041 6.771884441 -0.7015046477 0.9457007647 
-15.32407665 6.811757565 -0.8439311981 0.9350416064 
-17.0874157 6.702148438 -0.9236958027 0.9291248918 
-19.79833412 2.122534037 -1.002050877 0.9233490825 
-38.90965271 -4.521879673 -1.971286178 0.8548029065 
-38.67518997 -6.249252796 -1.971553922 0.8547847271 
-19.48435974 -4.044950962 -1.001445174 0.9233933687 
-17.05249405 -4.339594841 -0.8855101466 0.9319527745 
-16.91889191 -5.11686039 -0.889522016 0.9316552877 
-35.70743561 -16.25477982 -1.974385977 0.8545919657 
-31.54548264 -17.90224648 -1.825338364 0.864789784 
-30.72996521 -19.29520035 -1.826047421 0.8647407293 
-28.91792488 -21.96866608 -1.827599645 0.8646342158 
-25.10867691 -20.90003395 -1.644043803 0.8773573041 
-22.89273834 -20.84740257 -1.558188319 0.8833730221 
-20.82932663 -20.73686028 -1.479126215 0.8889485002 
-18.84687424 -20.51189804 -1.401825786 0.894434154 
-17.19920921 -20.47663498 -1.345747948 0.8984347582 
-10.37756824 -14.85975075 -0.9121171832 0.9299814105 
-10.37684059 -16.36426735 -0.9751383066 0.9253288507 
-9.36961937 -16.34033203 -0.9479139447 0.9273358583 
-6.321753025 -13.72494125 -0.7604451776 0.941274941 
-5.609159946 -13.75775337 -0.7476828098 0.9422314763 
-4.901547909 -13.74095631 -0.7341848612 0.9432443976 
-4.217577934 -13.72471142 -0.7225643992 0.9441170096 
-3.553735256 -13.70895004 -0.7126989365 0.9448586106 
-2.906401396 -13.69357395 -0.7044743299 0.9454773664 
-2.272714853 -13.67851543 -0.6978025436 0.9459795356 
-1.649575114 -13.6637249 -0.6926119924 0.946370244 
0.787954092 -13.6058197 -0.6858544946 0.9468795061 
2.627221584 -13.56213856 -0.6951957345 0.9461756945 
3.255576134 -13.54721165 -0.7011657357 0.9457262158 
3.896225452 -13.53199673 -0.7086564302 0.9451626539 
4.497924805 -13.35618114 -0.7092351913 0.9451192021 
4.969648361 -12.83801746 -0.6927836537 0.9463573694 
5.724443436 -13.03389168 -0.7163987756 0.9445804954 
7.559648037 -13.74523926 -0.7894352674 0.9391058087 
8.365265846 -13.72610283 -0.8089317083 0.9376499057 
8.572267532 -12.75246048 -0.7732715607 0.9403142929 
15.60830498 -19.26896477 -1.247916818 0.9054572582 
15.53129864 -16.02262115 -1.122978449 0.9145055413 
15.49818325 -14.62659645 -1.072431684 0.9181915522 
15.46786308 -13.34819317 -1.028183103 0.9214306474 
15.95750713 -12.5769968 -1.022494197 0.9218479395 
21.63936806 -12.79480934 -1.265106559 0.904219389 
23.91608429 -12.74072742 -1.363697767 0.8971524835 
26.58390045 -12.67735767 -1.482156992 0.8887342811 
40.0461998 -5.378119946 -2.033398628 0.8505879641 
40.24728775 -3.591352463 -2.033470154 0.8505829573 
40.40616226 4.882812391e-06 -2.03342104 0.8505864739 
40.24026871 3.590724945 -2.033116817 0.8506069779 
40.0357933 5.376726151 -2.032869577 0.8506237268 
13.59884739 3.719560385 -0.7094917297 0.945099771 
13.72529984 4.419187069 -0.7256388664 0.9438861012 
34.99275208 13.01123524 -1.878786683 0.8611189127 
34.33663559 14.53704929 -1.876455545 0.8612785935 
33.61346436 16.02961349 -1.874080777 0.8614413738 
32.82476044 17.48660851 -1.87166667 0.8616067171 
28.8375473 17.05089951 -1.685936451 0.8744372129 
27.91308975 24.08832932 -1.85545671 0.862719059 
26.83609581 25.3269043 -1.856989264 0.8626141548 
24.42741966 27.55376816 -1.853082657 0.8628821969 
23.15213966 28.58205223 -1.851059556 0.8630208969 
21.83405495 29.55127525 -1.849038839 0.8631596565 
20.47573662 30.46054649 -1.847052217 0.86329633 
16.18702316 32.80854797 -1.841089487 0.8637059331 
6.473339558 16.72248459 -0.9024039507 0.9307007194 
4.884916782 16.96582413 -0.8884816766 0.9317323565 
3.709975481 36.12404633 -1.827481627 0.864641726 
2.097919941 36.22533035 -1.826075673 0.864738822 
0.4838915765 36.25632858 -1.824743748 0.8648304939 
-1.128471613 36.21707916 -1.823488832 0.8649167418 
-4.337319374 35.92676544 -1.821124434 0.8650796413 
-5.302324295 24.98209 -1.285215139 0.9027734399 
-5.183725357 19.99681664 -1.039592505 0.9205944538 
-5.103061199 16.60627937 -0.8742690682 0.9327867627 
-5.192504883 12.73583508 -0.6921457052 0.9464053512 
-4.891674519 10.62016582 -0.5884219408 0.9542500973 
-5.289970398 9.225585938 -0.535181582 0.9583019614 
-4.968193054 7.113994122 -0.4366696179 0.9658446312 
-5.977406979 7.116435528 -0.4677012563 0.9634623528 
-6.550483227 7.129042625 -0.4872192144 0.9619669914 
-7.87674284 7.17298317 -0.5361270308 0.958229959 
-10.86921406 6.824736118 -0.6458743215 0.9498969316 
-11.84680176 6.723139286 -0.6854997277 0.946906209 
-13.55221176 6.912744045 -0.7656080723 0.9408884048 
-16.82326698 6.771850586 -0.9126362205 0.9299429655 
-18.92225456 6.655004501 -1.009429693 0.9228069186 
-24.83239746 6.319233418 -1.28950572 0.9024652839 
-14.59538555 1.040864229 -0.7363702059 0.9430802464 
-14.8580904 -0.9268017411 -0.7491781712 0.9421194196 
-16.88352966 -4.942646503 -0.8853154778 0.9319672585 
-22.62767982 -7.732504845 -1.20337975 0.9086723328 
-35.84843063 -15.93510246 -1.974259257 0.8546007872 
-30.89796829 -19.01951218 -1.825902104 0.8647506833 
-30.03352928 -20.38361359 -1.826648235 0.8646992445 
-29.10967636 -21.70860863 -1.827437997 0.8646452427 
-21.0262146 -20.56366158 -1.480058312 0.888882637 
-18.76807976 -21.94502449 -1.453171849 0.8907867074 
-12.82542419 -16.42242622 -1.04861927 0.9199332595 
-6.914775372 -13.12028313 -0.746357739 0.9423309565 
-5.75400877 -13.76119137 -0.7506269813 0.9420108795 
-5.041005611 -13.74426746 -0.7367281914 0.9430534244 
-3.685043812 -13.71207047 -0.7145359516 0.9447203875 
-3.034638643 -13.69662571 -0.7059916258 0.9453631639 
-1.773432612 -13.66666508 -0.6935340762 0.9463008046 
-1.157016635 -13.65202618 -0.6894950867 0.9466051459 
0.06060546637 -13.62310028 -0.6855829954 0.9468998909 
0.6666894555 -13.60871029 -0.685674727 0.946893096 
1.274028301 -13.59427738 -0.6871243119 0.9467837811 
1.885263681 -13.57977009 -0.6899490356 0.9465708733 
2.502665997 -13.56509781 -0.6941788793 0.9462524056 
3.129042864 -13.55021954 -0.6998541355 0.9458250999 
3.766909122 -13.53507328 -0.7070333958 0.9452847838 
4.41942358 -13.51957035 -0.7157940269 0.9446259141 
4.839804649 -12.84110355 -0.6905955076 0.9465220571 
5.496098518 -12.82262707 -0.7020745873 0.9456581473 
6.275380611 -13.00964832 -0.7268919349 0.9437920451 
7.40314436 -13.74895477 -0.7858380675 0.9393749237 
8.201012611 -13.73000908 -0.8048294783 0.9379560351 
15.66357899 -21.59929085 -1.34271121 0.8986522555 
15.57552719 -17.88710403 -1.193596363 0.9093800187 
15.47373009 -13.59555149 -1.036580443 0.9208150506 
15.67701912 -12.5836668 -1.011656642 0.9226434231 
18.78582382 -12.50694752 -1.13574183 0.9135769606 
23.43280029 -12.75221157 -1.342555165 0.8986631632 
26.01348495 -12.69089794 -1.456593752 0.8905438781 
29.08055115 -12.6180563 -1.595286489 0.8807682991 
31.93181992 -12.19756317 -1.720198512 0.8720558882 
35.43970108 -11.75963306 -1.879105806 0.861096859 
35.92720032 -10.17121029 -1.879074812 0.8610989451 
39.69875717 -7.506672382 -2.033227682 0.8505998254 
40.21355057 -3.94927001 -2.033460855 0.8505836129 
40.40494156 -0.3594897389 -2.03343749 0.8505851626 
40.27150726 3.23263669 -2.033158779 0.8506039381 
40.08314133 5.020087719 -2.032924175 0.8506201506 
33.76333237 15.7339344 -1.874558926 0.8614086509 
32.98754501 17.19830894 -1.872152209 0.8615736365 
30.37356567 17.5962944 -1.766516805 0.868847549 
27.44397354 17.57463264 -1.640023708 0.8776382804 
25.77327728 19.94421387 -1.640011907 0.8776385784 
28.19080544 23.89331055 -1.859699368 0.8624278307 
27.06615639 25.09249496 -1.857380986 0.8625869155 
24.67682076 27.34114647 -1.853472114 0.8628552556 
23.41088295 28.3809433 -1.851467729 0.8629930615 
20.75057983 30.28342247 -1.847446799 0.8632693887 
16.48173332 32.67007446 -1.841475606 0.8636794686 
7.391435146 16.43082237 -0.90668571 0.9303835034 
6.646225452 16.72553825 -0.9057239294 0.9304547906 
6.397324085 18.451931 -0.9828086495 0.9247640371 
4.233618259 16.9518013 -0.8792929649 0.9324140549 
2.417187452 36.16128159 -1.823858857 0.8648913503 
0.8068701029 36.25577545 -1.82500422 0.8648124933 
-2.415439367 36.13515472 -1.822541595 0.8649820685 
-4.018012524 35.96865082 -1.821365595 0.8650631905 
-5.610102177 35.73012924 -1.82013464 0.8651480675 
-5.333110332 26.27603912 -1.349291086 0.8981816769 
-5.203686237 20.83601952 -1.080768466 0.9175826311 
-5.117074966 17.19525337 -0.9028459787 0.9306678772 
-5.054848671 14.57936001 -0.7765448093 0.9400696754 
-4.898041725 10.88787556 -0.600818038 0.953309238 
-5.057045937 7.38025856 -0.4502337575 0.9648026228 
-5.581493855 7.415297508 -0.4670695364 0.9635108113 
-6.31771946 6.999824047 -0.4745248258 0.9629393816 
-6.977777958 7.071513653 -0.4999525249 0.9609925747 
-7.626464844 7.07033205 -0.5233567953 0.9592042565 
-8.194096565 6.94498539 -0.5405520797 0.9578925371 
-10.10682106 7.125360966 -0.6223138571 0.9516797662 
-13.12680626 6.843622684 -0.7449859381 0.9424338341 
-14.43557549 6.727079868 -0.8014698029 0.9382067919 
-21.07720184 6.579697132 -1.111178756 0.9153643847 
-24.52388191 6.473798752 -1.276430249 0.9034050703 
-38.27899933 8.302670479 -1.971165538 0.8548112512 
-38.60707474 6.591264725 -1.970991135 0.8548228741 
-38.85968018 4.86687994 -1.970870614 0.8548311591 
-14.66477013 0.5222558379 -0.7384646535 0.9429231286 
-17.33975601 -4.085478306 -0.8965082169 0.9311374426 
-16.86995506 -4.776147366 -0.8823436499 0.9321879148 
-22.55853462 -8.617294312 -1.215251684 0.9078139067 
-35.26768112 -17.20563889 -1.974778056 0.8545656204 
-31.85447693 -17.33530235 -1.825067878 0.8648082614 
-29.29913521 -21.44695663 -1.827277541 0.8646559715 
-28.32887077 -22.73910141 -1.828095317 0.8645997047 
-22.80270958 -21.90718651 -1.591308713 0.8810471892 
-18.7771244 -21.5638237 -1.438946009 0.891795814 
-10.64359379 -14.67724609 -0.9123982787 0.9299606681 
-10.79659176 -16.37422752 -0.9870294929 0.9244534969 
-9.765620232 -16.34974098 -0.958389461 0.9265630245 
-7.066581726 -13.12388611 -0.7501109242 0.9420496225 
-5.899878025 -13.76466751 -0.7536485195 0.9417843223 
-4.488584042 -13.73115158 -0.7269967198 0.9437841177 
-3.81704092 -13.71520996 -0.7164414525 0.9445771575 
-2.524707079 -13.68451118 -0.700289011 0.9457923174 
-0.06061523408 -13.62597656 -0.6857286096 0.9468889832 
0.5453759432 -13.61159611 -0.685547173 0.9469026327 
1.762641549 -13.5826807 -0.6892733574 0.9466218352 
3.638300657 -13.53812504 -0.7054745555 0.9454020858 
4.287656307 -13.52270508 -0.7139123082 0.9447674155 
4.710878849 -12.84416962 -0.6884796023 0.9466814995 
5.364086628 -12.82866669 -0.6997610331 0.9458320737 
6.136108398 -13.01587868 -0.7241569161 0.9439974427 
7.248036861 -13.75263596 -0.782328546 0.9396371245 
8.038249016 -13.73387623 -0.8008289337 0.9382548332 
9.067387581 -12.74069786 -0.7869724035 0.9392903447 
15.51107121 -15.16985798 -1.091844201 0.9167743325 
15.45081234 -12.62977028 -1.004270792 0.923185885 
22.96425247 -12.76333427 -1.322163463 0.9001227021 
35.32304764 -12.07084942 -1.878543973 0.861135602 
39.629673 -7.860026836 -2.033190489 0.8506019711 
40.32902145 -2.515622616 -2.033482313 0.850582242 
40.39050674 1.078664541 -2.033356667 0.8505907655 
40.12728119 4.663398266 -2.032975912 0.8506165147 
15.09847641 3.134453058 -0.7760230303 0.9401087761 
13.65899372 3.476017952 -0.7092921138 0.9451149106 
13.59370327 4.111217976 -0.7146972418 0.9447082877 
34.60721588 13.93045044 -1.877393603 0.8612144589 
33.91061401 15.4368391 -1.875035524 0.8613759875 
33.14803696 16.90827179 -1.872636795 0.8615401387 
30.37330055 17.23703575 -1.757503986 0.8694704771 
27.42963409 17.22294807 -1.629936934 0.8783431649 
28.86459923 19.96765709 -1.766288161 0.8688629866 
25.78132248 19.58584213 -1.629363418 0.8783829808 
27.29436684 24.85573769 -1.857774019 0.8625597954 
26.13393974 26.01797104 -1.855819702 0.8626942635 
24.53338242 26.70078468 -1.824787378 0.8648274541 
22.36612892 29.17076683 -1.849842906 0.8631044626 
19.64238739 30.9760437 -1.845842242 0.8633793592 
16.77523804 32.52892303 -1.841863632 0.8636530638 
7.715600491 16.751091 -0.9281134605 0.9287981987 
6.409823895 17.96926498 -0.9601050615 0.9264366031 
3.607421875 16.99651337 -0.8743924499 0.9327776432 
2.743286133 36.19316101 -1.826629639 0.8647008538 
1.129565358 36.2524147 -1.825267434 0.8647942543 
-0.4839794934 36.24118423 -1.823981404 0.864882946 
-2.094116211 36.15979385 -1.822773576 0.8649661541 
-3.698261738 36.00774002 -1.821610212 0.8650466204 
-5.367124081 27.70593643 -1.420204878 0.8931266665 
-5.225283146 21.74358749 -1.125390172 0.9143300056 
-5.132030964 17.82413483 -0.9334309101 0.9284052849 
-5.065864086 15.04264164 -0.7987876534 0.9384071827 
-5.016283989 12.95849133 -0.6992864609 0.9458678365 
-4.874042988 9.878915787 -0.5543658137 0.9568398595 
-5.125424862 9.319252968 -0.5352361798 0.9582977891 
-4.747260571 7.789521217 -0.4590660036 0.9641246796 
-5.51591301 7.465487957 -0.4671207964 0.9635068178 
-5.998529911 7.405356407 -0.4795948565 0.9625508189 
-6.988584042 7.209638596 -0.5053010583 0.960583508 
-8.096762657 6.987211704 -0.5382093787 0.958071053 
-10.54435539 6.885463715 -0.6337536573 0.9508135915 
-11.48539066 6.791020393 -0.671472609 0.9479637742 
-14.10862255 6.728144169 -0.786611855 0.9393170476 
-23.92091179 6.542817116 -1.24802494 0.90544945 
-38.5474472 6.934604168 -1.971021414 0.8548209667 
-38.81522751 5.212817192 -1.97089088 0.854829669 
-14.64739227 0.6521484256 -0.7378518581 0.9429690242 
-14.72231865 9.765624782e-06 -0.875893712 0.9427129626 
-14.81087875 -0.6595019102 -0.8820356727 0.9423230886 
-17.4363327 -3.944755793 -1.063581347 0.930871129 
-16.87197304 -4.614843845 -1.040657282 0.9323093295 
-16.98391151 -5.468325138 -1.061527967 0.9309996963 
-22.50776863 -8.36903286 -1.428657174 0.9082612395 
-28.28806496 -11.9761858 -1.827594876 0.8841819763 
-26.46735382 -15.64956474 -1.829320192 0.8840790391 
-25.75477982 -16.81784058 -1.83001709 0.8840376139 
-24.99123955 -17.95410538 -1.830758333 0.8839936256 
-23.31713295 -20.12197304 -1.832368255 0.883897543 
-22.40951157 -21.14928246 -1.833234191 0.8838460445 
-21.11691856 -21.78512192 -1.805057287 0.8855249882 
-20.4616642 -23.08048248 -1.835079551 0.883736372 
-9.677050591 -14.39587879 -1.031992435 0.9328535795 
-9.967103958 -16.35451698 -1.139456511 0.9261260033 
-7.219965458 -13.12752914 -0.8913441896 0.9417325854 
-5.323007584 -13.75095177 -0.8772588372 0.9426262975 
-3.94983387 -13.71834946 -0.8493198156 0.9444018006 
-3.292973518 -13.70273876 -0.8384460807 0.945093751 
-0.7901220322 -13.64330578 -0.8130601048 0.9467110634 
-0.1819482446 -13.62886715 -0.8109126091 0.9468479753 
0.4242138565 -13.61445236 -0.8103758693 0.9468821883 
1.030776381 -13.60004807 -0.8114463091 0.946813941 
4.156484127 -13.52581501 -0.8418475986 0.9448772073 
4.582709789 -12.84721661 -0.8115074039 0.9468100071 
8.106291771 -12.78351021 -0.9005683064 0.9411476254 
15.63473797 -20.39123535 -1.528723359 0.9021604657 
15.55257511 -16.92638588 -1.367573261 0.9120056629 
15.51752663 -15.44862747 -1.302715063 0.9159984589 
16.53351974 -12.56043911 -1.235309839 0.9201663733 
22.50933266 -12.77412605 -1.539794326 0.9014877677 
24.93035507 -12.71661568 -1.66502738 0.8939161897 
30.1450634 -9.116940498 -1.873687744 0.8814412355 
33.37948608 -6.929599285 -2.028230667 0.8723139167 
33.86720276 -3.935878754 -2.028467894 0.872300148 
34.00938034 -2.425478458 -2.028506041 0.8722979426 
34.08340836 -0.910195291 -2.028490305 0.8722986579 
30.11923981 4.591982365 -1.812630415 0.885073483 
15.56719971 3.087509632 -0.944200635 0.9383859634 
29.83350563 10.19502449 -1.875701547 0.8813217282 
29.32013512 11.50013161 -1.873763084 0.8814367652 
28.74921799 12.77953625 -1.871784329 0.8815540075 
28.12368584 14.03151989 -1.869885325 0.8816668391 
26.71591187 16.44521904 -1.86643827 0.8818715811 
23.29465675 20.83737183 -1.859456778 0.8822863102 
21.29975319 22.77113533 -1.855041027 0.8825486898 
20.25592232 23.68457985 -1.854142308 0.8826021552 
18.03627396 25.34288597 -1.850614786 0.882811904 
14.46243858 27.4416523 -1.845479846 0.8831173182 
7.988959789 16.94608116 -1.114614487 0.9276769161 
6.862919807 16.41340256 -1.058430433 0.931194067 
6.264062405 17.07888794 -1.082283735 0.9296991229 
6.164482117 19.44223022 -1.213453531 0.9215219617 
4.446166992 16.5442028 -1.019209385 0.9336570501 
3.670346498 16.56550217 -1.009456277 0.9342707992 
-0.1368652284 30.76023293 -1.830078721 0.8840340376 
-1.504067302 30.70316887 -1.828856587 0.8841068149 
-1.863491178 19.88360786 -1.188139439 0.9230939746 
-4.221713543 30.40987778 -1.826565146 0.8842431307 
-5.29646492 22.93628883 -1.400488496 0.9099860191 
-5.148207664 18.498106 -1.142359614 0.9259450436 
-5.025297642 13.33316422 -0.8477181792 0.9445036054 
-5.038862228 9.358080864 -0.6323316693 0.9583052397 
-4.693471432 7.118173599 -0.5072634816 0.9664117098 
-5.239750862 7.225405216 -0.5310056806 0.9648675323 
-5.584877968 7.021508694 -0.5337678194 0.9646880627 
-7.163974285 6.882656097 -0.5910453796 0.9609738588 
-7.951528072 6.986357212 -0.6297309995 0.9584732056 
-8.539301872 6.854384422 -0.6514625549 0.9570713043 
-9.35986805 6.85135746 -0.6901049614 0.9545836449 
-12.60223579 6.858198166 -0.8535965681 0.9441298842 
-13.90892506 6.78554678 -0.9207249284 0.9398708344 
-14.71677208 1.445356369 -0.8797758818 0.9424664974 
-14.61739731 0.781289041 -0.8708940148 0.9430305362 
-14.79306126 -0.5268456936 -0.8806607127 0.9424103498 
-14.9286375 -1.198305607 -0.8910245895 0.9417527318 
-18.07182121 -3.919794798 -1.100172043 0.9285798073 
-16.9305706 -5.285322189 -1.055212498 0.9313958287 
-22.5245266 -8.147841454 -1.425064087 0.9084812403 
-22.49776268 -9.289569855 -1.448104501 0.9070724249 
-27.84988785 -12.97822762 -1.827988267 0.8841584921 
-27.25294304 -14.20836353 -1.828517556 0.8841267824 
-20.89197159 -14.72901344 -1.520796299 0.9026422501 
-24.34475136 -18.83862305 -1.831382275 0.8839563131 
-23.49312019 -19.91182518 -1.832199931 0.8839076161 
-21.65112686 -21.94208908 -1.833954573 0.8838030696 
-20.66411018 -22.8950882 -1.834888577 0.8837476969 
-17.08269501 -20.70939827 -1.597174048 0.89801085 
-10.82997036 -14.38810539 -1.071403861 0.9303807616 
-9.788637161 -14.28564453 -1.030295491 0.9329602718 
-7.374955654 -13.13120556 -0.8960133791 0.9414363503 
-6.615483284 -13.11317348 -0.8738194704 0.9428448677 
-6.195288181 -13.77166462 -0.8984242678 0.9412835836 
-5.465556622 -13.7543354 -0.8805449605 0.9424178004 
-3.423012733 -13.70583439 -0.8404641747 0.9449651837 
-2.778681517 -13.69052696 -0.8311152458 0.9455604553 
-2.147289991 -13.67553711 -0.8235844374 0.9460401535 
-1.526015639 -13.66077614 -0.8177953959 0.9464092255 
0.3030273318 -13.61733818 -0.8103553653 0.9468835592 
0.909316361 -13.60293388 -0.8111046553 0.9468358159 
2.131328106 -13.57390594 -0.8174661994 0.9464302063 
3.382641554 -13.54418468 -0.8305541277 0.9455962777 
4.488066196 -12.94480896 -0.8151162267 0.9465798736 
6.488051414 -12.86060047 -0.8569873571 0.9439142942 
7.717704773 -13.74146938 -0.9376572967 0.9387996793 
7.957131386 -12.79874516 -0.8966171145 0.9413981438 
15.64404774 -20.78386688 -1.547657132 0.9010106325 
15.59964848 -18.91150856 -1.458515644 0.9064366817 
19.50826836 -12.49265099 -1.37821281 0.9113523364 
27.17414093 -12.66331482 -1.783632278 0.8868037462 
29.14564323 -12.03452587 -1.876002431 0.881303668 
30.06692314 -9.386164665 -1.873949885 0.8814257383 
33.31587982 -7.22627449 -2.028195143 0.8723161221 
33.60694122 -5.737524509 -2.028351307 0.8723069429 
34.07409668 -1.213508248 -2.028497696 0.8722981811 
33.74129486 4.837331295 -2.02794075 0.8723310828 
13.49784851 3.180268526 -0.8250348568 0.9459478259 
13.24834728 3.750754356 -0.8191806674 0.9463208318 
28.86789703 12.52583027 -1.872183204 0.8815305233 
28.25263596 13.78322601 -1.870230317 0.8816463947 
27.58606339 15.01245689 -1.868505478 0.8817489147 
26.09443855 17.3728714 -1.865064025 0.8819532394 
25.22888947 18.46748924 -1.860130429 0.8822463155 
24.4016304 19.58684349 -1.861595511 0.8821593523 
23.48370552 20.63317871 -1.859816432 0.8822650909 
20.46971703 23.507761 -1.854491115 0.8825815916 
19.3504982 24.32812881 -1.849402308 0.8828841448 
18.2645359 25.18613052 -1.85096705 0.8827911615 
15.92387676 26.65975761 -1.847497463 0.8829972744 
14.70876217 27.31679344 -1.84581244 0.8830974698 
7.04855442 16.44464874 -1.0644449 0.93081671 
6.256508827 19.13955116 -1.197988749 0.9224821925 
3.824809551 16.56332397 -1.011356235 0.934151113 
3.333691359 18.06921768 -1.093158722 0.9290184975 
4.238735199 30.53240585 -1.833926916 0.8838049173 
2.874394417 30.66991615 -1.832681179 0.8838789463 
1.506240249 30.74748421 -1.831497192 0.8839496374 
0.1368945241 30.76428223 -1.830317855 0.8840196729 
-1.230932593 30.71939468 -1.829099536 0.8840924501 
-3.951401234 30.44989204 -1.826782823 0.8842300773 
-5.274516582 23.80566788 -1.450648427 0.9069169164 
-5.271669865 19.61592293 -1.208444357 0.9218327999 
-5.034672737 13.72694302 -0.8698728085 0.943095386 
-4.885644436 10.36338806 -0.681643486 0.9551277757 
-5.398139477 9.223027229 -0.6357926726 0.9580817819 
-4.625161171 7.152265549 -0.5067382455 0.9664458036 
-6.486284256 6.93433094 -0.5649052262 0.9626671672 
-7.055107117 6.89985323 -0.5871055722 0.9612287879 
-7.895327091 7.062456131 -0.6302313209 0.9584408402 
-8.449262619 6.90664053 -0.649256289 0.9572134614 
-9.280649185 6.921064377 -0.6887768507 0.9546688795 
-15.34382248 6.82060051 -0.9989939928 0.9349290133 
-17.06105995 6.691801548 -1.090320826 0.9291960001 
-19.31175232 6.599389553 -1.21417284 0.9214771986 
-22.30781746 6.530531883 -1.382890701 0.91106534 
-32.82725143 5.004863262 -1.97560513 0.8754115105 
-20.13497925 2.158549786 -1.204779983 0.9220603108 
-14.60001469 0.9107323885 -0.8703061342 0.9430678487 
-14.77529716 -0.394570291 -0.8793602586 0.9424929619 
-14.86468697 -1.060131788 -0.8866101503 0.942032814 
-32.98961258 -3.833881855 -1.975905776 0.8753937483 
-32.79023361 -5.29820776 -1.976133347 0.8753801584 
-19.17916489 -3.981591702 -1.165379286 0.9245104194 
-22.47694778 -9.047665596 -1.441525698 0.9074745178 
-27.37668419 -13.96445274 -1.82840848 0.8841332197 
-24.50927734 -18.61961937 -1.831223726 0.8839658499 
-22.77804184 -20.74310493 -1.83288312 0.8838669062 
-19.84451675 -23.62602043 -1.835661292 0.8837016225 
-12.58735371 -16.41676712 -1.230758905 0.9204484224 
-9.899980545 -14.17589283 -1.028695226 0.9330609441 
-10.37690449 -16.36424828 -1.152822733 0.9252927303 
-9.369585037 -16.34033203 -1.120634913 0.9273007512 
-6.321855545 -13.72518539 -0.8990266919 0.9412453175 
-5.609194279 -13.75775337 -0.8839245439 0.9422032833 
-1.649584889 -13.66371059 -0.8188164234 0.9463440776 
-0.4248388708 -13.63462353 -0.8115765452 0.946805656 
1.395898461 -13.59138107 -0.8128625154 0.9467235804 
3.896171808 -13.53199673 -0.8377838135 0.945135951 
4.969614029 -12.83800793 -0.8190189004 0.946331203 
6.348505497 -12.86748981 -0.8536478877 0.944126606 
7.559687138 -13.745224 -0.9332845807 0.9390761256 
8.572321892 -12.75244617 -0.9141833782 0.9402851462 
15.6081152 -19.26859856 -1.475279927 0.905413568 
15.56760216 -17.56005287 -1.396158695 0.910251379 
15.53113937 -16.02259254 -1.327590346 0.9144650102 
23.91610718 -12.74071789 -1.612181783 0.897103548 
26.58373642 -12.6773386 -1.752216339 0.8886821866 
29.05517197 -12.30097103 -1.877153277 0.8812354803 
29.98723984 -9.655014038 -1.874264121 0.8814070225 
31.33831787 -8.571689606 -1.932939053 0.8779307604 
33.24964523 -7.522328854 -2.028157711 0.8723183274 
33.55407715 -6.036315918 -2.028324366 0.8723086119 
34.05945206 1.516584396 -2.028352976 0.8723069429 
29.53249359 10.98104382 -1.874543548 0.8813903332 
28.37950134 13.53372574 -1.870579481 0.8816256523 
27.72369003 14.76908302 -1.86885035 0.8817284703 
27.01434517 15.97300529 -1.867126703 0.8818306923 
26.25284195 17.14307404 -1.865407348 0.8819329143 
25.44057083 18.27694702 -1.863672018 0.8820359707 
24.57955551 19.37253189 -1.861940384 0.8821386695 
22.71690369 21.43938637 -1.858381271 0.8823503852 
21.71995544 22.40725517 -1.856601715 0.8824558854 
19.56817627 24.15735245 -1.849581718 0.8828732371 
18.49152946 25.02737427 -1.851320624 0.8827700019 
17.34347153 25.80068016 -1.849564433 0.8828743696 
14.95397186 27.18972397 -1.846146464 0.8830776215 
6.378569126 18.94052887 -1.189040542 0.9230385423 
3.365869045 17.37555122 -1.052966118 0.9315369725 
0.4107568264 30.76591682 -1.830559492 0.8840052485 
-0.9576416016 30.7332859 -1.829345107 0.8840777278 
-2.071342707 27.32909203 -1.630587101 0.8959920406 
-5.030282974 30.27581406 -1.82592845 0.88428092 
-5.183891296 19.99765015 -1.229070425 0.9205530882 
-5.103193283 16.60658646 -1.033594012 0.9327529669 
-5.04454565 14.14195251 -0.8932902217 0.941609025 
-4.865971565 9.435556412 -0.6316142082 0.9583515525 
-4.904824257 7.023261547 -0.5096545219 0.9662562013 
-5.417543888 7.065712929 -0.5297140479 0.9649515748 
-5.860663891 6.977450848 -0.5421254039 0.9641453028 
-6.995649338 6.964584827 -0.5872920156 0.9612166882 
-8.162261009 6.794106483 -0.6318238974 0.9583380222 
-9.136792183 6.941162109 -0.6826588511 0.955062449 
