# .PCD v0.7 - Point Cloud Data file format
VERSION 0.7
FIELDS x y z intensities
SIZE 4 4 4 4
TYPE F F F F
COUNT 1 1 1 1
WIDTH 925
HEIGHT 1
VIEWPOINT 0 0 0 1 0 0 0
POINTS 925
DATA ascii
10.88787842 7.109767914 -1.855103135 0.9488152266 
10.55967712 7.586227894 -1.854899883 0.9488207102 
10.21057606 8.04753685 -1.854685664 0.9488264322 
9.841299057 8.492736816 -1.854460716 0.9488324523 
8.819926262 8.323918343 -1.73012507 0.9521796703 
9.062766075 9.349528313 -1.85758388 0.948748529 
8.634714127 9.739855766 -1.856902599 0.9487668276 
8.189921379 10.11063194 -1.856227875 0.948785007 
7.253703594 10.79083729 -1.854903102 0.948820591 
6.764140606 11.09895706 -1.854255676 0.9488379955 
5.747001648 11.64831066 -1.852997184 0.9488717914 
5.221435547 11.8885107 -1.85238862 0.9488881826 
4.685913086 12.10514164 -1.851795197 0.9489040971 
3.589277267 12.46605968 -1.850658774 0.9489346743 
1.323915958 12.89037609 -1.848617554 0.9489895105 
0.7490087748 12.93331528 -1.848161221 0.9490017891 
-0.9784277081 12.90936947 -1.846935868 0.9490346909 
-1.551411152 12.85057068 -1.846577883 0.9490443468 
-2.686508656 12.65745544 -1.845941782 0.9490614533 
-4.34553194 12.18234825 -1.84519577 0.9490815401 
-5.856962681 11.35717297 -1.822980762 0.9496788383 
-5.052099705 7.234155178 -1.25878489 0.9649761319 
-5.306650162 6.921069145 -1.244189978 0.9653750658 
-5.868906021 6.987285137 -1.301779866 0.9638017416 
-6.390741825 6.955248833 -1.34749794 0.9625546336 
-6.78235817 6.752245903 -1.365323901 0.9620687962 
-7.568232059 6.892094612 -1.460295796 0.9594843984 
-8.981889725 6.823486328 -1.609183311 0.9554468989 
-10.57727051 6.641449928 -1.781753182 0.9507883787 
-11.50566387 5.868891239 -1.842609406 0.9491510987 
-11.75433064 5.350932598 -1.84249115 0.9491551518 
-13.18628883 4.637617111 -1.994117856 0.9450870156 
-13.54528332 3.447006702 -1.993964911 0.9450910091 
-13.68486309 2.840986252 -1.993911386 0.9450923204 
-13.79740238 2.229374886 -1.993873119 0.9450934529 
-13.88279247 1.613398433 -1.99385035 0.9450939298 
-13.94954109 -0.8701660037 -1.993913651 0.9450923204 
-13.89739227 -1.489873052 -1.99396801 0.9450908899 
-13.71104431 -2.719370127 -1.994122148 0.9450867176 
-13.41651344 -3.927660942 -1.994336247 0.9450810552 
-13.22937489 -4.52088356 -1.994464993 0.9450775981 
-12.51289558 -6.242963791 -1.994936228 0.9450649619 
-11.91077137 -7.331791878 -1.995317698 0.9450548291 
-11.57407188 -7.855199814 -1.995527506 0.9450491071 
-11.21436501 -8.363193512 -1.995749593 0.9450434446 
-10.83257771 -8.854819298 -1.995983362 0.9450369477 
-10.00516605 -9.785038948 -1.996484637 0.9450235963 
-9.561249733 -10.22179222 -1.996750951 0.9450164437 
-9.011064529 -10.53648949 -1.977885604 0.9455217123 
-8.206796646 -10.50849056 -1.902146816 0.9475518465 
-6.034257889 -11.44966793 -1.8463763 0.9490498304 
-5.519863129 -11.70865726 -1.846675038 0.9490417838 
-4.458818436 -12.15695763 -1.847287536 0.9490253329 
-3.914306641 -12.34535122 -1.847600222 0.9490169287 
-3.361840725 -12.50939465 -1.847916365 0.9490084052 
-2.80251956 -12.64875507 -1.84823525 0.9489997625 
-2.237465858 -12.76310062 -1.848556519 0.9489912391 
-1.667812467 -12.85223579 -1.848879218 0.9489825368 
-1.094624043 -12.91596603 -1.849202871 0.9489738345 
-0.5190331936 -12.95414543 -1.849526763 0.9489651322 
1.210371017 -12.91473103 -1.850494027 0.9489391446 
1.783974528 -12.85032177 -1.850812674 0.9489305615 
2.354238272 -12.76042461 -1.851128459 0.9489220381 
3.480224609 -12.50486279 -1.851748943 0.9489054084 
4.033725262 -12.33969212 -1.852052212 0.9488972425 
4.579384804 -12.14999962 -1.852350116 0.9488891959 
5.116122723 -11.93614674 -1.852642179 0.9488813877 
9.144521713 -9.603427887 -1.891786098 0.9478299618 
9.938407898 -9.548144341 -1.96611917 0.945836544 
10.57379818 -9.290322304 -2.007992029 0.9447155595 
11.71964836 -7.802567959 -2.008573771 0.9446999431 
12.9197216 -5.605876446 -2.009156704 0.9446843863 
13.36820316 -4.435854435 -2.009360552 0.9446789026 
13.55282211 -3.836945772 -2.009439707 0.9446768165 
13.71051025 -3.230370998 -2.009503365 0.9446751475 
13.94392776 -1.999091744 -2.009584188 0.9446729422 
14.01917458 -1.376818776 -2.009601355 0.9446724653 
14.06655693 -0.7518286109 -2.009602547 0.9446724653 
13.97637939 1.750466228 -2.009450436 0.9446765184 
13.88417435 2.370353937 -2.009373665 0.9446784854 
13.76433563 2.985490561 -2.009281635 0.9446809888 
13.61715794 3.594658136 -2.009174347 0.9446839094 
13.24207973 4.790100098 -2.008915901 0.9446908236 
10.95096397 7.012736797 -1.855142355 0.9488141537 
10.62699699 7.492136002 -1.854941368 0.9488195777 
9.91672802 8.405024529 -1.854506493 0.9488312602 
9.553085327 8.856442451 -1.858407974 0.948726356 
9.146284103 9.269199371 -1.857720733 0.9487448335 
6.363080978 11.32954788 -1.853746176 0.9488517046 
5.327373028 11.84236336 -1.852509141 0.9488849044 
4.793764591 12.06372547 -1.851912498 0.948900938 
4.251054764 12.2611866 -1.851332188 0.9489165545 
3.700302601 12.43435478 -1.850769162 0.948931694 
3.142592669 12.58295918 -1.850224614 0.9489462972 
0.288168937 12.94933033 -1.847812891 0.949011147 
-1.437021494 12.86434078 -1.846647263 0.9490425587 
-3.689677715 12.39871025 -1.845463514 0.9490743279 
-4.775971413 12.01896 -1.845040441 0.9490856528 
-5.305400372 11.79354 -1.844872713 0.9490901828 
-5.824330807 11.54500008 -1.84473455 0.9490938783 
-5.831992149 10.38396931 -1.699028254 0.9530186653 
-5.779130936 9.295497894 -1.561491966 0.9567382932 
-5.26346159 6.992763519 -1.24860692 0.9652543068 
-5.755839825 6.977817059 -1.290422916 0.964111805 
-7.52345705 6.974804401 -1.463577271 0.9593952894 
-8.075014114 6.84405756 -1.510093212 0.9581321478 
-8.781879425 6.795639515 -1.584120393 0.956125319 
-11.45315361 5.971122742 -1.842634559 0.9491503835 
-11.70666981 5.455380917 -1.842513561 0.9491536021 
-12.5824604 5.195424557 -1.942018032 0.94648242 
-13.14464283 4.75484848 -1.994136453 0.9450864196 
-13.3426075 4.165244102 -1.99404943 0.9450885653 
-13.51416969 3.567436457 -1.993977666 0.9450905919 
-13.65909195 2.96265626 -1.993920803 0.9450921416 
-13.77706528 2.3520751 -1.993879676 0.9450932741 
-13.86789036 1.736879826 -1.993853688 0.9450939298 
-13.93134212 1.118247032 -1.993843198 0.9450942278 
-13.96734333 0.4974365234 -1.993848205 0.945094049 
-13.97578621 -0.1243750006 -1.993868709 0.9450935125 
-13.91002941 -1.366127849 -1.993955851 0.945091188 
-13.60611343 -3.20578599 -1.994200706 0.9450846314 
-13.4507761 -3.808066368 -1.994312048 0.9450817108 
-13.06083965 -4.989150047 -1.994578481 0.9450745583 
-12.82697201 -5.565634727 -1.994732738 0.9450703859 
-12.56774426 -6.131249905 -1.994900942 0.9450659156 
-12.28365231 -6.68484354 -1.995082498 0.9450611472 
-11.64327145 -7.751728535 -1.995484591 0.9450502396 
-11.28812981 -8.262875557 -1.995704174 0.9450445175 
-10.51159191 -9.235653877 -1.996178508 0.9450317025 
-9.651699066 -10.1359911 -1.996696711 0.9450176954 
-8.362763405 -10.51397419 -1.916535616 0.9471657872 
-7.611943245 -10.49613762 -1.84966445 0.9489605427 
-7.122021198 -10.80134773 -1.845740795 0.9490668178 
-6.635517597 -11.1091795 -1.846025825 0.9490591884 
-6.135742188 -11.39516068 -1.84631741 0.9490513206 
-5.100331783 -11.8992672 -1.846917868 0.9490351677 
-4.566679478 -12.11638165 -1.847225428 0.9490270019 
-4.023876667 -12.30961418 -1.847537398 0.9490185976 
-3.47288084 -12.47855473 -1.847852945 0.9490101337 
-2.350878954 -12.74224091 -1.848492026 0.9489929676 
-1.209477544 -12.90526867 -1.849138141 0.948975563 
-0.05771484226 -12.96623993 -1.849785686 0.9489581585 
0.5192528963 -12.95823193 -1.850108624 0.9489494562 
1.095356464 -12.92454052 -1.850429893 0.9489408731 
2.807294846 -12.67025852 -1.85137856 0.9489153028 
3.368691444 -12.53492165 -1.851687551 0.9489070773 
4.470908165 -12.18988228 -1.852291107 0.9488908052 
5.009535789 -11.98083019 -1.852584362 0.9488829374 
6.056425571 -11.49167919 -1.853150845 0.9488676786 
7.535292625 -10.58785629 -1.853942633 0.9488463998 
8.4486866 -9.878796577 -1.854425669 0.9488334656 
8.992741585 -9.613905907 -1.878011942 0.9481998086 
9.774709702 -9.559597015 -1.950489044 0.9462553859 
11.28527069 -8.416020393 -2.008355141 0.9447058439 
12.3081398 -6.840825081 -2.008864164 0.9446922541 
12.60114956 -6.286982059 -2.009006023 0.9446884394 
12.86918163 -5.720551491 -2.009133101 0.9446849823 
13.3280859 -4.554596901 -2.009342909 0.9446793795 
13.51803684 -3.957368135 -2.009425163 0.9446772337 
13.81708241 -2.740402699 -2.00954318 0.944674015 
13.92555428 -2.123095751 -2.009579182 0.9446730614 
14.08135223 0.3760546744 -2.009564877 0.944673419 
14.05037594 1.002053142 -2.0095222 0.9446746111 
13.64876938 3.473347187 -2.009196997 0.9446833134 
13.28437424 4.672126293 -2.008944273 0.9446900487 
12.8145628 5.833432674 -2.00863409 0.9446983933 
11.39762211 6.468183517 -1.869573593 0.9484264255 
11.01316643 6.915153503 -1.855181217 0.9488130808 
10.69350052 7.397409439 -1.854982615 0.9488185048 
10.35268021 7.864884853 -1.854772568 0.9488241076 
9.63223362 8.771720886 -1.858545899 0.9487227201 
9.229086876 9.188107491 -1.857857943 0.9487411976 
7.915390491 10.32344723 -1.855826735 0.9487957358 
5.201542854 8.202754021 -1.385650635 0.9615150094 
6.464086533 11.27324677 -1.853872776 0.9488483071 
5.432900429 11.79523373 -1.852630258 0.9488817453 
4.901245117 12.02135754 -1.852030635 0.948897779 
4.360273361 12.22362232 -1.851446986 0.948913455 
3.811039925 12.40168476 -1.850880384 0.9489287138 
3.254638672 12.55521965 -1.850332022 0.9489434361 
2.692138672 12.68393993 -1.849802852 0.9489576817 
2.124658108 12.78762627 -1.849294066 0.9489713311 
1.553290963 12.86607361 -1.848806381 0.9489845037 
0.4034179449 12.94684982 -1.847898483 0.949008882 
-0.172871083 12.94905281 -1.847480178 0.9490200877 
-0.7485644221 12.92579079 -1.84708631 0.9490306973 
-1.322548747 12.8771286 -1.846717954 0.9490405917 
-3.023183584 12.58007812 -1.845772147 0.9490659833 
-3.579296827 12.43137169 -1.845512033 0.9490730762 
-4.128227234 12.25832462 -1.845280409 0.9490792155 
-4.66891098 12.06122017 -1.845077515 0.9490846992 
-5.837910175 10.61465263 -1.728204608 0.9522314668 
-5.195478439 7.031801701 -1.247272491 0.9652907848 
-7.908974648 6.825185299 -1.490342498 0.9586682916 
-8.706439972 6.862030983 -1.581470251 0.9561971426 
-9.737744331 6.995747089 -1.710524559 0.9527085423 
-11.1191206 6.574477196 -1.84279716 0.9491460323 
-11.39971638 6.072905064 -1.842660427 0.9491496682 
-11.65778255 5.559409142 -1.842536569 0.9491530657 
-12.31907177 5.215473652 -1.908454657 0.9473825693 
-13.30505848 4.283852577 -1.994065642 0.9450883269 
-13.63225079 3.08411622 -1.993931055 0.9450919032 
-13.75564957 2.4745996 -1.993886709 0.9450930357 
-13.85190868 1.860224605 -1.993857503 0.9450938106 
-13.96269512 -0.6217187643 -1.993896127 0.9450927973 
-13.92156219 -1.242250919 -1.993944407 0.945091486 
-13.85295868 -1.86035645 -1.994007826 0.945089817 
-13.75702095 -2.474882841 -1.994086623 0.9450877309 
-13.48397446 -3.688173771 -1.994288564 0.9450823069 
-13.30744076 -4.284614086 -1.994411707 0.9450787902 
-12.6215868 -6.019032955 -1.994866252 0.9450668693 
-12.0389061 -7.118369102 -1.995237231 0.9450568557 
-10.17721653 -9.604907036 -1.996380925 0.9450263977 
-9.285761833 -10.47423363 -1.996915579 0.945012033 
-7.752197266 -10.4923439 -1.861085892 0.9486546516 
-6.236699104 -11.33973598 -1.846258521 0.9490529299 
-4.674228191 -12.07488251 -1.847163677 0.949028492 
-3.027011633 -12.59598637 -1.848107457 0.9490032792 
-1.3242383 -12.89355946 -1.849073291 0.948977232 
0.4038769305 -12.9618845 -1.850044012 0.9489511847 
0.9802636504 -12.93333912 -1.850365877 0.9489425421 
2.126621008 -12.79942322 -1.851002574 0.9489254355 
2.694340706 -12.69431591 -1.851316333 0.9489169717 
3.256904125 -12.56399918 -1.851626277 0.9489086866 
3.813193321 -12.40871048 -1.851931453 0.9489005208 
5.95372057 -11.54476547 -1.853095531 0.9488692284 
6.958273888 -10.9731226 -1.853635073 0.9488546848 
7.440561295 -10.65419865 -1.853892326 0.9488477707 
8.360239029 -9.953356743 -1.854379058 0.9488346577 
8.846282005 -9.627709389 -1.865251064 0.9485425949 
10.81873035 -9.005292892 -2.008117676 0.944712162 
11.2097044 -8.515956879 -2.008316994 0.9447069168 
11.57850552 -8.009623528 -2.00850296 0.94470191 
12.24659634 -6.949987411 -2.008834362 0.9446930289 
12.5445385 -6.398788929 -2.008978844 0.9446891546 
13.06521416 -5.259128094 -2.009224176 0.9446825981 
13.28689194 -4.67298317 -2.009324789 0.9446799159 
13.48217487 -4.077475548 -2.009409904 0.9446776509 
13.65070248 -3.473837852 -2.009479761 0.944675684 
13.99242115 -1.62613523 -2.009596348 0.9446725845 
14.08155251 -0.376059562 -2.009595633 0.9446727037 
14.08418941 0.2507373095 -2.009571552 0.9446732402 
14.00550747 1.501464844 -2.0094769 0.9446758032 
13.67929649 3.35178709 -2.00921917 0.9446827173 
13.10891819 5.141682148 -2.008826971 0.9446931481 
12.5979538 6.285390377 -2.008494616 0.9447020888 
11.64927197 6.47462368 -1.901326895 0.9475739002 
11.07449436 6.81700182 -1.855219483 0.9488121271 
10.75915527 7.302121639 -1.855023146 0.9488173127 
10.42250443 7.772624493 -1.854815483 0.9488229752 
9.311166763 9.106281281 -1.857995152 0.9487375021 
8.893593788 9.507961273 -1.857310653 0.9487559199 
7.065685749 8.261679649 -1.550863266 0.9570263028 
7.059506893 10.91670418 -1.854642749 0.9488275647 
6.56463623 11.21603489 -1.853999853 0.9488448501 
6.057133675 11.49304676 -1.853369236 0.9488617778 
5.538017273 11.74720192 -1.85275209 0.9488784075 
3.406064272 8.14600563 -1.259605765 0.9649536014 
4.469145298 12.1850872 -1.851562262 0.9489104152 
2.805068254 12.66019058 -1.84990716 0.9489548802 
2.23850584 12.76890564 -1.849394202 0.9489685893 
-0.05760741979 12.95064449 -1.847561955 0.949017942 
-0.6335058212 12.93249035 -1.847163081 0.9490285516 
-1.779775381 12.8199749 -1.846441865 0.9490480423 
-2.347900391 12.72590351 -1.846121192 0.9490566254 
-3.468613148 12.46307564 -1.845561743 0.9490717053 
-4.561484337 12.10253906 -1.845115781 0.9490836859 
-5.094843864 11.88649845 -1.844936371 0.9490885139 
-5.844042778 10.85343266 -1.758542776 0.9514136314 
-5.104316235 7.741274357 -1.322834492 0.9632271528 
-5.142792702 7.091723442 -1.249731541 0.9652235508 
-5.534618855 6.958324909 -1.268396616 0.9647134542 
-6.537382603 6.865483284 -1.352437139 0.9624199867 
-7.259194374 6.974154949 -1.43609488 0.9601423144 
-8.608466148 6.90986824 -1.574778557 0.9563783407 
-10.22868633 6.809897423 -1.753045917 0.9515618086 
-10.99007797 6.630883694 -1.831119299 0.94945997 
-11.34539986 6.174199104 -1.842686772 0.949148953 
-13.26654243 4.402123928 -1.994082451 0.9450878501 
-13.60446262 3.205361366 -1.993941665 0.9450911283 
-13.90925789 1.366049767 -1.993845463 0.9450941682 
-13.96761703 -0.4974658191 -1.993888378 0.9450930357 
-13.93196297 -1.118334889 -1.993933558 0.9450918436 
-13.86886215 -1.737036109 -1.993993998 0.9450901747 
-13.77838326 -2.352329016 -1.994069576 0.9450881481 
-13.51611328 -3.567993164 -1.994265914 0.9450829029 
-13.14718723 -4.75577116 -1.994520545 0.9450760484 
-12.10153294 -7.010776043 -1.995197654 0.9450579882 
-11.77887154 -7.542929649 -1.995400071 0.9450526237 
-11.43292904 -8.060293198 -1.995614886 0.9450467825 
-11.06403828 -8.561825752 -1.995841742 0.9450416565 
-9.830053329 -9.962109566 -1.99658978 0.9450204372 
-8.681850433 -10.52510738 -1.946427107 0.9463643432 
-7.312675476 -10.67223167 -1.845628738 0.9490698576 
-5.310952187 -11.80582523 -1.846796036 0.9490385056 
-4.781308651 -12.03238297 -1.847101808 0.9490302801 
-3.694228411 -12.41391087 -1.847726226 0.9490134716 
-2.577148438 -12.697505 -1.848363638 0.9489963651 
-1.438886642 -12.88079548 -1.84900856 0.9489790201 
-0.8646386266 -12.9343214 -1.849332333 0.9489703178 
0.8650976419 -12.94109344 -1.850301623 0.9489442706 
3.144853354 -12.59205532 -1.851564646 0.9489103556 
3.702495098 -12.4417572 -1.851870894 0.9489021301 
4.252978325 -12.2667284 -1.852172017 0.9488940239 
6.361581802 -11.32691383 -1.853315115 0.9488633275 
7.345221996 -10.71971703 -1.853841543 0.9488491416 
7.815859318 -10.38375664 -1.854091406 0.9488424659 
8.271100998 -10.02711678 -1.854332089 0.948835969 
8.710427284 -9.650407791 -1.854562998 0.9488289356 
9.454877853 -9.581899643 -1.920395613 0.9470621943 
10.27375507 -9.524577141 -1.998614788 0.9449666739 
10.73793888 -9.10102272 -2.008076429 0.9447132945 
12.76499748 -5.948569298 -2.009084225 0.9446863532 
13.01773453 -5.375158787 -2.00920248 0.9446831942 
13.44525623 -4.197289944 -2.00939393 0.9446780086 
13.6191473 -3.595178127 -2.009467125 0.9446760416 
13.88546371 -2.370610237 -2.009566545 0.944673419 
14.08590508 0.1253833026 -2.009577751 0.944673121 
14.06611538 0.7518359423 -2.009541273 0.9446741343 
13.83950138 2.61706543 -2.009338617 0.9446795583 
13.3657856 4.435053825 -2.008999586 0.9446886182 
13.15434265 5.024865627 -2.00885725 0.9446923733 
12.653615 6.173107624 -2.00853014 0.9447011948 
10.82394791 7.206212997 -1.855063438 0.9488162994 
10.49149895 7.679768085 -1.854857922 0.9488217831 
10.1383009 8.137907982 -1.854641557 0.9488276243 
9.788288116 8.600182533 -1.858822227 0.9487152696 
8.676012993 8.335356712 -1.716382146 0.9525503516 
8.547064781 9.815600395 -1.856767058 0.9487704635 
7.63531971 10.52882099 -1.855428576 0.9488064647 
4.406684399 8.183983803 -1.326017737 0.9631401896 
5.115092754 11.93373966 -1.852268577 0.9488914013 
3.477998018 12.49676704 -1.850549102 0.9489375949 
2.917817354 12.63544369 -1.850012183 0.9489520192 
1.121738315 8.080156326 -1.163770914 0.9675763249 
1.209062457 12.90100574 -1.848524451 0.9489920139 
-1.093237281 12.89963341 -1.846862197 0.9490367174 
-2.23459959 12.74671841 -1.846183181 0.949055016 
-2.798945189 12.6326561 -1.845884085 0.9490630031 
-3.909570217 12.33045387 -1.845369577 0.9490768313 
-5.514282227 11.69686985 -1.844813943 0.9490917921 
-5.850385666 11.10083485 -1.790120244 0.9505631328 
-5.127705097 7.204926491 -1.261593103 0.9648994207 
-6.47842741 6.925922871 -1.352935195 0.9624064565 
-6.999003887 6.844970703 -1.396614552 0.9612165093 
-7.663886547 6.855419636 -1.466922283 0.9593043923 
-8.580820084 7.014174461 -1.581081152 0.9562076926 
-10.78083992 6.636235237 -1.80602479 0.9501349926 
-11.2901268 6.275038719 -1.842713594 0.9491482973 
-11.83413029 5.260493279 -1.847543001 0.9490183592 
-13.01340771 5.104218483 -1.994195819 0.9450848103 
-13.41438484 3.927060366 -1.994018793 0.945089519 
-13.94903278 0.8700976372 -1.993843317 0.9450942874 
-13.97403336 0.248740226 -1.993854523 0.9450938702 
-13.94131851 -0.9942724109 -1.993923306 0.9450920224 
-13.88369083 -1.613496065 -1.993980646 0.9450904727 
-12.97037125 -5.220966816 -1.994638443 0.9450728893 
-12.72630787 -5.793232441 -1.994798422 0.9450685978 
-12.45705986 -6.354208946 -1.994971991 0.9450640082 
-12.16318798 -6.902695179 -1.995158792 0.9450590611 
-11.13981438 -8.462890625 -1.995795369 0.9450419545 
-10.34605408 -9.421787262 -1.996279001 0.9450289607 
-9.91784668 -9.873945236 -1.996537089 0.9450224638 
-9.470205307 -10.30675793 -1.996805429 0.945014894 
-8.845321655 -10.53077602 -1.961957693 0.9459478855 
-7.406850338 -10.60637665 -1.845573425 0.9490721226 
-6.437158108 -11.22621059 -1.846141577 0.9490560889 
-5.932333946 -11.50328541 -1.846435666 0.9490482211 
-4.350585938 -12.19658184 -1.847349763 0.9490236044 
-3.804384708 -12.38013649 -1.847663283 0.9490152001 
-2.123837948 -12.78295422 -1.848620892 0.9489895105 
-0.9796484113 -12.92566872 -1.849267721 0.9489720464 
-0.4037695229 -12.95870113 -1.849591613 0.9489634037 
0.7498486042 -12.94783211 -1.85023737 0.9489459991 
1.32530272 -12.90390587 -1.850557923 0.9489373565 
3.032548666 -12.61914062 -1.851502657 0.9489119649 
4.143486023 -12.30370617 -1.852112174 0.9488956332 
6.260370731 -11.38272476 -1.853260756 0.948864758 
6.76149416 -11.09458447 -1.853529811 0.9488575459 
7.249350548 -10.78435516 -1.853790402 0.9488505125 
7.722961426 -10.45261669 -1.854042292 0.9488437176 
9.298529625 -9.592758179 -1.905908108 0.9474508762 
10.1047287 -9.53646946 -1.982156157 0.9454070926 
10.6562767 -9.19604969 -2.008034468 0.944714427 
11.05594444 -8.713801384 -2.008238792 0.9447088838 
11.78882027 -7.698095322 -2.008608103 0.944699049 
12.12057114 -7.166647911 -2.008772373 0.9446946979 
12.96925735 -5.49070549 -2.009179831 0.9446837902 
13.40726089 -4.316716194 -2.009377718 0.9446784854 
13.58653545 -3.716181517 -2.009453773 0.9446763992 
13.86377621 -2.494045258 -2.009559393 0.9446735978 
13.96120834 -1.874897361 -2.009588957 0.944672823 
14.03088379 -1.252004385 -2.009602785 0.9446724653 
14.0726757 -0.6266186237 -2.009600878 0.9446725249 
14.08650398 2.441406195e-06 -2.009582996 0.9446729422 
14.0723114 0.626599133 -2.009549856 0.9446738958 
13.58447266 3.715629816 -2.00915122 0.9446845651 
13.40489483 4.316018105 -2.009026289 0.9446879029 
12.96635437 5.489550591 -2.008733034 0.9446957111 
12.70822525 6.060395241 -2.008565426 0.9447003603 
11.20230198 6.62351799 -1.85652864 0.9487757683 
10.88787079 7.10978508 -1.855103135 0.9488152266 
9.062766075 9.349528313 -1.85758388 0.948748529 
8.634721756 9.739848137 -1.856902599 0.9487668276 
8.189926147 10.1106348 -1.856227875 0.948785007 
6.764164925 11.09894276 -1.854255795 0.9488379955 
5.746972561 11.6483202 -1.852997065 0.9488717914 
5.221411228 11.88852978 -1.85238862 0.9488881826 
4.685903072 12.10515118 -1.851795197 0.9489040971 
3.589257717 12.46606445 -1.850658774 0.9489346743 
3.030283213 12.60969734 -1.850118041 0.9489492178 
1.896508694 12.82204533 -1.849096298 0.9489766359 
1.323915958 12.89037609 -1.848617554 0.9489895105 
-1.551396489 12.85057545 -1.846577883 0.9490443468 
-3.246435404 12.52354431 -1.84566474 0.9490689039 
-4.882666111 11.97573662 -1.845004559 0.9490866661 
-5.856962681 11.35714817 -1.822977304 0.9496788979 
-5.845869064 9.218852043 -1.557295084 0.9568520188 
-5.868906021 6.987285137 -1.301779866 0.9638017416 
-6.390741825 6.955248833 -1.34749794 0.9625546336 
-9.871874809 6.82904768 -1.712458253 0.9526562691 
-10.57731438 6.641449928 -1.781758189 0.9507881999 
-11.23402786 6.375331879 -1.842741013 0.9491475224 
-13.37901306 4.046284199 -1.994033933 0.9450891018 
-13.54528332 3.447006702 -1.993964911 0.9450910091 
-13.79740238 2.229374886 -1.993873119 0.9450934529 
-13.97417927 -0.248740226 -1.993874669 0.9450933337 
-13.8178463 -2.106635809 -1.994037628 0.9450890422 
-13.41651344 -3.927690268 -1.994336247 0.9450810552 
-13.22937489 -4.520907879 -1.994464993 0.9450775385 
-13.01609802 -5.105278015 -1.994608283 0.9450737834 
-12.77714348 -5.679682255 -1.994765282 0.9450694919 
-12.51289558 -6.242963791 -1.994936228 0.9450649619 
-12.22393036 -6.794028282 -1.995120406 0.9450600147 
-11.57407188 -7.855199814 -1.995527506 0.9450491071 
-10.83257771 -8.854819298 -1.995983362 0.9450369477 
-7.500449181 -10.53972626 -1.845518112 0.9490742087 
-6.53659153 -11.16814899 -1.846083641 0.9490576386 
-4.994374752 -11.94458961 -1.846979022 0.9490335584 
-4.458818436 -12.15695763 -1.847287536 0.9490253329 
-2.237465858 -12.76310062 -1.848556519 0.9489912391 
-1.667812467 -12.85223579 -1.848879218 0.9489825368 
-1.094624043 -12.91596603 -1.849202871 0.9489738345 
0.05767577887 -12.96668911 -1.849850416 0.94895643 
0.6345409751 -12.95353985 -1.850172997 0.9489477873 
1.784003854 -12.850317 -1.850812674 0.9489305615 
2.920058489 -12.64519024 -1.851440668 0.9489136934 
4.033725262 -12.33969212 -1.852052212 0.9488972425 
5.116122723 -11.93614674 -1.852642179 0.9488813877 
5.642885685 -11.69853973 -1.852927685 0.9488737583 
7.629408836 -10.52066898 -1.853992581 0.9488450885 
8.539101601 -9.806469917 -1.855039954 0.9488169551 
11.71966267 -7.80254364 -2.008573771 0.9446999431 
12.05614185 -7.274094105 -2.008740664 0.9446955323 
12.36872005 -6.731096268 -2.008893728 0.9446914792 
13.15701389 -5.025876522 -2.009266138 0.9446815252 
13.36820316 -4.435854435 -2.009360552 0.9446789026 
13.94392776 -1.999091744 -2.009584188 0.9446729422 
14.06655693 -0.7518578768 -2.009602547 0.9446724057 
14.08598137 -0.1253857464 -2.009588003 0.944672823 
14.04084206 1.127072692 -2.009511709 0.9446748495 
13.88417244 2.370383263 -2.009373665 0.9446784258 
13.76431084 2.985517502 -2.009281635 0.9446810484 
13.44295597 4.196584225 -2.009052515 0.9446871877 
13.24207973 4.790100098 -2.008915901 0.9446908236 
13.01491928 5.374001503 -2.008764982 0.9446948171 
12.76193047 5.947135925 -2.008599997 0.9446992874 
10.95096397 7.012736797 -1.855142355 0.9488141537 
10.2820406 7.956518173 -1.854729414 0.9488252997 
9.916743279 8.405007362 -1.854506612 0.9488312602 
9.146257401 9.269210815 -1.857720733 0.9487448931 
8.721672058 9.663347244 -1.857038379 0.9487631917 
7.822617054 10.39274597 -1.855693579 0.9487993121 
7.34995079 10.72661591 -1.855033875 0.9488170743 
4.124223709 8.175058365 -1.306261778 0.9636793137 
2.579013586 12.70667934 -1.849699497 0.9489604831 
0.8640966415 12.92676735 -1.848250508 0.9489993453 
0.2881445289 12.94933605 -1.847812891 0.949011147 
-0.8635546565 12.91809559 -1.847010493 0.9490326643 
-1.437060475 12.86433601 -1.846647263 0.9490425587 
-2.007519484 12.78534603 -1.846310377 0.9490516186 
-2.2207129 10.94136715 -1.592730641 0.9558923244 
-3.134921789 12.55230904 -1.845717907 0.9490674734 
-4.775971413 12.01896 -1.845040441 0.9490856528 
-5.824330807 11.54500008 -1.84473455 0.9490938783 
-6.250380516 6.925170898 -1.330840111 0.963008821 
-6.736708641 6.827201843 -1.368307114 0.9619874954 
-7.523476601 6.974790096 -1.463577032 0.9593952298 
-8.781879425 6.795639515 -1.584120393 0.956125319 
-9.80324173 6.911327839 -1.711151719 0.952691555 
-10.39130878 6.654340744 -1.760335922 0.9513653517 
-13.65908146 2.962690353 -1.993920803 0.9450921416 
-13.73458004 -2.597221613 -1.994104147 0.9450871944 
-13.60611343 -3.20578599 -1.994200706 0.9450846314 
-13.26890564 -4.402910233 -1.994438171 0.9450783134 
-11.9753027 -7.225322247 -1.995277166 0.9450559616 
-11.64330578 -7.751713753 -1.995484471 0.94505018 
-11.28831482 -8.262958527 -1.995704174 0.9450438023 
-10.9106636 -8.757880211 -1.995935678 0.9450381994 
-9.651620865 -10.13602066 -1.99669683 0.9450178146 
-9.179843903 -10.54227543 -1.994227529 0.945083797 
-7.611943245 -10.49613762 -1.84966445 0.9489605427 
-4.566709042 -12.11636734 -1.847225428 0.9490270019 
-3.472929716 -12.47855473 -1.847852945 0.9490100741 
-2.350859404 -12.74224567 -1.848492026 0.9489929676 
-1.782031178 -12.83644962 -1.848814607 0.9489842653 
-0.6342871189 -12.94857883 -1.849462032 0.9489668012 
-0.05768066272 -12.96623993 -1.849785686 0.9489581585 
1.095356464 -12.92454052 -1.850429893 0.9489408731 
1.669492126 -12.86525345 -1.850749135 0.9489322305 
2.240507841 -12.78042984 -1.851065636 0.9489237666 
2.807294846 -12.67025852 -1.85137856 0.9489153028 
3.368691444 -12.53492165 -1.851687551 0.9489070773 
6.056386471 -11.49168396 -1.853150845 0.9488677382 
6.562616825 -11.21252441 -1.853423119 0.9488603473 
7.055908203 -10.91105175 -1.853687286 0.9488532543 
7.535305023 -10.58784676 -1.853942633 0.9488463998 
8.992741585 -9.613905907 -1.878011942 0.9481998086 
9.774709702 -9.559597015 -1.950489044 0.9462553859 
10.89867878 -8.908835411 -2.008158684 0.9447110295 
11.28527069 -8.416020393 -2.008355141 0.9447058439 
11.64954853 -7.906413555 -2.008538723 0.9447008967 
12.86916256 -5.720583439 -2.009133101 0.9446850419 
13.3280735 -4.554624081 -2.009342909 0.9446793795 
13.51804924 -3.957343578 -2.009425163 0.9446771741 
13.68115711 -3.35220933 -2.00949192 0.944675386 
13.81709957 -2.740375996 -2.00954318 0.9446739554 
14.00635433 -1.501516104 -2.009599209 0.9446725249 
14.0593214 -0.8769750595 -2.0096035 0.9446724057 
14.08135223 0.3760546744 -2.009564877 0.944673419 
14.05037594 1.002053142 -2.0095222 0.9446746111 
13.99149895 1.626025319 -2.009464025 0.9446761608 
13.64876938 3.473347187 -2.009196997 0.9446833134 
13.47995377 4.076816082 -2.009078026 0.9446864724 
13.28438187 4.67209959 -2.008944273 0.9446900487 
12.81457996 5.833405495 -2.00863409 0.9446983337 
12.54131317 6.397162914 -2.008458138 0.9447029233 
11.01314163 6.915168285 -1.855181098 0.9488131404 
10.69348621 7.397431374 -1.854982615 0.9488185048 
10.35266781 7.864904404 -1.854772568 0.9488241076 
7.915390491 10.32344723 -1.855826735 0.9487957358 
6.464113712 11.27323246 -1.853872776 0.9488483071 
4.901259422 12.02133751 -1.852030635 0.9488978386 
4.360249043 12.22363281 -1.851446986 0.948913455 
3.254609346 12.55522919 -1.850332022 0.9489434361 
2.692119122 12.6839447 -1.849802852 0.9489576817 
1.553290963 12.86607361 -1.848806381 0.9489845037 
0.9791699052 12.91919422 -1.848340988 0.9489969611 
-1.322548747 12.8771286 -1.846717954 0.9490405917 
-4.12818861 12.25831985 -1.845280409 0.9490792751 
-4.668935299 12.06122017 -1.845077515 0.9490846992 
-5.20034647 11.84046364 -1.844903827 0.9490894079 
-5.195478439 7.031801701 -1.247272491 0.9652907848 
-5.597783089 6.910581112 -1.268726349 0.9647044539 
-6.16109848 6.949633598 -1.324948668 0.9631694555 
-6.638319969 6.848359108 -1.360652089 0.9621961117 
-8.706439972 6.862030983 -1.581470251 0.9561971426 
-9.737744331 6.995747089 -1.710524559 0.9527085423 
-11.11909199 6.574511528 -1.84279716 0.9491460323 
-11.3996973 6.072929382 -1.842660427 0.9491497278 
-11.65777779 5.559389591 -1.842536569 0.9491531253 
-13.10187912 4.871650219 -1.994155645 0.9450861216 
-13.48197269 3.687587738 -1.993990779 0.9450902939 
-13.63225079 3.08411622 -1.993931055 0.9450919032 
-13.96233845 0.6217041016 -1.99384594 0.9450941682 
-13.9762888 -4.882812391e-06 -1.993863344 0.9450936913 
-13.96269512 -0.6217187643 -1.993896127 0.9450927973 
-13.85295868 -1.86035645 -1.994007826 0.945089817 
-13.63396931 -3.084496975 -1.994180083 0.9450851679 
-13.48398399 -3.688144445 -1.994288564 0.9450823069 
-13.30736256 -4.284628868 -1.994411707 0.9450790882 
-13.1045208 -4.872680664 -1.994549155 0.9450753331 
-12.87576675 -5.451196194 -1.994700909 0.94507128 
-12.62157154 -6.019047737 -1.994866252 0.9450669289 
-12.34244156 -6.575136662 -1.995045066 0.9450621009 
-12.0389061 -7.118369102 -1.995237231 0.9450568557 
-11.36088848 -8.161904335 -1.995659232 0.945045948 
-10.59309578 -9.14152813 -1.996129155 0.9450330138 
-10.17721653 -9.604907036 -1.996380925 0.9450263977 
-9.741142273 -10.04943371 -1.996643186 0.945019424 
-9.285761833 -10.47423363 -1.996915579 0.945012033 
-8.521122932 -10.51951599 -1.93129456 0.9467699528 
-7.752158165 -10.4923439 -1.86108923 0.9486547112 
-6.236670017 -11.33975601 -1.846258521 0.9490529299 
-5.72697258 -11.60783195 -1.846554995 0.9490449429 
-4.674170017 -12.0748682 -1.847163677 0.9490286112 
-4.133124828 -12.27290058 -1.847474575 0.9490202665 
-3.583691359 -12.44673347 -1.847789526 0.9490118027 
-3.027011633 -12.59598637 -1.848107457 0.9490032792 
-1.896176696 -12.81963348 -1.848749995 0.9489859939 
-0.7494921684 -12.94196224 -1.849397182 0.9489685893 
-0.1730810553 -12.96476555 -1.849721074 0.9489598274 
0.4038769305 -12.9618845 -1.850044012 0.9489511847 
0.9802441001 -12.93332481 -1.850365877 0.9489426017 
1.554863214 -12.8791399 -1.850685477 0.9489340186 
3.256933451 -12.56398392 -1.851626277 0.9489086866 
3.813227415 -12.40871525 -1.851931453 0.9489004612 
5.43347168 -11.79640579 -1.852814317 0.9488767385 
5.95372057 -11.54476547 -1.853095531 0.9488692284 
6.462365627 -11.27017307 -1.853369236 0.9488617778 
7.440561295 -10.65419865 -1.853892326 0.9488477707 
7.908178329 -10.31404781 -1.854140401 0.9488411546 
8.846282005 -9.627709389 -1.865251064 0.9485425949 
9.61352253 -9.570849419 -1.935247898 0.9466639161 
10.81870842 -9.005310059 -2.008117676 0.944712162 
11.20974064 -8.515971184 -2.008316994 0.944706738 
11.57852745 -8.009594917 -2.00850296 0.94470191 
11.92437935 -7.487255573 -2.008675575 0.9446973205 
12.24660587 -6.949965477 -2.008834362 0.9446930289 
12.5445528 -6.39876461 -2.008978844 0.9446891546 
12.81760025 -5.834777832 -2.009108782 0.9446856976 
13.06521416 -5.259128094 -2.009224176 0.9446825981 
13.28689194 -4.67298317 -2.009324789 0.9446799159 
13.48217487 -4.077475548 -2.009409904 0.9446776509 
13.65070248 -3.473837852 -2.009479761 0.944675684 
13.79207706 -2.863239765 -2.009534359 0.9446743131 
13.99242115 -1.62613523 -2.009596348 0.9446725845 
14.08155251 -0.376059562 -2.009595633 0.9446727037 
14.08418941 0.2507080138 -2.009571552 0.9446732402 
14.00550747 1.501430631 -2.0094769 0.9446758032 
13.92435741 2.122936964 -2.009406328 0.9446777105 
13.67928886 3.351813793 -2.00921917 0.9446827173 
13.32560062 4.553786755 -2.008972168 0.9446893334 
13.10891819 5.141682148 -2.008826971 0.9446931481 
12.5979538 6.285390377 -2.008494616 0.9447020888 
11.07449436 6.81700182 -1.855219483 0.9488121271 
10.42250443 7.772624493 -1.854815483 0.9488229752 
10.06524372 8.227590561 -1.854596972 0.9488288164 
9.311183929 9.106268883 -1.857995272 0.9487375021 
8.893610954 9.507948875 -1.857310653 0.9487559199 
7.065717697 8.261679649 -1.550884724 0.9570262432 
8.00748539 10.2533493 -1.855960011 0.9487922192 
7.059479713 10.91671562 -1.854642749 0.9488275647 
6.057109356 11.4930563 -1.853369236 0.9488617778 
4.469145298 12.1850872 -1.851562262 0.9489104152 
3.366425753 12.52648926 -1.850440145 0.9489405155 
2.23850584 12.76890564 -1.849394202 0.9489685893 
1.667836905 12.85241222 -1.848902225 0.9489818811 
1.094184518 12.91060066 -1.848432302 0.9489945173 
-0.6335058212 12.93249035 -1.847163081 0.9490285516 
-1.207968712 12.88887215 -1.846789479 0.9490386844 
-1.779775381 12.8199749 -1.846441865 0.9490480423 
-3.468613148 12.46307564 -1.845561743 0.9490717053 
-4.019072056 12.29487324 -1.845324397 0.9490780234 
-4.561484337 12.10253906 -1.845115781 0.9490836859 
-5.094843864 11.88649845 -1.844936371 0.9490885139 
-5.618095398 11.6471529 -1.844786286 0.9490925074 
-5.600297928 9.3760252 -1.558026075 0.9568322301 
-6.537382603 6.865483284 -1.352437139 0.9624199867 
-7.259252548 6.974154949 -1.436101317 0.9601421356 
-7.801020145 6.854067326 -1.481432796 0.9589102268 
-8.608466148 6.90986824 -1.574778557 0.9563783407 
-10.22868633 6.809897423 -1.753045917 0.9515618086 
-10.99007797 6.630883694 -1.831119299 0.94945997 
-11.60803223 5.662997723 -1.84256041 0.9491523504 
-13.05821228 4.988139629 -1.994175315 0.9450852871 
-13.26654243 4.402123928 -1.994082451 0.9450878501 
-13.44869137 3.807465792 -1.994004488 0.9450899959 
-13.73312473 2.596953154 -1.993894339 0.9450928569 
-13.83485794 1.983456969 -1.993862152 0.9450936317 
-13.90925789 1.366049767 -1.993845463 0.9450941682 
-13.95623493 0.7459667921 -1.99384439 0.9450942278 
-13.96761703 -0.4974658191 -1.993888378 0.9450930357 
-13.86886215 -1.737036109 -1.993993998 0.9450901747 
-13.77838326 -2.352329016 -1.994069576 0.9450881481 
-13.51611328 -3.567993164 -1.994265914 0.9450829029 
-13.3448143 -4.165952206 -1.994385958 0.9450796843 
-11.77887154 -7.542929649 -1.995400071 0.9450526237 
-11.06403828 -8.561825752 -1.995841742 0.9450416565 
-10.67379856 -9.046640396 -1.99608016 0.9450343251 
-9.378339767 -10.39092731 -1.996860266 0.9450134635 
-8.681850433 -10.52510738 -1.946427107 0.9463643432 
-5.829892635 -11.55600548 -1.846495152 0.9490466118 
-4.781308651 -12.03238297 -1.847101808 0.9490302801 
-4.242060661 -12.23521423 -1.847412229 0.9490219355 
-3.694228411 -12.41391087 -1.847726226 0.9490134716 
-1.438886642 -12.88079548 -1.84900856 0.9489790201 
-0.8645898104 -12.93433094 -1.849332571 0.9489703178 
0.2885156274 -12.96453094 -1.849979639 0.9489528537 
1.440156221 -12.89202595 -1.8506217 0.9489356875 
2.01255846 -12.81741142 -1.850939393 0.9489271641 
2.581171751 -12.71734333 -1.851253867 0.9489187598 
4.795205116 -12.06732845 -1.852467775 0.9488860965 
5.850575924 -11.5969677 -1.853039861 0.9488706589 
7.345221996 -10.71971703 -1.853841543 0.9488491416 
9.454877853 -9.581899643 -1.920395613 0.9470621943 
10.73793888 -9.10102272 -2.008076429 0.9447132945 
11.13325691 -8.615263939 -2.008278131 0.9447078109 
11.50656986 -8.112199783 -2.008466959 0.9447028637 
11.85703373 -7.593031883 -2.008641958 0.9446981549 
12.48696041 -6.510034084 -2.008950949 0.9446898699 
13.017766 -5.37510252 -2.00920248 0.9446831942 
13.4452734 -4.197238445 -2.009394169 0.9446780086 
13.6191473 -3.595178127 -2.009467125 0.9446760416 
13.76599121 -2.985820293 -2.009524584 0.9446745515 
14.06611538 0.7518359423 -2.009541273 0.9446741343 
14.01840019 1.376711369 -2.009489059 0.9446754456 
13.9428072 1.998925686 -2.009421587 0.9446772933 
13.7087183 3.229953527 -2.009240627 0.9446821809 
13.15432549 5.024926662 -2.00885725 0.9446923733 
12.65359879 6.173168659 -2.00853014 0.9447011352 
11.91139412 6.482216835 -1.934614778 0.9466809034 
11.13494396 6.718342304 -1.855257392 0.9488110542 
10.82394791 7.206212997 -1.855063438 0.9488162994 
10.13831997 8.137863159 -1.854641557 0.9488276839 
8.676047325 8.335317612 -1.716382265 0.9525503516 
8.978520393 9.429140091 -1.857447147 0.9487522244 
8.099028587 10.18240166 -1.856093764 0.9487885833 
7.156874657 10.85420418 -1.854772806 0.9488241076 
6.664599419 11.15797329 -1.854127407 0.948841393 
4.406684399 8.183983803 -1.326017737 0.9631401896 
5.642685413 11.69823742 -1.852874279 0.9488751292 
3.477949142 12.4967823 -1.850548983 0.9489375949 
2.352138519 12.74917412 -1.849495053 0.9489659071 
1.121772408 8.080161095 -1.163772464 0.9675762653 
0.03579589725 8.04583931 -1.147831321 0.968013227 
-1.665712833 12.83577156 -1.846509337 0.9490461946 
-2.23459959 12.74671841 -1.846183181 0.949055016 
-2.798999071 12.63264179 -1.845884085 0.9490630031 
-2.139453173 7.96091795 -1.176005483 0.967241168 
-3.909619093 12.33042908 -1.845369577 0.9490768909 
-5.959702015 9.215942383 -1.565702796 0.9566242099 
-5.127665997 7.204946041 -1.261592031 0.9648994207 
-6.47842741 6.925922871 -1.352935195 0.9624064565 
-6.998867035 6.844887733 -1.396592975 0.961217165 
-8.580844879 7.014130592 -1.581079721 0.9562076926 
-9.124892235 6.804906845 -1.623887897 0.9550490379 
-10.78083992 6.636235237 -1.80602479 0.9501349926 
-11.55730915 5.766191483 -1.842584491 0.9491516948 
-13.57539558 3.326288939 -1.993953109 0.9450911283 
-13.70952129 2.719111204 -1.993902564 0.9450926185 
-13.81667423 2.106464863 -1.993867278 0.9450935721 
-13.89656258 1.489814401 -1.993847609 0.9450941086 
-13.97143555 -0.3731152117 -1.993881226 0.9450932145 
-13.94130802 -0.9943261743 -1.993923306 0.945092082 
-13.88369083 -1.613496065 -1.993980646 0.9450904727 
-13.79865646 -2.229628801 -1.994053245 0.9450885653 
-13.54717731 -3.447558403 -1.994243383 0.945083499 
-13.18877888 -4.638549805 -1.99449265 0.9450768828 
-12.72627926 -5.793285847 -1.994798422 0.9450686574 
-12.16318798 -6.902695179 -1.995158792 0.9450590611 
-11.84531212 -7.437616825 -1.995358586 0.9450536966 
-11.50388622 -7.958071232 -1.995570898 0.9450481534 
-10.75360298 -8.951117516 -1.996031404 0.9450355768 
-9.91784668 -9.873945236 -1.996537089 0.9450224638 
-9.470155716 -10.30679703 -1.996805429 0.945014894 
-8.052948952 -10.50306129 -1.88810873 0.9479288459 
-7.406850338 -10.60637665 -1.845573425 0.9490721226 
-6.929038048 -10.92709446 -1.845854044 0.9490637779 
-6.437158108 -11.22621059 -1.846141577 0.9490560889 
-5.932284832 -11.50331497 -1.846435666 0.9490481615 
-4.887992859 -11.98895931 -1.847040415 0.9490320086 
-4.350654125 -12.1965723 -1.847349763 0.9490235448 
-2.689941406 -12.67362785 -1.848299384 0.9489980936 
-0.9796874523 -12.92564869 -1.849267721 0.948972106 
-0.4037695229 -12.95870113 -1.849591613 0.9489634037 
0.1731640548 -12.96611309 -1.849915147 0.9489547014 
0.7498486042 -12.94783211 -1.85023737 0.9489459991 
1.325351477 -12.90389633 -1.850557923 0.9489373565 
1.898330092 -12.8343792 -1.850876093 0.948928833 
2.467841625 -12.73937988 -1.851191163 0.9489203691 
4.687504768 -12.10914993 -1.852409005 0.9488875866 
6.260326862 -11.38275814 -1.853260756 0.948864758 
7.722961426 -10.45261669 -1.854042292 0.9488437176 
11.05594444 -8.713801384 -2.008238792 0.9447088838 
12.12059784 -7.166601181 -2.008772612 0.9446946979 
13.4072361 -4.316770077 -2.009377718 0.9446784854 
13.73877907 -3.108278751 -2.009514332 0.9446748495 
14.07268047 -0.6265624762 -2.009600878 0.9446724653 
14.08650398 2.441406195e-06 -2.009582996 0.9446729422 
14.07230949 0.6266674399 -2.009549856 0.9446738958 
14.03017521 1.251948237 -2.009500742 0.9446751475 
13.96013165 1.874816895 -2.009436369 0.9446769357 
13.86238003 2.493798733 -2.009356499 0.9446790218 
13.19873714 4.907653809 -2.008886814 0.9446915984 
12.96635437 5.489550591 -2.008733034 0.9446957111 
10.88787079 7.10978508 -1.855103135 0.9488152266 
10.55970192 7.586193562 -1.854899883 0.9488207102 
10.21057606 8.04753685 -1.854685664 0.9488264322 
8.189889908 10.11066341 -1.856227636 0.948785007 
4.685942173 12.10513115 -1.851795197 0.9489040971 
3.589316368 12.46604443 -1.850658774 0.9489346743 
3.030283213 12.60969734 -1.850118041 0.9489492178 
1.896508694 12.82204533 -1.849096298 0.9489766359 
1.323862314 12.89038563 -1.848617554 0.9489895105 
0.1728613228 12.9508009 -1.847728252 0.949013412 
-0.4032714665 12.94279289 -1.847319603 0.9490244389 
-0.9784667492 12.90935993 -1.846935868 0.9490347505 
-3.246435404 12.52354431 -1.84566474 0.9490689039 
-3.799750805 12.36507797 -1.84541595 0.9490755796 
-4.882616997 11.97575665 -1.845004559 0.9490866661 
-5.41007328 11.74564934 -1.844842792 0.9490910172 
-5.486083984 9.567592621 -1.573381662 0.9564161897 
-5.306664944 6.921034813 -1.244187832 0.965375185 
-5.868906021 6.987285137 -1.301779866 0.9638017416 
-6.78235817 6.752245903 -1.365323901 0.9620687962 
-8.981952667 6.823505878 -1.60919404 0.9554466605 
-11.23402309 6.375380516 -1.842740893 0.9491474628 
-11.50567818 5.868857384 -1.842609406 0.9491510987 
-11.75453091 5.35094738 -1.842490911 0.9491544366 
-13.68486309 2.840986252 -1.993911386 0.9450923204 
-13.79742622 2.229321241 -1.993873119 0.9450933933 
-13.88279247 1.613398433 -1.99385035 0.9450939298 
-13.94954109 -0.8701366782 -1.993913651 0.9450923204 
-13.8178463 -2.106635809 -1.994037628 0.9450890422 
-13.71103001 -2.719413996 -1.994122267 0.9450867772 
-13.57717705 -3.326738119 -1.994221807 0.945084095 
-12.77717781 -5.679624081 -1.994765282 0.9450694323 
-12.22389603 -6.794072151 -1.995120525 0.9450600743 
-11.57397938 -7.855234146 -1.995527506 0.9450493455 
-9.561249733 -10.22177219 -1.996750951 0.9450165033 
-7.500449181 -10.53972626 -1.845518112 0.9490742087 
-7.025849342 -10.86460876 -1.845797181 0.9490653872 
-6.53659153 -11.16814899 -1.846083641 0.9490576386 
-6.034326077 -11.44965839 -1.8463763 0.9490497112 
-3.361840725 -12.50939465 -1.847916365 0.9490084052 
-2.237465858 -12.76310062 -1.848556519 0.9489912391 
-1.667734385 -12.85225582 -1.848879218 0.9489825368 
-1.094624043 -12.91596603 -1.849202871 0.9489738345 
-0.519028306 -12.95415497 -1.849526763 0.9489651322 
1.210346699 -12.91473103 -1.850494027 0.9489391446 
2.354208946 -12.76043415 -1.851128459 0.9489220381 
2.920058489 -12.64519024 -1.851440668 0.9489136934 
4.033725262 -12.33969212 -1.852052212 0.9488972425 
5.116122723 -11.93614674 -1.852642179 0.9488813877 
5.642949104 -11.69851494 -1.852927685 0.9488736987 
8.090912819 -10.17219925 -1.85423696 0.948838532 
9.144479752 -9.603425026 -1.891782641 0.947830081 
9.938444138 -9.548134804 -1.966122389 0.9458364844 
10.57377148 -9.290341377 -2.007992029 0.9447155595 
10.9777565 -8.811642647 -2.008198977 0.9447100163 
11.35991669 -8.315439224 -2.008392811 0.9447048306 
11.71966267 -7.80254364 -2.008573771 0.9446999431 
12.05611324 -7.274142742 -2.008740664 0.9446955323 
12.36872005 -6.731096268 -2.008893728 0.9446914792 
12.65676212 -6.174706936 -2.009032488 0.9446877241 
13.1570406 -5.025813103 -2.009266376 0.9446814656 
13.36820316 -4.435854435 -2.009360552 0.9446789026 
13.71051025 -3.230370998 -2.009503365 0.9446751475 
13.84098625 -2.617294788 -2.009551764 0.9446738362 
14.08598328 -0.1253247112 -2.009588003 0.944672823 
14.04084206 1.127072692 -2.009511709 0.9446748495 
13.764328 2.985463858 -2.009281635 0.9446810484 
13.61715794 3.594658136 -2.009174347 0.9446839094 
13.01489735 5.374054909 -2.008764982 0.9446948171 
12.76193047 5.947135925 -2.008599997 0.9446992874 
12.46383476 6.498110294 -2.005241156 0.9447891712 
11.25321484 6.519313812 -1.855331659 0.9488090873 
10.95093727 7.012783051 -1.855142355 0.9488141537 
9.916743279 8.405007362 -1.854506612 0.9488312602 
9.553071022 8.856464386 -1.858407974 0.948726356 
8.721672058 9.663347244 -1.857038379 0.9487631917 
7.349999905 10.72659397 -1.855033875 0.9488170743 
4.793764591 12.06372547 -1.851912498 0.948900938 
4.251000881 12.26120567 -1.851332188 0.9489165545 
3.142543793 12.58297348 -1.850224614 0.9489462972 
0.2881933451 12.94933033 -1.847812891 0.949011147 
-1.437060475 12.86433601 -1.846647263 0.9490425587 
-2.007470608 12.78535175 -1.846310377 0.9490516186 
-3.13487792 12.5523243 -1.845717907 0.9490674138 
-3.689677715 12.39871025 -1.845463514 0.9490743279 
-4.775971413 12.01896 -1.845040441 0.9490856528 
-5.305449009 11.79351521 -1.844872713 0.9490901828 
-5.77910614 9.295507431 -1.561491609 0.9567382932 
-5.263456821 6.992778301 -1.248607755 0.9652543068 
-6.250336647 6.925185204 -1.330838323 0.9630088806 
-7.523447037 6.974819183 -1.463576674 0.9593952894 
-8.075034142 6.84403801 -1.510094523 0.9581320882 
-8.781855583 6.795673847 -1.584122181 0.956125319 
-9.80324173 6.911327839 -1.711151719 0.952691555 
-11.17702103 6.475165844 -1.842768788 0.9491467476 
-11.45316887 5.971088886 -1.842634559 0.9491503835 
-13.65909195 2.962636709 -1.993920803 0.9450921416 
-13.93133736 1.118281245 -1.993843198 0.9450942278 
-13.96734333 0.4974072278 -1.993848205 0.945094049 
-13.97578621 -0.1243554652 -1.993868709 0.9450935125 
-13.95666981 -0.7459911704 -1.993904471 0.9450925589 
-13.60611343 -3.20578599 -1.994200706 0.9450846314 
-13.45075607 -3.808125019 -1.994312048 0.9450817108 
-13.26890564 -4.402910233 -1.994438171 0.9450783134 
-12.56772423 -6.131274223 -1.994900942 0.9450659156 
-11.97528267 -7.225380898 -1.995277166 0.945055902 
-10.91071224 -8.757846832 -1.995935678 0.9450381398 
-10.51156235 -9.235683441 -1.996178746 0.9450317025 
-9.651620865 -10.13602066 -1.99669683 0.9450178146 
-9.179877281 -10.54227066 -1.994235516 0.9450837374 
-7.611484051 -10.49611759 -1.849659204 0.9489616156 
-7.122021198 -10.80134773 -1.845740795 0.9490668178 
-6.635468483 -11.1092186 -1.846025825 0.9490591288 
-6.135742188 -11.39516068 -1.84631741 0.9490513206 
-4.566679478 -12.11640072 -1.847225428 0.9490269423 
-2.914931536 -12.62286091 -1.848171353 0.9490014911 
-2.350859404 -12.74224567 -1.848492026 0.9489929676 
-1.782089829 -12.83645439 -1.848814487 0.9489842057 
0.5191991925 -12.95822716 -1.850108624 0.9489494562 
1.095356464 -12.92454052 -1.850429893 0.9489408731 
5.009584904 -11.9808054 -1.852584362 0.9488829374 
6.056440353 -11.49167442 -1.853150845 0.9488676786 
7.055908203 -10.91105175 -1.853687286 0.9488532543 
7.535283089 -10.5878706 -1.853942633 0.9488463402 
7.99987793 -10.24351311 -1.854188919 0.9488398433 
8.448671341 -9.87881279 -1.854425669 0.9488334656 
9.774628639 -9.559598923 -1.950481057 0.9462556243 
10.49047375 -9.383845329 -2.007949114 0.944716692 
10.89870358 -8.908786774 -2.008158684 0.9447110891 
11.28527069 -8.416020393 -2.008355141 0.9447058439 
11.9907198 -7.381000996 -2.008708477 0.9446963668 
12.60114956 -6.286982059 -2.009006023 0.9446884394 
12.86919117 -5.72053194 -2.009133101 0.9446849823 
13.11190128 -5.142697811 -2.009245634 0.944681108 
13.51803398 -3.957394838 -2.009425163 0.9446771741 
13.68115711 -3.35220933 -2.00949192 0.944675386 
13.81707478 -2.740424633 -2.00954318 0.944674015 
13.92555141 -2.123066425 -2.009579182 0.944673121 
14.0593214 -0.8769750595 -2.0096035 0.9446724057 
14.08432865 -0.2507641613 -2.009592056 0.9446727037 
13.0624342 5.258019924 -2.008796453 0.9446940422 
12.81455326 5.833461761 -2.00863409 0.9446983337 
11.01317883 6.915119648 -1.855181217 0.9488131404 
9.991381645 8.316655159 -1.854551911 0.9488300085 
9.632269859 8.771684647 -1.858546138 0.9487226605 
8.807936668 9.586069107 -1.857174277 0.9487595558 
7.445668697 10.66153336 -1.855165005 0.948813498 
5.201494217 8.202758789 -1.385646939 0.961515069 
5.95416975 11.54573441 -1.853244543 0.9488651752 
