# .PCD v0.7 - Point Cloud Data file format
VERSION 0.7
FIELDS x y z intensities
SIZE 4 4 4 4
TYPE F F F F
COUNT 1 1 1 1
WIDTH 924
HEIGHT 1
VIEWPOINT 0 0 0 1 0 0 0
POINTS 924
DATA ascii
-3.616152287 -8.436640739 -2.002935648 0.9631175399 
-2.85174799 -8.723896027 -2.002762318 0.9631206989 
-2.46073246 -8.841718674 -2.002673149 0.9631223083 
-1.664980412 -9.024619102 -2.002490759 0.9631255865 
-0.856210947 -9.136030197 -2.002303839 0.963128984 
0.3673534989 -9.167397499 -2.002018213 0.9631341696 
0.7747558355 -9.141542435 -2.001922369 0.9631358981 
1.180576086 -9.097597122 -2.001826763 0.9631376266 
1.584023356 -9.0356493 -2.001731157 0.9631392956 
1.984296799 -8.955810547 -2.001636028 0.9631410241 
3.53795886 -8.461421013 -2.001263142 0.9631477594 
4.632102013 -7.914162636 -2.000996828 0.9631525874 
5.316720963 -7.470510006 -2.000828266 0.9631556869 
5.64354229 -7.226320744 -2.000746965 0.9631571174 
6.55439949 -6.410146236 -2.00051856 0.9631612301 
7.584775448 -5.147705078 -2.000253201 0.9631660581 
8.20177269 -4.092038631 -2.000088453 0.9631690383 
8.375483513 -3.723056555 -2.00004077 0.9631698728 
8.532616615 -3.346725941 -1.999996781 0.9631707072 
8.672878265 -2.963798761 -1.999956608 0.9631713629 
8.901672363 -2.181127787 -1.999887943 0.9631726146 
9.060065269 -1.38127923 -1.99983561 0.9631735682 
9.146816254 -0.5705493093 -1.999799609 0.9631742239 
9.163085938 -0.1631005853 -1.999788046 0.9631744623 
9.047180176 1.461835861 -1.999783754 0.9631745219 
8.973237038 1.862844229 -1.99979341 0.9631743431 
8.772287369 2.653044462 -1.99982512 0.9631738067 
8.164408684 4.164572716 -1.99993813 0.9631717205 
7.971225262 4.52372551 -1.999976516 0.9631710649 
7.762275219 4.873935223 -2.000018597 0.9631702304 
6.777368069 6.171911716 -2.000223875 0.9631665945 
5.778479099 6.28897953 -1.863650799 0.9656379223 
5.447316647 6.485339165 -1.848128796 0.9659190178 
4.84968996 6.944316387 -1.848259687 0.9659166336 
4.213593483 7.348422527 -1.848400474 0.9659141302 
3.544081926 7.694462776 -1.848550558 0.965911448 
2.84641099 7.979711533 -1.848708153 0.9659085274 
2.488740206 8.098784447 -1.848789454 0.9659070373 
2.126103401 8.201840401 -1.848872185 0.9659055471 
1.762709975 8.305058479 -1.852610588 0.9658378363 
1.017553687 8.428564072 -1.852546692 0.9658389688 
0.6416113377 8.465449333 -1.85253799 0.9658391476 
-0.4908642471 8.475834846 -1.8526057 0.9658378959 
-0.8674365282 8.445858955 -1.852659464 0.9658369422 
-1.242324233 8.399218559 -1.852728486 0.9658356905 
-1.614789963 8.336025238 -1.852812886 0.9658341408 
-1.984121084 8.256381989 -1.852912307 0.9658323526 
-2.349575043 8.160458565 -1.853026748 0.9658302665 
-2.710439444 8.048418045 -1.853155613 0.9658279419 
-3.060746908 7.906772137 -1.850090742 0.9658834934 
-3.409589767 7.763149261 -1.850175142 0.9658819437 
-4.086445332 7.430048466 -1.85033977 0.9658789039 
-4.73106432 7.038042068 -1.850497961 0.9658760428 
-5.039638519 6.82090807 -1.850574493 0.9658747315 
-5.626376629 6.346488953 -1.850720763 0.9658721089 
-5.903339863 6.090160847 -1.850790381 0.9658707976 
-6.168637753 5.821738243 -1.850857615 0.9658696055 
-7.904081821 4.67353487 -2.003685474 0.9631040096 
-8.456450462 3.580146313 -2.003835678 0.9631013274 
-8.60751915 3.200507641 -2.003878355 0.9631005526 
-8.741464615 2.814496994 -2.003917217 0.9631000757 
-8.858310699 2.422910213 -2.003952026 0.9630989432 
-8.957372665 2.026494026 -2.003982782 0.9630987048 
-9.14772892 0.8162695169 -2.004050732 0.9630973935 
-9.147871017 -0.8162841797 -2.004082203 0.9630968571 
-9.039072037 -1.626098633 -2.004072428 0.9630970359 
-8.957743645 -2.026567221 -2.004060984 0.9630972147 
-8.289247513 -3.953027248 -2.003942013 0.9630993605 
-7.211855412 -5.684076786 -2.003723145 0.963103354 
-6.390595436 -6.592822075 -2.003548861 0.9631064534 
-4.777461052 -7.839066982 -2.003195524 0.9631128907 
-3.313447237 -8.559706688 -2.002866983 0.9631187916 
-2.929277182 -8.698246956 -2.002779961 0.9631204009 
-0.9375097156 -9.128134727 -2.002322435 0.9631286263 
-0.5305029154 -9.160366058 -2.002228022 0.9631303549 
-0.1224755868 -9.17446804 -2.002132893 0.9631320238 
1.099550724 -9.107836723 -2.001845837 0.963137269 
1.503549814 -9.04946804 -2.001750231 0.9631389976 
2.301811457 -8.879174232 -2.001560211 0.9631423354 
2.694296837 -8.767578125 -2.001466274 0.9631441236 
3.081503868 -8.638651848 -2.001373291 0.9631457925 
3.462558508 -8.492636681 -2.0012815 0.9631474614 
3.836743116 -8.329818726 -2.001190662 0.9631491303 
4.910658836 -7.74403286 -2.000928402 0.9631538391 
5.250056267 -7.517604828 -2.000844717 0.9631553292 
5.896950722 -7.020676136 -2.000683784 0.9631582499 
6.203195572 -6.75114727 -2.000607014 0.9631596208 
6.778185844 -6.172641277 -2.000461578 0.9631622434 
7.299499512 -5.545397758 -2.000327587 0.9631646872 
7.763020039 -4.874362469 -2.000205994 0.9631668925 
8.165078163 -4.164875507 -2.000098467 0.9631688595 
8.502543449 -3.422526836 -2.000005245 0.9631705284 
8.646193504 -3.040856838 -1.999964356 0.9631712437 
8.77273941 -2.653188467 -1.999927282 0.9631719589 
8.881936073 -2.260278225 -1.999894261 0.9631724954 
9.047430992 -1.461872578 -1.999840021 0.9631735086 
9.141384125 -0.6519506574 -1.99980247 0.9631741643 
9.161278725 -0.2446630746 -1.999789953 0.9631744027 
9.163054466 0.1631079018 -1.999781728 0.9631745815 
9.146713257 0.5705468655 -1.999777675 0.9631746411 
9.112277985 0.9768554568 -1.999777913 0.9631746411 
8.989447594 1.782936931 -1.999791026 0.9631744027 
8.795536995 2.574894905 -1.999821067 0.9631738067 
8.532067299 3.346516132 -1.999867916 0.9631730318 
8.374882698 3.72279048 -1.999897361 0.9631724954 
7.805317402 4.804631233 -2.000009775 0.9631704092 
7.347736835 5.47960186 -2.000103712 0.9631687403 
5.885383129 6.291903973 -1.879965901 0.965342164 
5.213161469 6.67530489 -1.848179936 0.9659181237 
4.599575043 7.11274147 -1.848314881 0.9659156799 
4.27877903 7.310583115 -1.848386049 0.9659144282 
3.612368107 7.662563324 -1.848535061 0.965911746 
1.83657217 8.289081573 -1.852620482 0.9658376575 
1.466000915 8.36237812 -1.852577448 0.9658384323 
0.7169335485 8.459403992 -1.852538466 0.9658391476 
-0.03776855394 8.489750862 -1.852561712 0.9658387303 
-0.7922461033 8.453183174 -1.852647543 0.9658371806 
-2.990214825 7.933627605 -1.850073814 0.9658837914 
-4.348447323 7.280156136 -1.850403905 0.9658777714 
-4.668183327 7.079814434 -1.850482583 0.9658763409 
-4.978691101 6.865439415 -1.850559354 0.96587497 
-6.116557598 5.87635231 -1.850844383 0.9658697844 
-6.396738052 5.619482517 -1.857816219 0.9657412767 
-7.409071922 5.423320293 -2.003555298 0.9631060958 
-7.643183231 5.088534832 -2.003616571 0.9631050825 
-8.25308609 4.026293755 -2.00377965 0.9631022811 
-8.424218178 3.655273438 -2.003826857 0.9631014466 
-8.578666687 3.276987314 -2.003870249 0.9631006122 
-8.716142654 2.892192364 -2.003909826 0.9630998373 
-8.836327553 2.501650333 -2.003945351 0.9630991817 
-8.93897438 2.106137753 -2.00397706 0.9630987048 
-9.154769897 -0.7348583937 -2.004082203 0.9630968571 
-9.113007545 -1.141372085 -2.004080296 0.9630968571 
-8.766728401 -2.736772299 -2.004029989 0.9630977511 
-8.488583565 -3.505034208 -2.003979683 0.9630986452 
-8.324126244 -3.87909174 -2.003948689 0.9630993009 
-8.143193245 -4.245473385 -2.003913403 0.9630998969 
-7.946122646 -4.603417873 -2.003874063 0.9631006122 
-7.733310223 -4.952240944 -2.003831148 0.9631013274 
-7.505195141 -5.291210651 -2.00378418 0.9631022215 
-7.004833698 -5.937006474 -2.003679752 0.9631041288 
-6.733608246 -6.242592812 -2.003622293 0.9631050825 
-6.449057579 -6.535747051 -2.003561258 0.9631061554 
-4.495268345 -8.003901482 -2.00313282 0.9631140232 
-3.00660634 -8.671898842 -2.002797604 0.9631201029 
-2.223769426 -8.904018402 -2.002619028 0.9631232619 
-1.825400352 -8.993710518 -2.002527475 0.9631249309 
-1.423354506 -9.065581322 -2.002434969 0.963126719 
-1.018730402 -9.119516373 -2.002341509 0.9631282687 
-0.6119872928 -9.155375481 -2.002246857 0.9631299973 
0.6119433641 -9.154062271 -2.001960754 0.9631351829 
1.422988296 -9.062578201 -2.001769304 0.9631386399 
2.616171837 -8.791298866 -2.001485109 0.9631437659 
5.182981014 -7.564103603 -2.000861406 0.9631550312 
5.514099121 -7.325751781 -2.000779152 0.9631565213 
6.14292717 -6.806120396 -2.000622272 0.9631593823 
7.24971199 -5.610224247 -2.000340462 0.9631649256 
7.492023945 -5.281945705 -2.000277281 0.9631657004 
7.9313941 -4.594890118 -2.000161409 0.963167727 
8.127753258 -4.237382889 -2.00010848 0.9631686211 
8.307975769 -3.871572256 -2.000059366 0.9631695151 
8.61882019 -3.117707491 -1.999972224 0.9631711245 
8.748815536 -2.731142521 -1.999934316 0.9631718397 
8.861491203 -2.339262724 -1.99990046 0.9631723762 
8.956660271 -1.942685485 -1.999870539 0.9631729126 
9.135231972 -0.7332958579 -1.99980557 0.9631741047 
9.07174778 1.300585866 -1.999781132 0.9631745815 
8.818080902 2.496530771 -1.999817491 0.9631739259 
8.407666206 3.648088217 -1.999891162 0.963172555 
7.396179199 5.413986683 -2.000093699 0.9631688595 
6.886069298 6.050246239 -2.000200748 0.9631669521 
5.994003773 6.29484129 -1.896706223 0.965039134 
4.662673473 7.071466923 -1.848300934 0.9659159184 
4.34362793 7.272170067 -1.848371744 0.9659146667 
4.016025066 7.458474159 -1.848444581 0.9659132957 
3.680380821 7.630058289 -1.848519802 0.9659119844 
3.337499857 7.786538124 -1.84859705 0.9659105539 
2.632465839 8.053051949 -1.848756671 0.9659076333 
1.910297751 8.272451401 -1.852630854 0.965837419 
1.167441368 8.409154892 -1.85255444 0.9658387899 
0.7921728492 8.452694893 -1.85253942 0.965839088 
0.415410161 8.479570389 -1.852540255 0.965839088 
-0.3398876786 8.483154297 -1.852588654 0.9658381939 
-1.092661142 8.419862747 -1.852699041 0.9658362269 
-1.466147423 8.36328125 -1.852777362 0.9658347964 
-2.203906298 8.200766563 -1.852979064 0.9658311605 
-2.919443369 7.959858418 -1.850056767 0.9658840895 
-3.615688324 7.669579983 -1.850224972 0.9658810496 
-3.953520536 7.501464844 -1.850307226 0.9658794999 
-4.6049757 7.12101078 -1.850467086 0.9658766389 
-5.220043659 6.684096336 -1.850619197 0.9658739567 
-5.512431622 6.445551395 -1.850692153 0.9658725262 
-5.793945312 6.194164753 -1.850762844 0.9658712745 
-6.321904182 5.655107498 -1.850896716 0.9658691287 
-6.822685242 5.576923847 -1.922845125 0.9645656943 
-8.026190758 4.460888386 -2.003718138 0.9631034136 
-8.216879845 4.099585056 -2.003769875 0.9631024599 
-8.549120903 3.353198051 -2.003861904 0.963100791 
-8.690038681 2.969609261 -2.003902197 0.9630999565 
-8.813661575 2.580195189 -2.003938437 0.9630993605 
-9.166298866 0.5717724562 -2.004059792 0.9630972147 
-9.180937767 -0.2451855391 -2.004078865 0.9630968571 
-9.160951614 -0.6533789039 -2.004082203 0.9630967975 
-9.066581726 -1.465009689 -2.004075766 0.9630969763 
-8.992406845 -1.866831064 -2.004066229 0.9630971551 
-8.900400162 -2.265019417 -2.004052162 0.9630973339 
-8.790761948 -2.658632755 -2.004034281 0.9630976915 
-8.180693626 -4.172832012 -2.003920794 0.9630997181 
-7.986806393 -4.532548904 -2.00388217 0.9631004333 
-7.057426453 -5.874472618 -2.003690958 0.96310395 
-5.905151367 -7.030361176 -2.003443718 0.9631082416 
-5.586464882 -7.285878658 -2.0033741 0.9631091356 
-4.916269302 -7.752949238 -2.003226519 0.9631122947 
-4.207402229 -8.158574104 -2.003068447 0.9631151557 
-1.905366182 -8.977211952 -2.002545834 0.9631245732 
-1.504003882 -9.052651405 -2.002453566 0.9631263018 
-1.099833965 -9.110170364 -2.002360106 0.9631279707 
-0.285761714 -9.171005249 -2.00217104 0.9631313682 
0.5304394364 -9.159233093 -2.001979828 0.9631348252 
0.9373437166 -9.126122475 -2.001884222 0.9631366134 
1.744589806 -9.005849838 -2.00169301 0.9631400108 
2.143300772 -8.918906212 -2.00159812 0.963141799 
2.927285194 -8.692299843 -2.001410484 0.9631451368 
3.310932636 -8.553066254 -2.001317978 0.9631468058 
3.687919855 -8.396957397 -2.001226902 0.9631484151 
4.057641506 -8.2242136 -2.001137257 0.9631500244 
4.419238091 -8.03523159 -2.001049042 0.9631516933 
5.115485668 -7.609999657 -2.000877857 0.9631547332 
5.771137714 -7.124653339 -2.000715256 0.9631576538 
6.3811059 -6.582961082 -2.000562191 0.9631603956 
6.667358398 -6.292387486 -2.000489712 0.9631617069 
6.94043684 -5.989338398 -2.000420094 0.9631630182 
7.199736118 -5.674509048 -2.000353336 0.9631642103 
7.675112247 -5.011845589 -2.000229359 0.9631664157 
7.890244007 -4.665297985 -2.000172377 0.9631674886 
8.440348625 -3.573374033 -2.00002265 0.9631701708 
8.590776443 -3.194284678 -1.99998033 0.9631709456 
8.724184036 -2.808954954 -1.999941707 0.9631716609 
8.840355873 -2.418012619 -1.999906898 0.9631723166 
9.020021439 -1.622670889 -1.999849677 0.9631733298 
9.083168983 -1.219855905 -1.999827027 0.9631737471 
9.164516449 -2.441406195e-06 -1.99978447 0.9631745219 
9.15541935 0.4077075124 -1.999778867 0.9631746411 
8.938672066 2.02229476 -1.999798417 0.9631742835 
8.723711014 2.808801174 -1.999833465 0.9631736279 
8.439760208 3.573132277 -1.999885201 0.9631726742 
8.272612572 3.945048809 -1.99991715 0.9631721377 
8.08905983 4.309250355 -1.999952912 0.9631714821 
7.889538288 4.664877892 -1.999992728 0.9631707668 
7.674360275 5.011357307 -2.000036478 0.963169992 
6.666532993 6.291630745 -2.000247478 0.9631661177 
6.104587078 6.297804832 -1.91388917 0.9647279978 
5.331071854 6.581364632 -1.848154068 0.9659186006 
5.033234596 6.812219143 -1.848219275 0.9659174085 
4.725358963 7.029648304 -1.848286986 0.9659161568 
4.082187176 7.422389984 -1.848429799 0.9659135938 
3.748154163 7.596928596 -1.848504543 0.9659122229 
3.406611204 7.756469727 -1.848581553 0.965910852 
2.344277382 8.141928673 -1.848822474 0.9659064412 
1.979829073 8.238530159 -1.848905802 0.9659049511 
1.614638686 8.335028648 -1.852592826 0.9658381343 
0.490839839 8.47552681 -1.852538824 0.9658391476 
-0.2644042969 8.48581028 -1.852581024 0.9658383131 
-1.391669869 8.375917435 -1.852760434 0.9658350945 
-1.762939453 8.306142807 -1.852850914 0.9658334255 
-2.13083005 8.219945908 -1.852956176 0.9658315778 
-3.201000929 7.851201057 -1.850124598 0.9658828974 
-3.547275305 7.701366901 -1.850208402 0.9658813477 
-3.88649416 7.536313534 -1.850290895 0.9658797979 
-4.218124866 7.35626936 -1.850371957 0.9658783078 
-4.541415691 7.161625862 -1.85045135 0.9658769369 
-4.855634689 6.952841759 -1.850528836 0.965875566 
-5.160331726 6.730219364 -1.850604415 0.9658741951 
-6.271933556 5.711049557 -1.850883842 0.9658676982 
-7.551259518 5.223730564 -2.003592491 0.963105619 
-7.776352406 4.882763386 -2.003651619 0.9631047249 
-8.180044174 4.172500134 -2.003759623 0.9631026387 
-8.357733727 3.804623842 -2.003808498 0.9631017447 
-8.663339615 3.046875 -2.003894567 0.9630996585 
-9.066337585 1.464897394 -2.004019022 0.9630979896 
-9.180888176 0.2451806515 -2.004069567 0.9630970359 
-9.166405678 -0.5717675686 -2.004081726 0.9630967975 
-9.131889343 -0.9790087938 -2.004081488 0.9630968571 
-9.079286575 -1.384213805 -2.004077196 0.9630969167 
-8.920233727 -2.185668945 -2.004055262 0.9630972743 
-8.814082146 -2.580322266 -2.004038095 0.9630976319 
-8.391913414 -3.730322123 -2.003961563 0.9630990624 
-8.21751976 -4.099902153 -2.003927946 0.9630995989 
-7.820302486 -4.813847542 -2.003848791 0.9631010294 
-7.598222256 -5.156869888 -2.003803492 0.9631018639 
-7.109453201 -5.811489105 -2.003701687 0.9631037116 
-6.84376955 -6.121796608 -2.003645658 0.9631046057 
-6.564394474 -6.420009613 -2.003586054 0.9631058574 
-5.323212624 -7.479824066 -2.003316402 0.9631108642 
-4.637089729 -7.922758579 -2.003164291 0.9631134272 
-3.540917873 -8.468402863 -2.00291872 0.9631178379 
-1.584609389 -9.038989067 -2.002472162 0.9631259441 
-1.180820227 -9.100107193 -2.002378941 0.9631276727 
-0.3673437536 -9.168188095 -2.002190113 0.9631310105 
0.0408154279 -9.175024033 -2.002094746 0.9631327391 
0.8560400009 -9.134199142 -2.001903296 0.9631362557 
2.063955069 -8.93770504 -2.001617193 0.9631413817 
2.459184408 -8.836654663 -2.001522541 0.9631431699 
2.849853516 -8.718075752 -2.001429081 0.9631447792 
3.234658241 -8.582294464 -2.001336575 0.9631464481 
3.613100529 -8.429516792 -2.001245022 0.9631480575 
3.98435545 -8.260058403 -2.0011549 0.9631497264 
4.702321529 -7.872546196 -2.000979662 0.9631528854 
6.02091074 -6.914482117 -2.00065279 0.9631587863 
6.611142635 -6.351508617 -2.000504017 0.9631615281 
7.396945477 -5.414550781 -2.000302315 0.9631651044 
7.630256176 -5.079958439 -2.00024128 0.9631662369 
7.848430157 -4.735404968 -2.000183582 0.9631673098 
8.237812042 -4.018886566 -2.000078678 0.9631692171 
8.408254623 -3.648347139 -2.00003171 0.9631700516 
8.698882103 -2.886471987 -1.999948978 0.9631715417 
8.818520546 -2.496579647 -1.999913573 0.9631721973 
9.071977615 -1.300620079 -1.9998312 0.9631736279 
9.151515961 -0.4891528189 -1.999796987 0.9631742835 
9.164162636 -0.08153808117 -1.999786139 0.9631744623 
9.158698082 0.3261572123 -1.999779582 0.9631745815 
9.13510704 0.7332861423 -1.999777317 0.9631746411 
9.093454361 1.138884306 -1.999779105 0.9631745815 
9.033813477 1.542309523 -1.999785423 0.9631744623 
8.861098289 2.339150429 -1.999810457 0.9631740451 
8.618300438 3.117524385 -1.9998523 0.9631732702 
8.127045631 4.237099648 -1.999945521 0.9631716013 
7.930697918 4.594484806 -1.999984503 0.963170886 
7.718608379 4.942856312 -2.000027418 0.9631701112 
7.249101639 5.609591961 -2.000124216 0.9631683826 
6.217275143 6.300795555 -1.931548476 0.9644083977 
5.389428616 6.533588886 -1.848141313 0.965918839 
4.472333908 7.193588734 -1.848343015 0.9659151435 
3.47545886 7.725795746 -1.848565936 0.9659110904 
3.128520489 7.873066425 -1.848644257 0.9659097195 
2.775292873 8.004799843 -1.848724365 0.9659082294 
2.416606426 8.120678902 -1.848805785 0.9659067392 
2.053037167 8.220517159 -1.848888993 0.9659052491 
0.9425243735 8.437274933 -1.852543592 0.9658390284 
0.5662402511 8.470825195 -1.852538109 0.9658391476 
0.1888964772 8.487675667 -1.852548122 0.9658389091 
-0.1801269501 8.093481064 -1.766510844 0.9673992991 
-0.9425780773 8.437861443 -1.8526721 0.9658367038 
-1.688959956 8.321411133 -1.852831483 0.9658337831 
-2.005395412 8.02977562 -1.805992246 0.9666830301 
-2.422148466 8.139326096 -1.853051305 0.9658298492 
-2.78205061 8.024086952 -1.85318327 0.9658274055 
-3.819252729 7.57051754 -1.850274563 0.9658801556 
-4.152431488 7.393442154 -1.850355983 0.9658786654 
-4.477392673 7.201738358 -1.850435615 0.9658771753 
-5.100185394 6.775854111 -1.850589395 0.9658744335 
-5.682665825 6.296230316 -1.85073483 0.9658718109 
-5.957382679 6.037412167 -1.85080409 0.9658704996 
-6.220243931 5.766660213 -1.850870728 0.9658693671 
-6.60215807 5.595571041 -1.888448596 0.9651881456 
-7.16878891 5.547441483 -1.977964282 0.9635688663 
-8.635698318 3.123808622 -2.003886461 0.9631003737 
-9.178339958 0.3268554509 -2.004067421 0.9630970955 
-9.183833122 -0.08170898259 -2.004076481 0.9630969167 
-9.171133041 -0.4902001917 -2.004081488 0.9630967975 
-9.091244698 -1.30337882 -2.004078388 0.9630969167 
-9.024228096 -1.706533194 -2.004070282 0.9630970359 
-8.716601372 -2.892358303 -2.004021406 0.9630978703 
-8.424804688 -3.655522346 -2.003967762 0.9630988836 
-8.25370121 -4.026635647 -2.00393486 0.9630995393 
-8.06628418 -4.389692307 -2.003898144 0.9631001353 
-7.643876553 -5.089033127 -2.00381279 0.963101685 
-6.897988319 -6.060708046 -2.003657103 0.9631044269 
-6.331708908 -6.649414062 -2.003535986 0.9631064534 
-6.02943325 -6.924218655 -2.003470659 0.9631077647 
-5.715195179 -7.185351372 -2.003402233 0.963109076 
-4.707431316 -7.881254673 -2.003180027 0.9631131291 
-4.352050781 -8.082519531 -2.003100872 0.9631145 
-3.987998009 -8.267787933 -2.003019094 0.9631160498 
-3.616152287 -8.436640739 -2.002935648 0.9631175399 
-3.237109184 -8.588798523 -2.002849817 0.9631190896 
-2.46071291 -8.84172821 -2.002673149 0.9631223083 
-2.064912081 -8.942016602 -2.00258255 0.9631239772 
-1.664980412 -9.024619102 -2.002490759 0.9631255865 
-0.856210947 -9.136030197 -2.002303839 0.963128984 
1.180610299 -9.097587585 -2.001826763 0.9631376266 
1.984335899 -8.955795288 -2.001636028 0.9631410837 
2.772207022 -8.743173599 -2.001447678 0.9631444216 
3.158203125 -8.610815048 -2.001354933 0.9631461501 
4.275644302 -8.112738609 -2.001083851 0.9631509781 
4.632062912 -7.91418457 -2.000996828 0.9631525874 
6.262990475 -6.695607662 -2.000591993 0.9631599188 
6.554377079 -6.410180569 -2.00051856 0.9631612301 
7.097714901 -5.801796913 -2.000379562 0.9631637335 
7.348508358 -5.480177879 -2.000314713 0.9631649256 
7.584804535 -5.147675514 -2.000253201 0.9631659985 
7.806025028 -4.80507803 -2.000194788 0.9631671309 
8.011850357 -4.452929497 -2.000139952 0.9631680846 
8.532616615 -3.346725941 -1.999996781 0.9631707072 
8.795973778 -2.57501936 -1.999920249 0.9631720185 
8.901672363 -2.181127787 -1.999887943 0.9631726146 
8.989752769 -1.783000469 -1.999859691 0.963173151 
9.060065269 -1.38127923 -1.99983561 0.9631735682 
9.146816254 -0.5705493093 -1.999799609 0.9631742239 
9.161239624 0.2446557581 -1.999780536 0.9631745815 
9.141269684 0.6519799829 -1.999777436 0.9631746411 
9.103227615 1.057932138 -1.999778509 0.9631745815 
9.047175407 1.461874962 -1.999783754 0.9631745219 
8.973237038 1.862844229 -1.99979341 0.9631743431 
8.881537437 2.260219574 -1.999807119 0.9631741047 
8.772287369 2.653044462 -1.99982512 0.9631738067 
8.64568615 3.040715218 -1.999847174 0.9631733298 
8.501982689 3.422302246 -1.999873519 0.9631729126 
8.34143734 3.797206879 -1.999903798 0.9631723762 
7.971225262 4.52372551 -1.999976516 0.9631710649 
7.29873991 5.544787407 -2.000113964 0.9631685019 
7.045011997 5.864152908 -2.000167131 0.9631676078 
6.777424335 6.171884537 -2.000223875 0.9631664753 
5.447316647 6.485339165 -1.848128796 0.9659190178 
2.846440315 7.979701996 -1.848708153 0.9659085274 
2.488740206 8.098784447 -1.848789454 0.9659070373 
1.762709975 8.305058479 -1.852610588 0.9658378363 
1.391533136 8.375062943 -1.852570772 0.9658385515 
0.2643994093 8.485634804 -1.852545023 0.9658390284 
-0.4908642471 8.475834846 -1.8526057 0.9658378959 
-0.8674706817 8.445854187 -1.852659464 0.9658369422 
-1.614833951 8.336025238 -1.852812886 0.9658341408 
-2.710439444 8.048418045 -1.853155613 0.9658279419 
-3.75171876 7.604130745 -1.850258112 0.9658804536 
-4.086396217 7.430063248 -1.85033977 0.9658789635 
-5.338271141 6.59025383 -1.850648642 0.9658733606 
-5.626376629 6.346488953 -1.850720763 0.9658721089 
-6.494721413 5.604609013 -1.87192297 0.9654875994 
-7.051206112 5.557485104 -1.959096909 0.9639101624 
-7.457060337 5.357187271 -2.003567934 0.9631059766 
-7.688241959 5.020361423 -2.003628254 0.9631047249 
-7.904081821 4.673501015 -2.003685474 0.9631040692 
-8.28864193 3.952695131 -2.003789425 0.9631021023 
-8.45644474 3.58019042 -2.003835678 0.9631012678 
-8.741533279 2.814540863 -2.003917217 0.9630997777 
-8.957392693 2.026533127 -2.003982782 0.9630985856 
-9.14772892 0.8162695169 -2.004050732 0.9630973935 
-9.175058365 0.408505857 -2.004064798 0.9630970955 
-8.796875 0 -2.003984213 0.9645544291 
-8.762099266 -0.7818603516 -2.003991365 0.9645543098 
-8.718637466 -1.170854449 -2.003988504 0.9645543098 
-8.65789032 -1.557534099 -2.003981829 0.9645544291 
-8.579985619 -1.941113234 -2.0039711 0.9645546675 
-8.485087395 -2.320854425 -2.003956318 0.9645549059 
-8.37334919 -2.695971727 -2.003937244 0.9645553231 
-7.763280869 -4.135688305 -2.003822327 0.9645572901 
-7.143305302 -5.131865025 -2.003696442 0.9645594358 
-6.396215916 -6.036499023 -2.003539324 0.9645621181 
-5.834082127 -6.580717564 -2.003418446 0.9645640254 
-5.535326958 -6.833481312 -2.003353357 0.9645653963 
-5.225717545 -7.072724342 -2.003285646 0.9645664692 
-4.576132774 -7.508642197 -2.003142118 0.964568913 
-3.535537004 -8.049980164 -2.002909184 0.9645730853 
-3.17381835 -8.198940277 -2.002827644 0.9645745158 
-2.805830002 -8.331655502 -2.002744198 0.9645760059 
-2.432333946 -8.44786644 -2.002658844 0.9645774961 
-1.286123037 -8.695302963 -2.00239563 0.964582026 
-0.5081444979 -8.774414062 -2.002215385 0.9645851851 
-0.1173144504 -8.787934303 -2.00212431 0.9645867348 
0.6641503572 -8.762773514 -2.001940966 0.9645899534 
1.824311495 -8.595229149 -2.001666546 0.9645947218 
2.204755783 -8.505185127 -2.001575708 0.9645962715 
3.675156116 -7.979043007 -2.001221895 0.9646024108 
4.026288986 -7.807323933 -2.001136541 0.9646039009 
5.648693562 -6.725085258 -2.000736237 0.964610815 
7.436240196 -4.669204235 -2.000278473 0.9646188021 
8.144677162 -3.278486252 -2.000086069 0.9646221399 
8.282294273 -2.912883282 -2.000046968 0.9646228552 
8.508127213 -2.165153742 -1.999979854 0.9646239877 
8.666665077 -1.400354028 -1.999927878 0.9646248817 
8.720293045 -1.013422847 -1.99990797 0.9646252394 
8.728791237 0.9357616901 -1.999868393 0.9646259546 
8.67854023 1.323132277 -1.999872684 0.964625895 
8.307404518 2.838898897 -1.999930263 0.9646248221 
8.172995567 3.205659151 -1.999954581 0.9646244645 
8.022418976 3.566103458 -1.999982834 0.9646239281 
7.855971336 3.919504404 -2.00001502 0.9646233916 
7.673976898 4.265165806 -2.000051022 0.9646227956 
7.476791859 4.60240221 -2.000090361 0.9646220803 
6.798183441 5.557004452 -2.000230789 0.9646196365 
6.277702332 6.139567852 -2.000341177 0.9646177292 
5.871091366 6.276655197 -1.957890391 0.9653554559 
4.993713379 6.394272327 -1.848236442 0.967263639 
4.405947208 6.813283443 -1.848365903 0.967261374 
3.460283041 7.339931488 -1.848576903 0.9672576785 
3.130478382 7.486884594 -1.84865129 0.9672564268 
2.452866077 7.736132622 -1.848804832 0.9672537446 
1.755737305 7.924218655 -1.848964214 0.9672509432 
0.6854931712 8.088485718 -1.849211216 0.967246592 
0.3250195384 8.111337662 -1.849295139 0.9672451615 
-0.03612304479 8.11812973 -1.84937942 0.967243731 
-0.3972265422 8.108857155 -1.849464059 0.9672422409 
-1.827006817 7.911855221 -1.849802256 0.96723634 
-2.177250862 7.823114872 -1.849885821 0.9672348499 
-2.52321291 7.718862057 -1.849968672 0.9672334194 
-3.19954586 7.464711666 -1.85013175 0.967230618 
-3.528588772 7.315302372 -1.85021162 0.9672292471 
-3.850678682 7.151406288 -1.85029006 0.9672278166 
-4.471445084 6.781405926 -1.85044229 0.9672251344 
-5.056826115 6.357651234 -1.850587249 0.9672227502 
-5.880371094 5.648573875 -1.857359529 0.967102468 
-6.373788834 5.600053787 -1.932795644 0.9657915831 
-6.858349323 5.505058289 -2.003424883 0.9645639658 
-7.096571922 5.194687366 -2.003486633 0.9645631909 
-7.320951939 4.873999119 -2.003545284 0.96456182 
-7.530605316 4.543652058 -2.003600836 0.964561224 
-7.725517273 4.204257488 -2.003652811 0.9645602107 
-7.905087948 3.856538057 -2.003701687 0.9645593166 
-8.069008827 3.501137733 -2.003746748 0.9645585418 
-8.216918945 3.138808489 -2.003788233 0.9645578265 
-8.348662376 2.770244122 -2.003826141 0.9645568728 
-8.463662148 2.396152258 -2.003860235 0.964556694 
-8.707680702 1.248378873 -2.00393939 0.9645550847 
-8.754648209 0.8598095775 -2.003957987 0.9645548463 
-8.796527863 0.07828613371 -2.003982782 0.9645544291 
-8.791327477 -0.3130956888 -2.003988981 0.9645543694 
-8.768715858 -0.7038525343 -2.003991365 0.9645542502 
-8.596933365 -1.864687443 -2.003973484 0.9645546079 
-8.39703083 -2.621352434 -2.003941536 0.9645552039 
-8.272021294 -2.992250919 -2.003919363 0.9645556211 
-7.799809456 -4.066454887 -2.003829718 0.9645571113 
-7.407226562 -4.743422508 -2.003750801 0.9645584822 
-7.188725471 -5.068115234 -2.003705978 0.964559257 
-6.449707031 -5.979370117 -2.003550768 0.9645619392 
-5.596054554 -6.784013748 -2.003366709 0.9645648599 
-4.642875671 -7.467695236 -2.0031569 0.9645684958 
-3.607060432 -8.018256187 -2.002925396 0.9645728469 
-3.246684551 -8.17043972 -2.002844095 0.9645742178 
-2.130048752 -8.528788567 -2.002589941 0.9645786881 
-1.748456955 -8.614721298 -2.002502203 0.9645801783 
-0.9757958651 -8.735248566 -2.002323866 0.9645832777 
-0.5862206817 -8.769618988 -2.002233505 0.964584887 
-0.1955224574 -8.786616325 -2.002142429 0.9645864367 
0.5861523151 -8.768417358 -2.001959324 0.9645895958 
0.9755761623 -8.733261108 -2.001867533 0.9645912051 
1.747763634 -8.611206055 -2.001684666 0.9645943642 
2.128993988 -8.52454567 -2.001593828 0.9645959735 
3.244228363 -8.164242744 -2.001326323 0.9646006227 
3.956679583 -7.842915058 -2.001153469 0.9646036029 
4.301464558 -7.658813477 -2.001069307 0.964605093 
5.281945705 -7.017299652 -2.000827551 0.9646092653 
5.58864975 -6.775146484 -2.000751257 0.9646105766 
6.168259144 -6.251149654 -2.000605583 0.9646131396 
7.176674843 -5.059611797 -2.000346899 0.96461761 
7.394438267 -4.735219479 -2.000289679 0.9646186233 
7.597546101 -4.401494026 -2.000235796 0.9646195769 
8.380595207 -2.616223097 -2.000018358 0.964623332 
8.488547325 -2.240793467 -1.999985814 0.9646238685 
8.710942268 -1.09099853 -1.999911666 0.9646251798 
8.750778198 -0.7024169564 -1.999894857 0.9646254778 
8.7733078 -0.3124535978 -1.999881983 0.9646257162 
8.778483391 0.07812988013 -1.999873281 0.9646258354 
8.766293526 0.4685522318 -1.999868631 0.9646259546 
8.689975739 1.245837331 -1.999871492 0.964625895 
8.62597847 1.63117671 -1.999879003 0.9646257758 
8.544931412 2.013298273 -1.999890566 0.9646255374 
8.446984291 2.39142561 -1.999906301 0.964625299 
8.332324028 2.764841318 -1.999925852 0.9646249413 
8.201171875 3.13279295 -1.999949455 0.9646245837 
7.084863186 5.186088562 -2.000170946 0.9646207094 
6.847311974 5.496244907 -2.000220537 0.964619875 
6.596222878 5.795549393 -2.000273466 0.9646189213 
6.332057953 6.083420277 -2.000329494 0.9646179676 
5.979367733 6.27946043 -1.975284338 0.9650530815 
5.050546646 6.349545956 -1.848224163 0.9672634602 
4.76309824 6.568139553 -1.848287106 0.9672627449 
4.466376781 6.773754597 -1.848352671 0.9672615528 
4.160781384 6.965981483 -1.848420382 0.9672604203 
3.846933603 7.144443035 -1.848490238 0.9672592282 
2.521601439 7.713935375 -1.848789215 0.967253983 
2.176054716 7.818798542 -1.848867893 0.9672526121 
1.4726367 7.981967449 -1.849029303 0.9672498107 
0.3971923888 8.108046532 -1.849278331 0.9672454596 
0.03612304479 8.118056297 -1.849362612 0.967244029 
-0.3250585794 8.112006187 -1.849447131 0.9672424793 
-0.6856054664 8.089878082 -1.84953177 0.9672410488 
-1.044853449 8.051742554 -1.849616647 0.9672395587 
-1.402050734 7.997661114 -1.849701166 0.9672380686 
-1.756508708 7.927734375 -1.849785447 0.9672366381 
-2.107529163 7.842109203 -1.849869013 0.967235148 
-2.454399347 7.740937233 -1.849952221 0.9672337174 
-3.132963896 7.49282217 -1.850115657 0.9672308564 
-3.463315248 7.346357346 -1.850195765 0.9672294855 
-3.786840677 7.18533659 -1.850274444 0.9672281146 
-4.102924824 7.010053635 -1.850351691 0.9672267437 
-5.000029087 6.402358055 -1.850573182 0.967222929 
-5.280077934 6.173828125 -1.850643158 0.9672217369 
-5.80849123 5.680502892 -1.850776196 0.9672189951 
-6.270346642 5.608832836 -1.91648972 0.9660752416 
-7.050029278 5.25760746 -2.003474474 0.9645633698 
-7.277148247 4.93893528 -2.00353384 0.9645623565 
-7.48985815 4.610463619 -2.003589869 0.9645613432 
-7.687773228 4.272827148 -2.003642797 0.9645603299 
-8.188642502 3.211801767 -2.003780365 0.9645579457 
-8.323574066 2.844404221 -2.003818989 0.9645572901 
-8.543720245 2.093432665 -2.003884792 0.964556098 
-8.62849617 1.71132803 -2.003911972 0.9645556808 
-8.696190834 1.325825214 -2.003935337 0.9645552039 
-8.793768883 -0.2348388582 -2.003988028 0.9645543098 
-8.774619102 -0.6257861257 -2.003991127 0.9645543098 
-8.738100052 -1.015498042 -2.003990173 0.9645543098 
-8.613203049 -1.7881006 -2.003975868 0.9645545483 
-8.525073051 -2.169472694 -2.003962755 0.9645547867 
-8.42005825 -2.546528339 -2.003945351 0.9645550847 
-8.160209656 -3.284741163 -2.003898621 0.9645559192 
-8.005893707 -3.64442873 -2.003869534 0.9645564556 
-7.835722446 -3.996884584 -2.003836632 0.9645569921 
-7.449179649 -4.677329063 -2.003759384 0.964558363 
-7.003662109 -5.320659161 -2.003667593 0.9645599127 
-6.502685547 -5.921762466 -2.003561974 0.96456182 
-5.950322151 -6.475917816 -2.00344348 0.9645637274 
-4.709482193 -7.426176548 -2.003171682 0.9645674825 
-4.030073166 -7.814662933 -2.003020525 0.9645712376 
-3.678320169 -7.985898495 -2.00294137 0.9645725489 
-3.319287062 -8.141283989 -2.002860546 0.9645739794 
-2.582343578 -8.403388023 -2.002693176 0.9645768404 
-1.053505778 -8.726298332 -2.002341986 0.9645829797 
-0.6642480493 -8.764130592 -2.002251625 0.9645845294 
-0.2737158239 -8.784613609 -2.002160788 0.9645860791 
0.5080956817 -8.773368835 -2.001977682 0.9645892978 
1.285732388 -8.692689896 -2.001794338 0.9645925164 
1.67107904 -8.626494408 -2.001703024 0.9645940661 
2.053066254 -8.543236732 -2.001611948 0.9645956159 
2.430957079 -8.443076134 -2.001521826 0.9645971656 
2.804003954 -8.326195717 -2.00143218 0.9645987749 
3.171474457 -8.192861557 -2.001343727 0.9646003246 
4.900114536 -7.289562702 -2.000922203 0.9646075964 
6.112424374 -6.305837154 -2.00061965 0.9646129012 
6.386664867 -6.027485371 -2.00055027 0.9646140933 
6.648241997 -5.73722887 -2.000483513 0.9646152258 
6.896657467 -5.435636997 -2.000419617 0.9646163583 
7.131415844 -5.123302937 -2.000358582 0.9646174312 
7.558110237 -4.468952656 -2.000246286 0.9646193981 
7.749226093 -4.128212929 -2.000195026 0.9646202922 
8.08510685 -3.422956467 -2.000102997 0.9646218419 
8.229199409 -3.059855938 -2.000062227 0.9646225572 
8.357013702 -2.690710306 -2.000025034 0.9646232128 
8.468285561 -2.316254854 -1.999992013 0.9646238089 
8.640412331 -1.554394484 -1.999937057 0.9646247029 
8.700901031 -1.168483853 -1.999915481 0.9646251202 
8.770190239 -0.3905151188 -1.999884248 0.9646256566 
8.778832436 0 -1.999874711 0.9646258354 
8.770124435 0.3905102313 -1.999869227 0.964625895 
8.744042397 0.7802514434 -1.999867797 0.9646260142 
8.700713158 1.168454528 -1.99987042 0.964625895 
8.640153885 1.554350495 -1.999877095 0.9646257758 
8.562504768 1.937158108 -1.999887943 0.964625597 
8.467914581 2.316164494 -1.999902725 0.9646253586 
7.924433231 3.779028177 -2.000001669 0.96462363 
6.895929813 5.435070515 -2.000210285 0.9646199942 
6.647500038 5.7365942 -2.000262499 0.9646191001 
4.526447773 6.733681679 -1.848339319 0.9672618508 
3.590312481 7.277060509 -1.848547578 0.967258215 
3.263193369 7.429862976 -1.84862113 0.9672569036 
2.929540873 7.567973614 -1.848696589 0.967255652 
2.590136766 7.691127777 -1.848773599 0.9672542214 
2.245527267 7.799062252 -1.848852038 0.9672529101 
1.896459937 7.891571999 -1.848931789 0.9672514796 
1.543588877 7.968471527 -1.849012971 0.9672501087 
0.829335928 8.074848175 -1.849177957 0.9672472477 
0.4693359137 8.104121208 -1.849261642 0.9672457576 
0.1083740219 8.117343903 -1.849345684 0.9672442675 
-0.252846688 8.114497185 -1.849430203 0.967242837 
-0.613583982 8.095590591 -1.849514842 0.9672413468 
-2.38539052 7.762402058 -1.849935532 0.9672340155 
-2.728447199 7.6489501 -1.850017905 0.967232585 
-3.066142559 7.520341396 -1.850099444 0.9672311544 
-3.397773266 7.376821041 -1.850179672 0.9672297835 
-4.040341854 7.046230316 -1.850336432 0.9672269821 
-4.349941254 6.85980463 -1.850412369 0.9672257304 
-4.650976658 6.659780025 -1.850486517 0.9672244191 
-4.942802429 6.446557522 -1.850558996 0.9672231674 
-5.224873066 6.220541954 -1.85062921 0.9672219157 
-5.496630669 5.982167721 -1.850697398 0.9672207832 
-6.168535233 5.617441177 -1.900596023 0.9663519263 
-6.694746017 5.572636604 -1.984331489 0.9648960233 
-7.649389267 4.341064453 -2.003632545 0.9645605087 
-8.00534153 3.644179583 -2.003729105 0.9645588398 
-8.159697533 3.284540892 -2.00377202 0.9645580649 
-8.297821999 2.918349504 -2.003811359 0.9645576477 
-8.419657707 2.546396494 -2.003847122 0.9645567536 
-8.524736404 2.169374943 -2.003878832 0.9645562172 
-8.61289978 1.788041949 -2.003906965 0.9645558 
-8.737929344 1.015488267 -2.003951073 0.9645549655 
-8.774520874 0.6257910132 -2.003967047 0.9645547271 
-8.795497894 -0.1565820277 -2.003987074 0.9645543694 
-8.746787071 -0.9377001524 -2.00399065 0.9645543098 
-8.696401596 -1.325859308 -2.003986359 0.9645543694 
-8.62878418 -1.711386681 -2.003978014 0.9645544887 
-8.544062614 -2.093515635 -2.003965616 0.9645547271 
-8.442401886 -2.471484423 -2.003949165 0.9645550251 
-8.189130783 -3.211987257 -2.003904104 0.9645558596 
-8.0380373 -3.573061466 -2.003875732 0.9645562768 
-7.871005535 -3.927011728 -2.003843546 0.9645568728 
-7.0507617 -5.258129597 -2.003677368 0.9645597935 
-6.555170536 -5.863681316 -2.003573179 0.9645616412 
-6.287704945 -6.149325848 -2.003516197 0.9645624757 
-6.007656097 -6.422724247 -2.003455877 0.964563787 
-5.716005802 -6.683442116 -2.003392696 0.9645643234 
-5.412870884 -6.930849552 -2.003326654 0.9645655155 
-4.77509737 -7.383979321 -2.003186226 0.9645680189 
-4.441635609 -7.588778973 -2.003112316 0.9645695686 
-4.099511623 -7.77855444 -2.003035784 0.9645708799 
-3.749287128 -7.952905178 -2.002957344 0.9645722508 
-3.391630888 -8.111489296 -2.002876759 0.9645736814 
-3.0273242 -8.254003525 -2.002794266 0.9645751119 
-2.657041073 -8.380146027 -2.002710104 0.9645765424 
-0.7422314286 -8.757948875 -2.002269745 0.9645842314 
-0.3518847525 -8.781908989 -2.002178907 0.9645857811 
0.4300048649 -8.777622223 -2.00199604 0.9645889997 
1.594243169 -8.641108513 -2.001721144 0.9645937681 
1.976967692 -8.561249733 -2.001630306 0.9645953178 
2.729824066 -8.350893021 -2.001450062 0.9645984769 
3.816523314 -7.9122262 -2.001187563 0.9646030068 
4.164535999 -7.73429203 -2.001102686 0.964604497 
4.504274845 -7.541066647 -2.001019478 0.9646059275 
4.835078239 -7.332931995 -2.000938177 0.964607358 
5.76741457 -6.623373985 -2.000706434 0.9646113515 
6.596970081 -5.796208382 -2.000496626 0.9646149874 
6.848049164 -5.496835709 -2.000432014 0.9646161199 
7.085580826 -5.186606407 -2.000370502 0.9646171927 
7.309054852 -4.86613512 -2.00031209 0.9646182656 
7.518075943 -4.53605938 -2.000257015 0.9646192193 
7.712221622 -4.197026253 -2.00020504 0.9646201134 
8.773259163 0.312451154 -1.999869943 0.964625895 
8.750658989 0.7023999095 -1.999867797 0.9646259546 
8.579391479 1.860878825 -1.999885559 0.9646256566 
8.488178253 2.240712881 -1.999899507 0.9646253586 
8.380175591 2.616098642 -1.999917507 0.9646250606 
8.2555933 2.98631835 -1.999939561 0.9646247029 
8.114689827 3.35064435 -1.999965429 0.9646242261 
7.596916199 4.401110649 -2.00006628 0.964622438 
7.393759727 4.734789848 -2.000107288 0.9646217823 
7.175973892 5.0591259 -2.000152111 0.9646210074 
6.943998814 5.373461723 -2.000200033 0.964620173 
6.439264774 5.969694614 -2.000306845 0.9646183252 
5.66003418 6.27111578 -1.924429774 0.9659373164 
4.879184246 6.482223988 -1.848261714 0.9672631621 
4.586164474 6.693080902 -1.848326087 0.9672620893 
3.973417997 7.074738503 -1.848461986 0.9672597051 
3.329155207 7.400468349 -1.848606348 0.9672572017 
2.658466816 7.667709827 -1.848758101 0.9672545195 
1.614433527 7.95435524 -1.848996639 0.9672503471 
1.259057641 8.018642426 -1.849078536 0.9672489762 
0.5414306521 8.099545479 -1.849244833 0.9672460556 
0.1806054711 8.115981102 -1.849328876 0.9672445655 
-0.5414941311 8.100653648 -1.849497914 0.9672416449 
-0.9013574123 8.068910599 -1.849582791 0.9672402143 
-1.259472609 8.021201134 -1.849667311 0.9672386646 
-1.967578053 7.878227234 -1.849835753 0.967235744 
-2.316191435 7.783251762 -1.849919081 0.9672343135 
-2.999057531 7.54726553 -1.850083232 0.9672314525 
-4.288720608 6.898188114 -1.850397348 0.9672259092 
-5.706318378 5.782905102 -1.850750208 0.9672195911 
-6.955424786 5.382167816 -2.003450155 0.9645633101 
-7.188080788 5.067602634 -2.003510475 0.9645625353 
-7.406664848 4.742973328 -2.003567934 0.9645613432 
-7.61041975 4.408935547 -2.003621817 0.9645606875 
-8.130102158 3.357011557 -2.003763914 0.9645582438 
-8.505058289 2.245141506 -2.003872871 0.9645563364 
-8.671181679 1.480380774 -2.003926516 0.9645553827 
-8.728559494 1.093203068 -2.003947496 0.9645549655 
-8.796543121 -0.07828613371 -2.003985882 0.9645543694 
-8.707870483 -1.248408198 -2.003987789 0.9645543098 
-8.643676758 -1.634526372 -2.00398016 0.9645544887 
-8.562353134 -2.017402411 -2.003968477 0.9645547271 
-8.349018097 -2.770380735 -2.003932953 0.9645553231 
-7.905673504 -3.856835842 -2.00385046 0.9645567536 
-7.726142406 -4.204609394 -2.003814936 0.9645573497 
-7.531308651 -4.544052601 -2.003776073 0.9645580649 
-7.32156229 -4.874472618 -2.003733397 0.9645587802 
-6.859013557 -5.505644321 -2.003637314 0.9645605087 
-6.342216492 -6.093159199 -2.00352788 0.9645622373 
-6.064755917 -6.36905241 -2.003468275 0.9645631909 
-5.474326134 -6.882451057 -2.003340006 0.9645653963 
-4.84068346 -7.341254711 -2.003200769 0.9645677209 
-4.508964539 -7.549008846 -2.003127337 0.9645694494 
-3.819931507 -7.919291973 -2.002973318 0.9645720124 
-3.463735342 -8.081045151 -2.002892971 0.9645733833 
-3.100693226 -8.226801872 -2.002810955 0.9645748138 
-2.731523275 -8.356235504 -2.00272727 0.964576304 
-1.977875948 -8.565199852 -2.002555132 0.9645792842 
-1.594824195 -8.644330978 -2.002466917 0.9645807743 
-0.8201562166 -8.751078606 -2.002287865 0.9645839334 
-0.4300390482 -8.778500557 -2.002197266 0.9645854831 
1.130834937 -8.714355469 -2.001831055 0.9645918608 
1.517294884 -8.655029297 -2.001739502 0.9645934701 
1.900722623 -8.578578949 -2.001648426 0.9645950198 
2.280336857 -8.485146523 -2.001557827 0.9645966291 
3.02519536 -8.248164177 -2.001379013 0.964599669 
3.745995998 -7.945942402 -2.001204729 0.9646027088 
6.278473854 -6.140287876 -2.000577688 0.9646135569 
7.03918457 -5.249484539 -2.000382662 0.9646170139 
7.265510082 -4.931022644 -2.000323534 0.9646180272 
7.477446079 -4.602817059 -2.000267744 0.9646190405 
7.674594402 -4.265524864 -2.000215054 0.9646199346 
7.856562138 -3.919816732 -2.000165939 0.964620769 
8.022973061 -3.566337824 -2.000120163 0.9646215439 
8.30784893 -2.839042902 -2.000039577 0.9646229744 
8.425773621 -2.466628313 -2.000004768 0.9646235704 
8.527033806 -2.089353085 -1.999973893 0.9646241069 
8.611415863 -1.707944274 -1.999946833 0.9646245837 
8.728947639 -0.9357885718 -1.999904394 0.964625299 
8.775691032 0.2343603522 -1.999870896 0.964625895 
8.756560326 0.6245068312 -1.999867916 0.9646259546 
8.666433334 1.400317311 -1.999874115 0.9646258354 
7.990385532 3.637370586 -1.999988914 0.9646238685 
7.820800781 3.989279747 -2.000021935 0.9646232724 
7.63574934 4.333315372 -2.000058651 0.9646226168 
5.258796215 6.260890961 -1.862637877 0.9670128226 
4.936647892 6.438498497 -1.848248959 0.9672634006 
3.719218731 7.211899281 -1.848518729 0.9672586918 
3.063725471 7.514511585 -1.848666191 0.9672561884 
2.383945227 7.757724285 -1.848820448 0.9672534466 
1.685156226 7.9395895 -1.848980308 0.9672507048 
1.330371022 8.007050514 -1.849061966 0.9672492146 
0.6134814024 8.094330788 -1.849228024 0.9672463536 
-0.4693896472 8.105077744 -1.849480987 0.9672419429 
-1.188007832 8.032016754 -1.849650383 0.9672390223 
-1.544199228 7.971581936 -1.849734902 0.9672375321 
-1.897372961 7.895356178 -1.849818945 0.967236042 
-2.246821165 7.803486347 -1.849902511 0.9672346115 
-3.265888691 7.436005592 -1.850147843 0.96723032 
-3.593588829 7.283676624 -1.850227356 0.9672289491 
-3.914208889 7.116909027 -1.850305557 0.9672275782 
-4.531611443 6.741405964 -1.850457072 0.9672249556 
-5.113286018 6.312436581 -1.850601435 0.9672223926 
-5.654521465 5.833422661 -1.850737214 0.9672200084 
-7.142656326 5.131357193 -2.003498554 0.9645627141 
-7.364013672 4.808681488 -2.003556728 0.9645618796 
-7.93914032 3.786040068 -2.003710985 0.9645591378 
-8.099887848 3.429213762 -2.003755331 0.964558363 
-8.372870445 2.695834875 -2.003833294 0.9645572305 
-8.484697342 2.320751905 -2.003866673 0.9645564556 
-8.657650948 1.557485342 -2.003921747 0.9645554423 
-8.718457222 1.170834899 -2.003943443 0.9645550251 
-8.761962891 0.7818456888 -2.003961086 0.9645548463 
-8.788129807 0.391318351 -2.003974676 0.9645546079 
-8.788192749 -0.3913134634 -2.003989935 0.9645543694 
-8.718632698 -1.170859337 -2.003988504 0.9645543694 
-8.65789032 -1.557548761 -2.003981829 0.9645544291 
-8.100409508 -3.429433584 -2.003887653 0.964556098 
-7.939706802 -3.786318302 -2.003856897 0.964556694 
-7.763290882 -4.135688305 -2.003822327 0.9645572305 
-7.364677429 -4.809145451 -2.003742218 0.964558661 
-6.121205807 -6.314877987 -2.003480434 0.9645630121 
-5.225497723 -7.072695255 -2.003285646 0.9645670652 
-4.905693054 -7.297914982 -2.003215075 0.9645678401 
-4.237348557 -7.704482079 -2.003066778 0.9645704031 
-3.890292883 -7.885038853 -2.002989054 0.9645717144 
-3.17381835 -8.198935509 -2.002827644 0.9645745754 
-2.805844545 -8.331665039 -2.002744198 0.9645759463 
-2.054033041 -8.547333717 -2.002572536 0.9645789862 
-0.8980078101 -8.743520737 -2.002305746 0.9645835757 
-0.5081444979 -8.774414062 -2.002215385 0.9645851851 
0.2736962736 -8.784052849 -2.002032757 0.9645883441 
2.580800772 -8.398310661 -2.001485825 0.9645978808 
3.316723585 -8.134980202 -2.00130868 0.9646009207 
3.675156116 -7.979037762 -2.001221895 0.9646024108 
4.026293755 -7.807319164 -2.001136541 0.9646039009 
4.369418621 -7.620168209 -2.001052618 0.964605391 
6.223605633 -6.195976257 -2.000591516 0.9646133184 
7.221384048 -4.995512486 -2.000335217 0.9646178484 
8.144680023 -3.278476477 -2.000086069 0.9646221399 
8.508131981 -2.165156126 -1.999979854 0.9646239877 
8.720288277 -1.013430119 -1.99990797 0.9646252394 
8.756674767 -0.6245190501 -1.999891877 0.9646255374 
8.775730133 -0.2343652248 -1.999880075 0.9646257162 
8.761775017 0.5465551615 -1.999868155 0.9646259546 
8.72878933 0.9357665777 -1.999868393 0.9646259546 
8.526696205 2.089257717 -1.999893427 0.9646254778 
7.673979282 4.265165806 -2.000051022 0.964622736 
7.476791859 4.60240221 -2.000090361 0.9646220803 
7.264814377 4.930551529 -2.000133753 0.9646213651 
7.038464069 5.248954773 -2.000180483 0.9646205306 
6.798173904 5.556999207 -2.000230789 0.9646196365 
6.544414043 5.854064941 -2.000284433 0.9646187425 
6.277699947 6.139575005 -2.000341177 0.9646177292 
4.704492092 6.610304832 -1.84829998 0.9672625065 
4.405947208 6.813283443 -1.848365903 0.967261374 
2.452866077 7.736132622 -1.848804832 0.9672537446 
2.106401205 7.837929726 -1.848883986 0.9672523141 
0.3250292838 8.111332893 -1.849295139 0.9672451615 
-0.0361132808 8.11812973 -1.84937942 0.967243731 
-0.7575781345 8.083535194 -1.849548697 0.9672407508 
-2.177260637 7.823105335 -1.849885821 0.9672349095 
-3.528588772 7.315297604 -1.85021162 0.9672292471 
-3.850678682 7.151406288 -1.85029006 0.9672278166 
-4.165156364 6.973325253 -1.85036695 0.9672265053 
-4.768827915 6.576059341 -1.850515842 0.9672239423 
-5.056826115 6.357651234 -1.850587249 0.9672227502 
-5.334828854 6.126650333 -1.850656867 0.9672214985 
-5.880375862 5.648579121 -1.857357264 0.9671024084 
-6.858359337 5.505043983 -2.003424883 0.9645640254 
-7.096562386 5.19467783 -2.003486633 0.9645632505 
-7.320951939 4.873989105 -2.003545284 0.9645618796 
-7.530903339 4.543627739 -2.003600836 0.9645603299 
-8.069008827 3.501137733 -2.003746748 0.9645585418 
-8.21693325 3.13880372 -2.003788233 0.9645578265 
-8.348662376 2.770244122 -2.003826141 0.9645568728 
-8.463662148 2.396152258 -2.003860235 0.964556694 
-8.562030792 2.017324209 -2.003890753 0.9645560384 
-8.707675934 1.248388648 -2.00393939 0.9645550847 
-8.754648209 0.8598095775 -2.003957987 0.9645548463 
-8.791327477 -0.3131152391 -2.003988981 0.9645543694 
-8.728711128 -1.093237281 -2.003989458 0.9645543098 
-8.671410561 -1.480439425 -2.003983498 0.9645544291 
-8.505414963 -2.245258808 -2.003959417 0.9645548463 
-8.272026062 -2.992250919 -2.003919363 0.9645555615 
-8.130624771 -3.357226372 -2.003893137 0.9645560384 
-7.973114967 -3.715522289 -2.003863335 0.9645565748 
-7.18873024 -5.068110466 -2.003705978 0.964559257 
-6.709501743 -5.686689377 -2.003605843 0.9645609856 
-5.596005917 -6.784018517 -2.003366709 0.9645649791 
-5.28844738 -7.025990963 -2.003299475 0.96456635 
-4.9708395 -7.25409174 -2.00322938 0.964566648 
-4.642875671 -7.467695236 -2.0031569 0.9645684958 
-3.246684551 -8.17043972 -2.002844095 0.9645742178 
-2.879902363 -8.306430817 -2.002760887 0.9645757079 
-1.74848628 -8.614721298 -2.002502203 0.9645801783 
-1.363476515 -8.68359375 -2.002413511 0.964581728 
-0.5862304568 -8.769618988 -2.002233505 0.9645848274 
0.1955371052 -8.786225319 -2.002051115 0.9645879865 
0.5861620903 -8.768407822 -2.001959324 0.9645896554 
