# .PCD v0.7 - Point Cloud Data file format
VERSION 0.7
FIELDS x y z intensities
SIZE 4 4 4 4
TYPE F F F F
COUNT 1 1 1 1
WIDTH 918
HEIGHT 1
VIEWPOINT 0 0 0 1 0 0 0
POINTS 918
DATA ascii
39.02404022 7.020336628 -1.995390892 0.8531647325 
13.57726574 3.713674307 -0.708368659 0.9451844096 
22.86738205 9.681264877 -1.249675155 0.9053307176 
33.14482498 15.80621147 -1.847952485 0.8632344007 
32.39169693 17.25584602 -1.846973419 0.8633016944 
26.02160645 16.99206161 -1.563994408 0.8829646707 
22.95090675 19.80591583 -1.525603294 0.8856665492 
25.45601845 26.2614975 -1.840580821 0.8637411594 
20.26143074 22.85465813 -1.537050486 0.8848600984 
20.16931915 24.8994751 -1.612572551 0.8795576692 
20.39044189 30.33344841 -1.839352012 0.8638257384 
19.01900101 31.2073555 -1.839167476 0.8638383746 
16.16735077 32.76879501 -1.838863134 0.8638593554 
14.69266319 33.45327759 -1.83873868 0.8638679385 
13.18942833 34.07235718 -1.838662863 0.8638731241 
3.945605278 16.41845703 -0.8497755527 0.9346070886 
3.560322285 18.37935066 -0.9421238303 0.9277631044 
0.9935790896 17.15632248 -0.8648319244 0.9334878922 
0.4880468547 36.55565643 -1.839811683 0.8637942076 
-1.138828158 36.54833221 -1.840170503 0.8637694716 
-4.384750843 36.31944275 -1.841026545 0.8637103438 
-4.974326134 29.93906212 -1.52731812 0.885545373 
-8.300229073 32.01942825 -1.664620519 0.8759217858 
-8.175346375 26.60381317 -1.40061295 0.8945205808 
-8.015199661 19.65895462 -1.068395734 0.9184865952 
-7.748744965 11.09548759 -0.6810632348 0.9472406507 
-7.725224495 10.07542419 -0.6389296055 0.9504221678 
-7.87569809 9.37647438 -0.616232872 0.9521403909 
-7.448388577 7.415322304 -0.5289230347 0.9587794542 
-8.459652901 7.041645527 -0.5539147854 0.9568744898 
-9.043740273 6.870458603 -0.5715603232 0.9555315971 
-10.97392082 6.890497684 -0.6520977616 0.949426651 
-12.17703056 6.910492897 -0.7046058774 0.9454674125 
-13.56254387 6.91805172 -0.7661924362 0.940844655 
-14.94808578 6.804643631 -0.8265302777 0.9363375902 
-22.09343719 6.681796551 -1.161575317 0.9117004871 
-14.66915989 0.3917431533 -0.7384808064 0.9429218769 
-14.75682068 -0.262714833 -0.7427446842 0.9426018 
-14.84550285 -0.9260546565 -0.7485439777 0.9421669841 
-15.10144997 -1.618950129 -0.7643260956 0.9409843087 
-39.4641304 -6.016723633 -2.00895524 0.8522437811 
-20.09500885 -3.985546827 -1.030969501 0.9212263823 
-19.7062645 -4.828574181 -1.021043539 0.9219543934 
-25.66473579 -7.51329565 -1.345771313 0.8984332085 
-25.35997581 -8.666278839 -1.348688364 0.8982245922 
-34.2700386 -13.44159603 -1.852535009 0.8629196286 
-33.62520981 -14.94704056 -1.851823688 0.8629686236 
-32.91431046 -16.42167854 -1.851105571 0.8630177379 
-32.13857651 -17.86254311 -1.85038054 0.8630677462 
-23.76215363 -14.62702084 -1.40421629 0.894264102 
-30.39964867 -20.63242149 -1.848916292 0.8631675839 
-27.3558979 -24.47017097 -1.847077489 0.8632947206 
-13.81185055 -14.76600552 -1.017503381 0.92221421 
-8.038183212 -13.73369598 -0.8008180261 0.9382554889 
-6.45733881 -13.69721603 -0.7620626688 0.9411537647 
-5.72006321 -13.68019485 -0.7462067008 0.9423422813 
-4.327333927 -13.6480608 -0.720528841 0.9442700148 
-3.017236233 -13.61782646 -0.701928854 0.945668757 
-2.38475585 -13.60322762 -0.6950153708 0.9461892843 
-1.150458932 -13.5747509 -0.6855906248 0.9468992352 
-0.5433691144 -13.56075191 -0.6829833984 0.9470956326 
0.06029296666 -13.54681587 -0.681743145 0.9471892715 
1.267001867 -13.51898384 -0.6833174229 0.9470705986 
2.366181612 -12.82514095 -0.6563102603 0.9491083026 
3.033652306 -13.13726521 -0.6785241365 0.947431922 
3.628388643 -13.03725529 -0.6810276508 0.9472430944 
4.493051529 -13.74483395 -0.7277208567 0.9437296987 
5.672243595 -13.23359871 -0.7245729566 0.9439662099 
12.84815121 -23.8613224 -1.363818645 0.8971437216 
12.74349117 -19.32693863 -1.16501689 0.9114508629 
12.70167732 -17.51514626 -1.088818669 0.9169950485 
12.66492939 -15.92284679 -1.023873806 0.9217467308 
12.63225842 -14.50709438 -0.9680503011 0.9258509874 
13.09186268 -12.57777309 -0.9136312604 0.9298693538 
19.21009445 -12.78948689 -1.161396146 0.9117137194 
21.12415314 -12.7453661 -1.241572976 0.9059146643 
38.4789238 -9.066146851 -1.989453673 0.8535677791 
38.85502243 -7.347546101 -1.990012884 0.8535298705 
39.15475845 -5.61348629 -1.990596175 0.8534906507 
39.37787628 -3.86730957 -1.991201758 0.8534489274 
39.58072662 1.409609318 -1.99314332 0.85331738 
39.49244308 3.16999507 -1.993827581 0.8532707095 
28.01654816 4.783085823 -1.43031919 0.8924083114 
15.07184982 3.269086838 -0.7761196494 0.9401016235 
34.57189941 12.50578213 -1.850142002 0.8630840778 
31.74368668 18.39001846 -1.846199274 0.8633550406 
27.5122509 17.61818695 -1.644097209 0.8773536682 
24.61531639 17.35401535 -1.515655279 0.8863678575 
20.66010666 30.15149879 -1.839394927 0.863822639 
19.29629135 31.03740692 -1.839200497 0.8638361692 
17.89511681 31.86252594 -1.839055538 0.8638461828 
16.45861053 32.6241951 -1.83889401 0.8638571501 
14.99001694 33.32169724 -1.838759542 0.8638660908 
11.96827412 34.51973343 -1.838637352 0.8638747931 
4.987353325 16.75934792 -0.8799583912 0.9323646426 
5.668285847 36.10008621 -1.838980198 0.863851428 
1.145576119 17.13723183 -0.864348948 0.9335237741 
-4.061118126 36.3551178 -1.840932846 0.86371696 
-8.869804382 35.51482773 -1.842166662 0.863632381 
-7.970439434 17.71772003 -0.9777039289 0.9251400232 
-7.885644436 14.04052258 -0.8103951812 0.9375406504 
-7.928164005 12.75213814 -0.7556632757 0.9416336417 
-7.75382328 11.31597614 -0.6903318763 0.9465420246 
-7.729691982 10.26924324 -0.6468319297 0.9498245716 
-8.376815796 9.281215668 -0.6291804314 0.9511597753 
-7.408827782 7.508383751 -0.5308383107 0.9586333632 
-7.598935604 7.044794559 -0.5214681625 0.9593485594 
-8.454003334 7.165283203 -0.5576984882 0.9565863609 
-13.32388687 6.946435452 -0.7561712265 0.9415951967 
-29.77971649 6.459228516 -1.533492684 0.8851103783 
-39.44487381 6.734184265 -2.013762951 0.8519181013 
-16.92420769 1.35847652 -0.8544409275 0.9342600107 
-14.65171814 0.5218017697 -0.7378066778 0.9429724216 
-14.8276701 -0.7925195098 -0.7472593784 0.9422633052 
-14.91744137 -1.465073228 -0.754324615 0.9417337179 
-39.51894379 -5.665708065 -2.009100437 0.8522340059 
-20.63850594 -3.902778149 -1.05702889 0.9193177819 
-32.29879379 -17.57720184 -1.850525618 0.8630577922 
-27.57435417 -24.227314 -1.847195745 0.8632865548 
-13.71028805 -14.3983593 -1.000538707 0.9234600663 
-9.499115944 -13.09893513 -0.8142877221 0.9372504354 
-9.071220398 -13.75754833 -0.8292950988 0.9361314178 
-6.608647346 -13.70070744 -0.7655008435 0.9408964515 
-5.151132584 -13.66707039 -0.7350180745 0.9431817532 
-2.510263681 -13.60612774 -0.6962776184 0.9460942745 
1.145971656 -13.52178192 -0.682915628 0.9471008182 
1.666386724 -12.8412838 -0.6516485214 0.9494605064 
2.916703939 -13.16407681 -0.6785417199 0.9474306107 
3.504882812 -13.04170418 -0.6796050668 0.9473504424 
5.03661108 -13.73228931 -0.7360859513 0.9431016445 
5.680361271 -13.58514118 -0.7410261631 0.942731142 
6.006635666 -12.74118614 -0.7088708282 0.9451462626 
12.86064148 -24.4023037 -1.388146162 0.89540869 
12.63850594 -14.7778368 -0.9785704017 0.9250760674 
12.86611557 -12.58298302 -0.9056584239 0.9304597378 
14.83928394 -12.13000965 -0.9645271301 0.9261105657 
16.75269508 -12.49337864 -1.051693439 0.9197081923 
20.72043991 -12.754673 -1.224468708 0.9071487188 
25.35051537 -12.64793396 -1.425719261 0.8927350044 
28.05405998 -12.47047806 -1.545007467 0.8843000531 
39.10103226 -5.961374283 -1.990477562 0.8534983397 
28.44892311 4.596743107 -1.450251102 0.890994072 
34.68561554 12.19895935 -1.850342989 0.86307019 
32.70054245 16.68006325 -1.847363591 0.8632751703 
24.69698715 17.08454704 -1.511265278 0.8866779208 
23.05579948 17.51535606 -1.457119703 0.890507102 
27.05917168 24.64181137 -1.84177947 0.8636587858 
22.36105347 22.26177216 -1.588029504 0.8812865019 
19.57221222 30.86506462 -1.839235306 0.863833487 
18.17821312 31.70245934 -1.839080572 0.8638443947 
13.75478935 33.73661423 -1.833465219 0.8642303944 
4.250654221 16.39752388 -0.8524739146 0.9344064593 
3.58851552 16.90725517 -0.8698042631 0.9331185222 
5.989289284 36.04748154 -1.838944554 0.8638539314 
-2.114384651 36.50963211 -1.840408325 0.8637530804 
-3.737236261 36.38795853 -1.840840816 0.8637234569 
-8.498915672 35.36563873 -1.83042562 0.8644393086 
-8.220229149 28.54994011 -1.49513185 0.8878170848 
-8.11771965 24.10469246 -1.279996037 0.9031484723 
-7.892802715 14.35090256 -0.8242247701 0.93650949 
-7.859242916 12.89585876 -0.7600038648 0.9413083792 
-7.734277248 10.46792412 -0.6549845934 0.9492084384 
-7.4390378 7.674433231 -0.5378767252 0.9580966234 
-7.550444126 7.125829697 -0.5224710107 0.9592719078 
-8.301308632 7.163779259 -0.5518082976 0.9570347667 
-8.796709061 6.933154106 -0.5636591911 0.9561326504 
-9.781982422 7.027509689 -0.6061416268 0.9529055357 
-10.81094742 7.059501648 -0.6497779489 0.9496020079 
-11.74712372 6.945795536 -0.6867759824 0.9468100071 
-13.14359379 7.001894474 -0.7494466901 0.9420993328 
-14.22226524 6.782353401 -0.7929467559 0.9388434887 
-39.38563538 7.085356236 -2.013881445 0.8519102335 
-39.64992905 5.3247118 -2.0132761 0.8519512415 
-14.63430595 0.6516211033 -0.7371913791 0.943018496 
-14.80988216 -0.6594579816 -0.7460374832 0.9423549771 
-39.57062531 -5.3140769 -2.009245157 0.8522242904 
-22.08699608 -3.973447084 -1.129358888 0.9140409827 
-19.75037956 -4.46832037 -1.019045711 0.9221009016 
-19.84210968 -5.427270412 -1.035223603 0.9209145904 
-32.0329628 -13.56168938 -1.750559807 0.8699513078 
-33.20656586 -15.83567333 -1.851395011 0.8629979491 
-29.83181 -21.43170357 -1.848526001 0.8631949425 
-24.08340263 -20.78325653 -1.600882411 0.8803762197 
-13.24163532 -16.34708405 -1.058693171 0.9191961884 
-9.185614586 -13.66486263 -0.8285976052 0.9361830354 
-6.011279106 -13.68692398 -0.752292335 0.9418860674 
-5.291796684 -13.67032242 -0.7376974821 0.9429807067 
-3.273964882 -13.62374973 -0.7051281333 0.945428133 
-2.010771513 -13.59460449 -0.6915852427 0.9464476705 
-1.394780278 -13.58040047 -0.6870208383 0.9467914104 
-0.785664022 -13.56634235 -0.6838641167 0.9470294714 
-0.1809326112 -13.55239201 -0.6820779443 0.9471639991 
0.4218359292 -13.53848648 -0.6816468835 0.947196424 
1.025073171 -13.52457047 -0.6825692654 0.9471269846 
1.631113291 -13.51058578 -0.6848513484 0.9469550252 
4.225678444 -13.7510004 -0.7239508629 0.9440129995 
4.899540901 -13.73545361 -0.7338905334 0.943266511 
5.593569279 -13.71945763 -0.7456027269 0.9423875213 
12.87358379 -24.96295357 -1.413464427 0.8936061859 
12.81317139 -22.34586334 -1.296296 0.9019776583 
12.76192093 -20.12537956 -1.199265242 0.9089701176 
12.71772957 -18.21064949 -1.11780405 0.9148821235 
12.67909431 -16.53641129 -1.048649907 0.9199310541 
12.64489269 -15.054492 -0.9893975854 0.924279213 
12.64420891 -12.58810043 -0.8978885412 0.931035161 
13.61456299 -12.3982563 -0.926672101 0.9289048314 
15.93373966 -12.10477543 -1.007005095 0.9229850173 
20.32767868 -12.76372528 -1.207923889 0.9083440304 
22.40653801 -12.71580505 -1.296520829 0.901961565 
33.94997406 -13.66588306 -1.841735244 0.8636616468 
34.43799591 -12.11181164 -1.837135911 0.8639780879 
34.9462204 -10.56896687 -1.83731842 0.8639652729 
35.39099503 -9.006322861 -1.837802291 0.8639323711 
38.71362686 -8.036982536 -1.989786386 0.8535454869 
39.04413605 -6.308740139 -1.990360022 0.8535063267 
39.29788971 -4.567033768 -1.990956783 0.8534657955 
39.47434998 -2.815270901 -1.991575718 0.8534240127 
39.59421158 0.7048583627 -1.992874384 0.853335619 
39.53709412 2.466289043 -1.993551731 0.8532896042 
39.18899536 5.974760532 -1.994956374 0.8531942368 
13.53514862 3.962375402 -0.7097380161 0.9450813532 
34.79655457 11.8910141 -1.850544214 0.8630565405 
32.85115814 16.39015007 -1.847559452 0.8632616997 
32.07260132 17.82584 -1.846585393 0.8633287549 
24.96488953 26.68946457 -1.839136362 0.8638406396 
20.23724556 23.66277695 -1.566920161 0.882758975 
22.50003815 28.81053352 -1.839634657 0.8638063073 
18.45996284 31.53988266 -1.839107633 0.8638424873 
17.03732109 32.32725525 -1.838961244 0.8638525605 
14.0946188 33.70887756 -1.838702321 0.8638702631 
11.04248524 34.82699966 -1.838638902 0.8638745546 
4.420781136 16.44973183 -0.8571987152 0.93405509 
3.706699133 16.72955132 -0.8623248935 0.9336740971 
3.38745594 19.32286644 -0.9872432351 0.9244378209 
1.450434566 17.11422348 -0.8643529415 0.9335234165 
-0.16265136 36.56142807 -1.839949489 0.8637842536 
-6.639863014 35.98879623 -1.841684937 0.8636652231 
-8.054672241 21.37063026 -1.149321437 0.9125902653 
-7.991826057 18.64529228 -1.020873785 0.9219667315 
-7.941523075 16.4639492 -0.9198925495 0.9294062257 
-7.900205135 14.67209435 -0.8386015296 0.935438633 
-7.865531921 13.16847134 -0.771913588 0.9404165149 
-7.764423847 11.77561951 -0.7098277211 0.9450745583 
-7.738974571 10.67173767 -0.6634014845 0.9485728741 
-8.047211647 9.241577148 -0.6166837811 0.9521062374 
-7.462788105 7.169770241 -0.5208018422 0.9593994021 
-8.707450867 6.989296913 -0.5619022846 0.9562663436 
-9.734872818 7.125829697 -0.6071241498 0.9528307915 
-15.92758274 6.910966873 -0.8737483025 0.9328255653 
-18.07152367 6.903159142 -0.9735310674 0.9254470468 
-20.14997101 6.686171532 -1.068405032 0.9184858799 
-39.60335922 5.677787781 -2.013400078 0.8519429564 
-14.61690426 0.7812743783 -0.736638248 0.9430602193 
-14.7041111 0.1308837831 -0.7400072217 0.942807436 
-14.79215813 -0.5268456936 -0.7448785305 0.9424418211 
-14.88135242 -1.194545865 -0.751305759 0.9419600368 
-39.6191597 -4.962182522 -2.009389162 0.8522145748 
-23.42751884 -3.999716759 -1.196035028 0.9092035294 
-19.783144 -5.222362995 -1.02967751 0.9213208556 
-34.0200882 -14.04725075 -1.852250457 0.8629393578 
-32.61172867 -17.0022068 -1.850815892 0.8630375862 
-31.81055069 -18.42878342 -1.850087285 0.8630878329 
-30.94691849 -19.81768036 -1.849353194 0.8631385565 
-29.74986839 -20.97387695 -1.83180809 0.8643442392 
-22.12690926 -20.51329613 -1.518428564 0.8861724138 
-25.76802635 -26.1144619 -1.846263647 0.8633502722 
-13.21313953 -14.63977528 -0.9924358726 0.9240555763 
-12.64363766 -15.32799244 -0.9999375939 0.9235043526 
-9.865918159 -13.10740185 -0.8255982995 0.9364070296 
-9.19140625 -13.41407681 -0.8183251619 0.9369491935 
-6.915439129 -13.70779228 -0.7726506591 0.9403610826 
-4.735141277 -13.65747547 -0.7274413109 0.9437506199 
-1.517368078 -13.58321762 -0.6878190637 0.9467312694 
-0.9070751667 -13.5691452 -0.6843844652 0.9469901919 
0.9042870998 -13.52735329 -0.6822775006 0.9471490383 
1.509565353 -13.51338863 -0.6842840314 0.9469977021 
2.601948261 -12.81971169 -0.6582987905 0.9489580989 
3.266845703 -13.08053684 -0.6784905791 0.947434485 
3.87698245 -13.0281105 -0.6840484738 0.9470155239 
4.7632761 -13.73859787 -0.7317613959 0.9434261322 
5.734530926 -12.74746513 -0.7034324408 0.945555687 
12.8870039 -25.54462433 -1.439844012 0.8917318583 
12.72608089 -18.5726223 -1.133020282 0.9137746096 
12.6864357 -16.85458374 -1.061622858 0.9189817309 
12.65141582 -15.33742619 -1.000552416 0.9234591126 
12.62015343 -13.98264599 -0.9478966594 0.9273371696 
14.32568073 -12.14185047 -0.9450405836 0.9275478125 
18.17480659 -12.81335449 -1.119089961 0.9147883654 
24.30603218 -12.67201138 -1.379444122 0.8960287571 
33.82538605 -13.96685982 -1.841651082 0.8636676669 
34.84894943 -10.87904739 -1.837224483 0.8639718294 
35.30753708 -9.320458412 -1.837703466 0.8639391661 
38.63845444 -8.380810738 -1.989674449 0.8535528183 
39.2533989 -4.916186333 -1.990835667 0.8534737229 
39.55971527 -1.408808589 -1.992085695 0.8533892035 
39.55477142 2.114201546 -1.993414879 0.8532988429 
39.23783493 5.625366211 -1.994813085 0.8532038927 
38.96278 7.367902756 -1.995536327 0.8531550765 
13.9864912 3.295388222 -0.7231369615 0.9440740943 
13.5544548 3.837404728 -0.7089300156 0.9451420307 
34.33641052 13.11623955 -1.849740982 0.8631116748 
33.70076752 14.62276363 -1.848743677 0.8631802201 
32.23339844 17.54149818 -1.846779108 0.8633154035 
25.92624855 17.26080132 -1.567434669 0.882723093 
27.45729256 20.09870148 -1.712412834 0.8725968003 
26.38424683 25.3482914 -1.841260076 0.8636944294 
25.21894073 26.48464203 -1.840413451 0.8637527227 
20.16172409 25.34810257 -1.629941702 0.8783427477 
21.45904541 29.59124184 -1.839519858 0.8638141751 
20.11925697 30.51310158 -1.839311123 0.8638283014 
17.3246727 32.17497635 -1.83899796 0.8638501167 
15.87486553 32.91093063 -1.838834286 0.863861084 
11.35200405 34.72723389 -1.838636398 0.8638749123 
4.575546741 16.44034195 -0.858797133 0.9339362383 
3.528203011 19.12369537 -0.9786323309 0.9250715375 
4.730519772 34.07527161 -1.731265187 0.87128824 
0.8421776891 17.1920948 -0.8662210703 0.9333845973 
-3.088730335 36.44524002 -1.84066236 0.863735497 
-4.708071232 36.28078079 -1.841122031 0.8637040257 
-6.318964481 36.04492188 -1.84160912 0.8636707067 
-4.737045765 21.37991142 -1.102028608 0.9160315394 
-8.296674728 26.16696739 -1.381447673 0.8958860636 
-7.950780869 16.86515617 -0.9383199215 0.9280443788 
-7.907880783 15.00479984 -0.8535596132 0.934325695 
-7.872021198 13.4498682 -0.7842693925 0.9394922256 
-8.675097466 9.274326324 -0.6390833855 0.9504105449 
-8.707568169 7.117758751 -0.5659757853 0.9559563398 
-10.04906273 6.820156097 -0.6111865044 0.9525229931 
-11.18683529 6.886147499 -0.6610808969 0.9487480521 
-12.50667 6.951157093 -0.7200721502 0.944304347 
-13.66832447 6.819418907 -0.7687084675 0.9406561852 
-17.26736259 6.772734165 -0.9334241748 0.9284058809 
-19.734478 6.743881702 -1.049515605 0.9198676944 
-22.39252472 6.555390358 -1.174188614 0.9107858539 
-39.25797653 7.786118031 -2.014115095 0.8518939614 
-39.55376053 6.030297756 -2.013522387 0.8519343734 
-14.59953117 0.9106786847 -0.7361423969 0.9430974126 
-14.68662071 0.2614257634 -0.7392124534 0.9428669214 
-14.7744627 -0.394570291 -0.7437826395 0.9425241351 
-14.86338806 -1.060048819 -0.7498918176 0.9420659542 
-39.66448975 -4.609623909 -2.00953269 0.8522052169 
-19.72182655 -5.018837929 -1.02412498 0.9217284322 
-33.48833466 -15.24444771 -1.851682067 0.8629783392 
-31.97579002 -18.14646912 -1.850234032 0.8630777597 
-31.12453079 -19.54314804 -1.849499583 0.8631283045 
-30.21248436 -20.90010643 -1.848773003 0.8631782532 
-29.24316406 -22.2159996 -1.84815824 0.8632203937 
-21.80741119 -21.71062851 -1.548584819 0.8840482235 
-13.46261692 -14.65185547 -1.001343369 0.9234011173 
-12.94180107 -15.40796375 -1.012631774 0.9225719571 
-10.0532465 -13.11172867 -0.8314744234 0.9359692335 
-8.718789101 -13.74941349 -0.8193218112 0.9368749261 
-7.87275362 -13.72988224 -0.7964798808 0.9385796189 
-7.071064472 -13.71138668 -0.7763712406 0.9400827885 
-6.307377815 -13.69375992 -0.7587190866 0.9414044023 
-2.889692307 -13.61488724 -0.7004252672 0.9457820654 
-2.25965333 -13.6003418 -0.6938126683 0.9462798834 
-0.4224462807 -13.5579586 -0.6826276779 0.9471225142 
0.1808300763 -13.54403782 -0.6816564798 0.9471957088 
1.388183594 -13.51619148 -0.6837733388 0.9470362067 
1.898554683 -12.83593273 -0.652989924 0.9493592381 
3.150371075 -13.10944271 -0.6785072088 0.9474331141 
3.752407074 -13.03271961 -0.6825094223 0.9471315145 
5.313283443 -13.72591305 -0.7406976223 0.9427556396 
5.664482117 -12.89722157 -0.7088899016 0.945145309 
16.15477562 -32.74317932 -1.837423563 0.8639581203 
12.78146935 -20.9724369 -1.235988379 0.9063175321 
12.73466015 -18.94443893 -1.148747325 0.9126317501 
12.69395924 -17.18061066 -1.075002551 0.9180037975 
12.59738255 -12.99600029 -0.9108468294 0.9300755858 
13.31952858 -12.57048321 -0.9216756225 0.929274261 
14.07648182 -12.14759254 -0.9356981516 0.9282377362 
15.37469673 -12.11766529 -0.9851537943 0.9245917201 
17.84609985 -12.82093239 -1.105834842 0.9157540202 
23.80859566 -12.68348122 -1.357564807 0.8975901604 
28.85105133 -12.21447277 -1.576673269 0.8820742369 
35.2213974 -9.633720398 -1.837605834 0.863945663 
38.92109299 -7.001787186 -1.990127802 0.8535222411 
39.20566559 -5.265080452 -1.990715384 0.8534821272 
39.41305923 -3.516923666 -1.991325617 0.8534409404 
39.59515762 -1.708984382e-05 -1.992608428 0.8533537984 
39.56932068 1.761906743 -1.993278623 0.8533080816 
39.28356171 5.275507927 -1.994670391 0.8532134891 
39.02405548 7.020287991 -1.995390892 0.8531646729 
34.45544434 12.81161022 -1.849941373 0.8630980253 
22.86738205 9.681313515 -1.249676228 0.905330658 
32.39167786 17.25588417 -1.846973419 0.8633016944 
31.57544327 18.66990089 -1.846007228 0.8633682728 
24.62663078 19.40961838 -1.577977896 0.8819825053 
21.72188759 29.3994503 -1.839545369 0.8638125062 
17.61057281 32.02015305 -1.839032531 0.8638477921 
14.69259262 33.45330811 -1.83873868 0.8638679385 
13.18937969 34.07237625 -1.838662863 0.8638731241 
11.66051006 34.62480545 -1.838635921 0.8638750911 
5.346923828 36.1498642 -1.839017749 0.8638487458 
1.759985328 17.13622093 -0.8669080734 0.9333335161 
0.9935790896 17.15632248 -0.8648319244 0.9334878922 
0.4880468547 36.55565643 -1.839811683 0.8637942076 
-1.138779283 36.54833984 -1.840170503 0.863769412 
-2.764081955 36.46959305 -1.840575814 0.8637413383 
-8.300224304 32.01911545 -1.664605021 0.8759228587 
-8.175346375 26.60364151 -1.400604725 0.8945211768 
-8.18605423 22.94872093 -1.226159692 0.9070265889 
-7.960404873 17.28258705 -0.9575651288 0.9266240001 
-7.91582489 15.34943771 -0.8691232204 0.9331690669 
-7.878715515 13.74027824 -0.7970842719 0.9385345578 
-7.748744965 11.09548759 -0.6810632348 0.9472406507 
-7.448388577 7.415322304 -0.5289230347 0.9587794542 
-7.742831707 7.051113129 -0.5270155072 0.9589250684 
-9.043740273 6.870488167 -0.5715605021 0.9555315375 
-9.996972084 6.915571213 -0.6117370725 0.9524812102 
-12.17704582 6.91046381 -0.7046059966 0.9454674125 
-13.56256771 6.918032169 -0.7661933899 0.9408445954 
-14.94811535 6.804614067 -0.8265311718 0.9363375306 
-16.82513618 6.772607327 -0.9127383232 0.9299354553 
-19.30256844 6.788671494 -1.029717326 0.921318233 
-22.09343719 6.681796551 -1.161575317 0.9117004871 
-25.35547829 6.452445984 -1.316670537 0.9005164504 
-14.72202587 1.049951196 -0.7427598238 0.9426008463 
-14.66915989 0.3917431533 -0.7384808064 0.9429218769 
-14.84549809 -0.9260351062 -0.7485436797 0.9421670437 
-20.09490204 -3.985576153 -1.030964017 0.9212267995 
-25.66461945 -7.513334751 -1.345765352 0.8984335661 
-25.35997009 -8.666337967 -1.348689198 0.8982245326 
-34.27000809 -13.4416647 -1.852535009 0.8629196286 
-32.91431046 -16.42167854 -1.851105571 0.8630177379 
-32.13857651 -17.86254311 -1.85038054 0.8630677462 
-30.39964867 -20.63242149 -1.848916292 0.8631675839 
-27.9896965 -20.87343216 -1.757127762 0.869496882 
-28.42651367 -23.23656273 -1.847673416 0.8632537723 
-27.3558979 -24.47017097 -1.847077489 0.8632947206 
-26.23204613 -25.65477562 -1.846493602 0.8633346558 
-13.81182575 -14.76592731 -1.017498493 0.9222144485 
-8.038139343 -13.73370075 -0.8008167744 0.9382556081 
-5.72006321 -13.68019485 -0.7462067008 0.9423422813 
-5.011503696 -13.66385269 -0.7324166894 0.943377018 
-3.663720608 -13.6327486 -0.7104026675 0.9450312257 
-1.763398409 -13.5888958 -0.6895880103 0.946598053 
-0.5433935523 -13.56074715 -0.6829836965 0.9470956326 
0.662919879 -13.53291988 -0.6818532944 0.9471809268 
1.782382727 -12.83861828 -0.6522942781 0.9494118094 
2.366210938 -12.82515144 -0.6563108563 0.949108243 
3.033691406 -13.13726044 -0.6785241365 0.947431922 
3.628417969 -13.03724575 -0.6810279489 0.947243154 
4.493051529 -13.74483395 -0.7277208567 0.9437296987 
5.672243595 -13.23359871 -0.7245729566 0.9439662099 
12.84815121 -23.8613224 -1.363818645 0.8971437216 
12.74349117 -19.32693863 -1.16501689 0.9114508629 
12.70167732 -17.51514626 -1.088818669 0.9169950485 
12.60291195 -13.23544407 -0.9197269082 0.9294183254 
13.83369637 -12.15448666 -0.9267123938 0.9289018512 
17.05800819 -12.48633766 -1.063841105 0.9188195467 
19.21019173 -12.78948689 -1.16140008 0.9117134213 
23.32690811 -12.69458485 -1.336491346 0.8990972042 
28.18574715 -12.22980404 -1.546204209 0.8842157722 
34.18046188 -13.05668926 -1.84134233 0.8636888862 
34.6463089 -11.49638653 -1.837039948 0.8639845848 
38.4789238 -9.066146851 -1.989453673 0.8535677791 
38.85502243 -7.347546101 -1.990012884 0.8535298705 
39.59106445 -0.3524340689 -1.992476583 0.8533623815 
39.58071518 1.409692407 -1.99314332 0.85331738 
39.49243164 3.170080423 -1.993827581 0.8532707095 
39.32606888 4.92542696 -1.994528413 0.8532233834 
15.07169437 3.269084454 -0.7761119008 0.9401022196 
13.62115479 3.595703125 -0.7089596391 0.9451398849 
13.53962326 4.226752758 -0.7138037086 0.9447755218 
34.57189941 12.50578213 -1.850142002 0.8630840778 
33.96293259 14.02365494 -1.849141479 0.8631531 
27.5122509 17.61818695 -1.644097209 0.8773536682 
24.61530685 17.35394096 -1.515653014 0.8863680363 
22.99750137 17.79605103 -1.463384509 0.890063107 
26.83635712 24.87925148 -1.841605544 0.8636706471 
20.17666435 24.46030045 -1.59569335 0.8807398677 
17.89511681 31.86252594 -1.839055538 0.8638461828 
14.99001694 33.32169724 -1.838759542 0.8638660908 
13.49224377 33.95388412 -1.838673949 0.8638721704 
4.097499847 16.4064579 -0.8510067463 0.9345154166 
5.668364048 36.10006332 -1.838980198 0.863851428 
1.914824128 17.14116669 -0.8679857254 0.9332534671 
1.145537138 17.13723564 -0.8643491268 0.9335237741 
0.813242197 36.54863358 -1.839745283 0.8637984991 
-0.8135302663 36.5555954 -1.840095043 0.8637743592 
-4.061196327 36.35510635 -1.840932846 0.86371696 
-5.034589767 32.06387711 -1.63337028 0.878103137 
-8.869804382 35.51482773 -1.842166662 0.863632381 
-8.10064888 23.36447716 -1.244467854 0.9057056904 
-8.027733803 20.20214272 -1.093989968 0.9166176319 
-7.970439434 17.71772003 -0.9777039289 0.9251400232 
-8.056689262 15.9699707 -0.9001657963 0.9308667183 
-7.75382328 11.31602955 -0.6903341413 0.9465418458 
-7.729691982 10.26928234 -0.6468334794 0.9498244524 
-7.598945141 7.044770241 -0.5214677453 0.9593485594 
-8.454032898 7.165283203 -0.557700038 0.9565862417 
-8.892460823 6.881191254 -0.5658477545 0.9559661746 
-9.904101372 6.982426643 -0.60983181 0.9526256323 
-10.85923767 6.953984261 -0.6489334106 0.9496656656 
-12.00016117 6.952016354 -0.6979247928 0.9459702969 
-14.64113235 6.822841644 -0.8128830791 0.9373551011 
-21.22928238 6.627270222 -1.119201303 0.9147803783 
-25.07611847 6.619560242 -1.305171132 0.9013409019 
-29.77971077 6.459291935 -1.533492804 0.8851103187 
-39.44485092 6.734262466 -2.013762951 0.8519181013 
-16.92421341 1.358452082 -0.8544409871 0.9342599511 
-14.65171814 0.5217626691 -0.7378068566 0.9429724216 
-20.63850594 -3.902778149 -1.05702889 0.9193177819 
-26.55163956 -7.51707983 -1.38871491 0.8953679204 
-37.22477341 -14.2196188 -2.005342245 0.8524892926 
-33.75953674 -14.6482954 -1.851966381 0.8629587293 
-32.29884338 -17.57712364 -1.850525618 0.8630577922 
-30.58464241 -20.36222649 -1.849061847 0.863157928 
-25.94558525 -20.82625008 -1.674305797 0.875246942 
-13.71025848 -14.39838791 -1.000538707 0.9234600663 
-13.41408157 -15.40499973 -1.027967334 0.921446681 
-9.499115944 -13.09893513 -0.8142877221 0.9372504354 
-9.071220398 -13.75754833 -0.8292950988 0.9361314178 
-8.205439568 -13.73756313 -0.805270195 0.937923193 
-6.608647346 -13.70070744 -0.7655008435 0.9408964515 
-5.151166916 -13.66707516 -0.7350186706 0.9431816936 
-3.794985294 -13.63577652 -0.7122917175 0.9448890686 
-2.510239124 -13.60613251 -0.6962774396 0.9460942745 
-1.886870027 -13.59175301 -0.6905570626 0.9465250373 
-1.272460938 -13.57757282 -0.6862774491 0.9468474388 
-0.6644189358 -13.56354427 -0.6833965778 0.9470645785 
-0.06027831882 -13.54960442 -0.681882441 0.9471786618 
0.5423876643 -13.53570271 -0.6817235947 0.947190702 
2.248828173 -12.82785606 -0.6554006934 0.949177146 
2.916703939 -13.16407681 -0.6785417199 0.9474306107 
3.504882812 -13.04170418 -0.6796050668 0.9473504424 
4.358998775 -13.74791431 -0.7258030772 0.9438739419 
5.03661108 -13.73228931 -0.7360859513 0.9431016445 
5.680361271 -13.58522892 -0.741030097 0.942730844 
12.86064625 -24.40244102 -1.388151765 0.8954082727 
12.8022604 -21.87331581 -1.275443792 0.9034757614 
12.67192364 -16.22588348 -1.036070704 0.9208525419 
12.60854244 -13.47948742 -0.9288554788 0.9287435412 
12.86611557 -12.58298302 -0.9056584239 0.9304597378 
18.85641098 -12.79765129 -1.146849155 0.912769556 
34.07172775 -13.36388683 -1.841820359 0.863656044 
34.54091263 -11.80373478 -1.836949229 0.8639908433 
35.04063034 -10.25800228 -1.837413311 0.863959074 
38.39455795 -9.407594681 -1.989344954 0.8535754681 
39.10105133 -5.961301327 -1.990477562 0.8534983397 
39.58364487 -0.7046093345 -1.992345572 0.8533716798 
39.58898926 1.057255864 -1.993008375 0.8533266187 
39.51638031 2.818229914 -1.993689418 0.8532800078 
39.36555862 4.574868202 -1.994387031 0.8532329798 
13.68894958 3.483559608 -0.7108451724 0.9449979663 
13.53746319 4.094194412 -0.7117419243 0.9449306726 
34.09015656 13.72229099 -1.849341035 0.8631391525 
33.42803955 15.21697998 -1.848347306 0.8632073402 
31.90937424 18.10876465 -1.846392035 0.8633418083 
27.72965813 17.41146851 -1.64776957 0.8770975471 
23.05578041 17.51541901 -1.457120657 0.8905070424 
28.14203835 23.42492294 -1.842663169 0.8635981679 
21.72270012 23.64156532 -1.615724087 0.8793372512 
20.31958771 26.50136185 -1.680576086 0.8748105168 
20.92814636 29.96720314 -1.83943975 0.8638194799 
19.57221222 30.86506462 -1.839235306 0.863833487 
18.17827797 31.7024231 -1.839080572 0.8638443947 
16.74866104 32.477005 -1.838926673 0.8638548255 
15.28616142 33.18725204 -1.838782668 0.8638648987 
13.75486565 33.73658371 -1.833465219 0.8642303944 
10.70846653 34.84719849 -1.834600687 0.8641523123 
4.25061512 16.39752579 -0.852473557 0.9344064593 
2.066943407 17.12083435 -0.8678537607 0.9332633018 
-0.487539053 36.51708221 -1.837865233 0.8639276624 
-5.353608131 36.19510651 -1.841318488 0.8636904955 
-8.220233917 28.55019379 -1.49514401 0.8878161907 
-8.117724419 24.10487175 -1.280004978 0.9031478763 
-7.932631493 16.07819366 -0.9022471905 0.9307122231 
-7.89279747 14.35082531 -0.8242220879 0.9365097284 
-7.859238148 12.89581013 -0.7600022554 0.9413084984 
-7.759052753 11.54256821 -0.6999154687 0.9458203912 
-7.734277248 10.46792412 -0.6549845934 0.9492084384 
-7.4390378 7.674433231 -0.5378767252 0.9580966234 
-8.301308632 7.163779259 -0.5518082976 0.9570347667 
-10.81091785 7.059511662 -0.649775207 0.9496020675 
-11.74705982 6.945790768 -0.6867730618 0.9468101859 
-13.14356422 7.001914024 -0.749446094 0.9420993924 
-14.22228527 6.782333851 -0.7929491997 0.9388434291 
-16.36867142 6.929882526 -0.8945260644 0.9312843084 
-18.42410088 6.850556374 -0.9892029166 0.9242936373 
-20.58792877 6.628642559 -1.088453889 0.9170214534 
-28.58145905 6.466147423 -1.474696159 0.889261961 
-14.63430595 0.6516211033 -0.7371913791 0.943018496 
-14.80988216 -0.6594579816 -0.7460374832 0.9423549771 
-39.57062531 -5.3140769 -2.009245157 0.8522242904 
-19.75039101 -4.468271255 -1.019045711 0.9221009016 
-19.84209824 -5.427221775 -1.035221934 0.92091465 
-25.65572166 -9.539618492 -1.377477884 0.896169126 
-32.03285217 -13.56171799 -1.750554919 0.8699516058 
-30.76692772 -20.09082985 -1.849207282 0.8631483316 
-27.71922302 -21.84710884 -1.776141763 0.8681820631 
-13.24163532 -16.34708405 -1.058693171 0.9191961884 
-9.185614586 -13.66479492 -0.8286030889 0.9361832142 
-8.374613762 -13.74146938 -0.8098356724 0.9375823736 
-7.547074795 -13.72236252 -0.7881234288 0.9392039776 
-6.011244774 -13.68692398 -0.7522915602 0.941886127 
-5.291757584 -13.6703167 -0.7376967669 0.9429807663 
-4.598315239 -13.65431118 -0.7250651121 0.9439291954 
-3.926909208 -13.63882256 -0.7142483592 0.9447420239 
-2.636240244 -13.60904312 -0.6975983977 0.9459947348 
-0.785664022 -13.56634235 -0.6838641167 0.9470294714 
0.4218359292 -13.53848648 -0.6816468835 0.947196424 
1.025043964 -13.52457047 -0.6825692654 0.9471269846 
2.131757736 -12.83055592 -0.6545429826 0.9492418766 
2.799482346 -13.18986797 -0.6785594225 0.9474292994 
4.899575233 -13.73544884 -0.7338911295 0.943266511 
5.593603611 -13.71944809 -0.7456030846 0.9423875213 
12.76192093 -20.12537956 -1.199265242 0.9089701176 
12.71772957 -18.21064949 -1.11780405 0.9148821235 
12.67909431 -16.53641129 -1.048649907 0.9199310541 
12.64489269 -15.054492 -0.9893975854 0.924279213 
12.64420891 -12.58810043 -0.8978885412 0.931035161 
13.61453342 -12.39827633 -0.926672101 0.928904891 
14.57979679 -12.1359911 -0.9546441436 0.9268392324 
20.32776642 -12.76372528 -1.207927585 0.9083437324 
22.40663338 -12.71579552 -1.296524882 0.901961267 
24.81978798 -12.66016579 -1.40214932 0.894411087 
27.66711044 -12.59452629 -1.529808164 0.8853702545 
33.94997406 -13.66588306 -1.841735244 0.8636616468 
34.43799591 -12.11181164 -1.837135911 0.8639780879 
35.39099503 -9.006322861 -1.837802291 0.8639323711 
38.71362686 -8.036982536 -1.989786386 0.8535454869 
39.04413605 -6.308740139 -1.990360022 0.8535063267 
39.47434998 -2.815270901 -1.991575718 0.8534240127 
39.57329178 -1.056848168 -1.992215276 0.8533803225 
39.59421539 0.7047802806 -1.992874384 0.8533355594 
39.40193939 4.223986626 -1.994246125 0.8532425761 
39.18898773 5.974833965 -1.994956374 0.8531942368 
13.53515148 3.962404728 -0.7097384334 0.9450813532 
34.21456146 13.41988373 -1.84954083 0.8631255627 
21.70247078 9.647152901 -1.195207477 0.909263432 
32.85115814 16.39015007 -1.847559452 0.8632616997 
24.52846146 20.05014992 -1.594303727 0.8808372617 
27.28001213 24.40225983 -1.84195447 0.8636469245 
26.15522385 25.57962799 -1.841088772 0.8637062907 
19.84644508 30.69031715 -1.839272261 0.8638309836 
17.03725052 32.32728577 -1.838961244 0.8638525605 
15.58103943 33.05036926 -1.838807464 0.8638632298 
14.0946188 33.70887756 -1.838702321 0.8638702631 
4.420781136 16.44973183 -0.8571987152 0.93405509 
3.38745594 19.32286644 -0.9872432351 0.9244378209 
1.450434566 17.11422348 -0.8643529415 0.9335234165 
-0.16265136 36.56142807 -1.839949489 0.8637842536 
-3.413183451 36.41804886 -1.840750694 0.8637294173 
-5.031103611 36.23937988 -1.841219425 0.8636972308 
-6.639863014 35.98879623 -1.841684937 0.8636652231 
-8.245018959 29.62510681 -1.54753232 0.8841223121 
-8.135790825 24.88846207 -1.317719579 0.9004411697 
-7.941523075 16.4639492 -0.9198925495 0.9294062257 
-7.865531921 13.16847134 -0.771913588 0.9404165149 
-7.764423847 11.77561951 -0.7098277211 0.9450745583 
-8.047211647 9.241577148 -0.6166837811 0.9521062374 
-7.462831974 7.16975069 -0.5208024383 0.9593993425 
-8.707450867 6.989296913 -0.5619022846 0.9562663436 
-10.41308594 6.932646275 -0.6295474172 0.9511320591 
-11.38603497 6.869770527 -0.6692124605 0.9481343031 
-13.98135757 6.82084465 -0.7828679681 0.9395967722 
-15.92758274 6.910966873 -0.8737483025 0.9328255653 
-18.07152367 6.903159142 -0.9735310674 0.9254470468 
-20.14997101 6.686171532 -1.068405032 0.9184858799 
-39.80449295 3.909272432 -2.012776852 0.8519849181 
-14.61690426 0.7812743783 -0.736638248 0.9430602193 
-14.88135242 -1.194545865 -0.751305759 0.9419600368 
-39.6191597 -4.962182522 -2.009389162 0.8522145748 
-19.82487679 -4.300092697 -1.020875931 0.9219667315 
-19.783144 -5.222362995 -1.02967751 0.9213208556 
-25.41962814 -7.935444355 -1.340115905 0.8988378048 
-34.0200882 -14.04725075 -1.852250457 0.8629393578 
-33.34880447 -15.54075146 -1.851538658 0.8629879355 
-32.61172867 -17.0022068 -1.850815892 0.8630375862 
-30.94691849 -19.81768036 -1.849353194 0.8631385565 
-29.74986839 -20.97387695 -1.83180809 0.8643442392 
-13.21313953 -14.63977528 -0.9924358726 0.9240555763 
-12.64363766 -15.32799244 -0.9999375939 0.9235043526 
-9.19140625 -13.41407681 -0.8183251619 0.9369491935 
-7.709057331 -13.72609806 -0.7922480106 0.938895762 
-6.915439129 -13.70779228 -0.7726506591 0.9403610826 
-4.735141277 -13.65747547 -0.7274413109 0.9437506199 
-4.0596385 -13.64187431 -0.7162742615 0.9445898533 
-3.403261662 -13.62674332 -0.7068203688 0.9453006387 
-2.762739182 -13.61194801 -0.6989805698 0.9458907247 
-1.517368078 -13.58321762 -0.6878190637 0.9467312694 
-0.9070165753 -13.5691452 -0.6843839884 0.9469901919 
-0.3016113341 -13.55517101 -0.6823260188 0.9471453428 
2.601948261 -12.81971169 -0.6582987905 0.9489580989 
3.266845703 -13.08053684 -0.6784905791 0.947434485 
4.7632761 -13.73859787 -0.7317613959 0.9434261322 
12.82444286 -22.83415031 -1.317949176 0.9004247785 
12.72608089 -18.5726223 -1.133020282 0.9137746096 
12.62015343 -13.98264599 -0.9478966594 0.9273371696 
13.50335217 -12.5187006 -0.9266529083 0.9289063215 
14.32568073 -12.14185047 -0.9450405836 0.9275478125 
15.65104485 -12.11129379 -0.9959155321 0.9238000512 
18.17480659 -12.81335449 -1.119089961 0.9147883654 
19.94517136 -12.77254868 -1.191901326 0.9095027447 
33.82545471 -13.96673298 -1.841651082 0.8636676073 
34.84898376 -10.87891865 -1.837224483 0.8639718294 
38.63849258 -8.380644798 -1.989674449 0.8535528183 
38.9841423 -6.655632019 -1.990243435 0.8535142541 
39.2533989 -4.916186333 -1.990835667 0.8534737229 
39.44530106 -3.166327953 -1.991450191 0.8534322977 
39.55971527 -1.408808589 -1.992085695 0.8533892035 
39.43518066 3.872814894 -1.994105935 0.8532521725 
38.96281052 7.367724419 -1.995536327 0.8531551361 
13.9864912 3.295388222 -0.7231369615 0.9440740943 
13.6616106 4.533200741 -0.7243742347 0.9439810514 
32.99926758 16.09896278 -1.847755671 0.863247931 
32.23339844 17.54149818 -1.846779108 0.8633154035 
31.40479851 18.94829369 -1.845815539 0.863381207 
25.92624855 17.26080132 -1.567434669 0.882723093 
27.45729256 20.09870148 -1.712412834 0.8725968003 
24.55872726 19.71284485 -1.584796906 0.881503582 
27.49865723 24.16087151 -1.842130423 0.8636348844 
20.22328377 23.22459412 -1.549768448 0.8839648962 
20.16172409 25.34810257 -1.629941702 0.8783427477 
18.74004936 31.37488365 -1.8391366 0.8638406396 
3.528203011 19.12369537 -0.9786323309 0.9250715375 
4.730663776 34.07526398 -1.731266022 0.87128824 
-1.463959932 36.53833008 -1.840247869 0.863763988 
-3.088730335 36.44524002 -1.84066236 0.863735497 
-4.708208084 36.28076553 -1.841122031 0.8637040257 
-8.271615982 30.77878761 -1.603885293 0.880165875 
-8.296782494 26.16696167 -1.381449223 0.8958859444 
-8.06920433 22.00059509 -1.17928946 0.9104161859 
-7.872021198 13.4498682 -0.7842693925 0.9394922256 
-8.241786957 12.74489689 -0.7638059855 0.941023469 
-7.720859051 9.886244774 -0.6312654018 0.9510020018 
-7.979384422 9.330097198 -0.6178263426 0.9520196915 
-8.675097466 9.274326324 -0.6390833855 0.9504105449 
-7.409765244 7.246762753 -0.5215829611 0.9593397975 
-8.707587242 7.11771965 -0.5659757853 0.9559563994 
-12.50671864 6.951108456 -0.7200732231 0.9443042874 
-15.4560051 6.870395184 -0.8512001038 0.9345011115 
-17.26736259 6.772734165 -0.9334241748 0.9284058809 
-22.39252472 6.555390358 -1.174188614 0.9107858539 
-26.72779274 6.5489254 -1.384848595 0.8956433535 
-39.25794983 7.78628397 -2.014115095 0.8518939614 
-39.55376053 6.030297756 -2.013522387 0.8519343734 
-14.59953117 0.9106786847 -0.7361423969 0.9430974126 
-14.68662548 0.2614843547 -0.7392120957 0.9428668618 
-14.7744627 -0.394570291 -0.7437826395 0.9425241351 
-14.86340809 -1.060102463 -0.7498924136 0.9420658946 
-39.66448975 -4.609623909 -2.00953269 0.8522052169 
-19.89229393 -4.129658222 -1.022414327 0.9218538404 
-19.7218399 -5.018930435 -1.024126291 0.921728313 
-25.44305611 -7.694887638 -1.337682486 0.8990115523 
-31.97579002 -18.14646912 -1.850234032 0.8630777597 
-30.21248436 -20.90010643 -1.848773003 0.8631782532 
-29.24325562 -22.21586418 -1.84815824 0.8632204533 
-28.21670914 -23.48713303 -1.847553372 0.8632620573 
-13.46249962 -14.6518507 -1.00133884 0.9234014153 
-12.94180107 -15.40796375 -1.012631774 0.9225719571 
-10.05314922 -13.11172295 -0.8314715624 0.9359694719 
-9.197060585 -13.1693697 -0.8083541393 0.9376925826 
-8.718706131 -13.74941349 -0.819319427 0.9368750453 
-7.87275362 -13.72988224 -0.7964798808 0.9385796189 
-7.070986271 -13.71138191 -0.7763694525 0.9400829077 
-6.307377815 -13.69375992 -0.7587190866 0.9414044023 
-4.872890472 -13.6606493 -0.7298941016 0.9435665607 
-4.193061352 -13.64496517 -0.7183662057 0.9444325566 
-0.4224462807 -13.5579586 -0.6826276779 0.9471225142 
1.898554683 -12.83593273 -0.652989924 0.9493592381 
2.483930588 -12.82243156 -0.6572784185 0.9490352273 
3.150371075 -13.10944271 -0.6785072088 0.9474331141 
4.627753735 -13.74171829 -0.7297080159 0.9435805678 
5.313346863 -13.72591305 -0.7406985164 0.9427555799 
16.15477562 -32.74317932 -1.837423563 0.8639581203 
12.78146935 -20.9724369 -1.235988379 0.9063175321 
12.73466492 -18.94461823 -1.148754954 0.9126312137 
12.69395924 -17.18061066 -1.075002551 0.9180037975 
12.62613964 -14.24213314 -0.9578313828 0.9266043305 
12.59737778 -12.99589825 -0.9108429551 0.9300758839 
15.37469673 -12.11766529 -0.9851537943 0.9245917201 
17.84626007 -12.82093239 -1.10584116 0.9157535434 
21.53953552 -12.73578548 -1.259272933 0.9046394825 
35.2213974 -9.633720398 -1.837605834 0.863945663 
38.56015396 -8.723911285 -1.989563584 0.8535604477 
38.92109299 -7.001787186 -1.990127802 0.8535222411 
39.20564651 -5.265254021 -1.990715384 0.8534820676 
39.41305923 -3.516923666 -1.991325617 0.8534409404 
39.54309082 -1.760607839 -1.991957068 0.8533978462 
39.56930923 1.76207757 -1.993278742 0.8533080816 
39.46536636 3.521552563 -1.99396646 0.8532614708 
13.57727242 3.713644981 -0.708368063 0.9451844096 
31.57553101 18.66975021 -1.846007228 0.8633682728 
24.62663078 19.40961838 -1.577977896 0.8819825053 
22.95093727 19.80611229 -1.525606632 0.8856660724 
20.26143265 22.85460663 -1.537048578 0.8848602176 
21.72188759 29.3994503 -1.839545369 0.8638125062 
20.39035034 30.33351326 -1.839352012 0.8638257384 
17.61057281 32.02015305 -1.839032531 0.8638477921 
16.1674099 32.7687645 -1.838863134 0.8638593554 
14.69259262 33.45330811 -1.83873868 0.8638679385 
11.66051006 34.62480545 -1.838635921 0.8638750911 
4.82409668 16.75458145 -0.8774194717 0.9325530529 
3.945585966 16.41845703 -0.8497753143 0.9346070886 
1.759907246 17.1362114 -0.8669073582 0.9333335757 
0.4878808558 36.55565262 -1.839811683 0.8637942076 
-7.599052429 35.80318832 -1.841916323 0.8636495471 
-8.01520443 19.65913963 -1.068404555 0.9184859991 
-7.960404873 17.28258705 -0.9575651288 0.9266240001 
-7.915830135 15.34960938 -0.8691311479 0.9331684709 
-8.084189415 12.74853516 -0.7596865892 0.9413322806 
-7.748744965 11.09548759 -0.6810632348 0.9472406507 
-7.725224495 10.07533169 -0.6389253139 0.9504224062 
-7.87569809 9.37647438 -0.616232872 0.9521403909 
-7.448388577 7.415322304 -0.5289230347 0.9587794542 
-7.742841721 7.051059246 -0.5270141363 0.9589251876 
-8.459629059 7.041650295 -0.5539135337 0.9568745494 
-12.17701149 6.910512447 -0.7046058774 0.9454674125 
-13.56256771 6.918032169 -0.7661933899 0.9408445954 
-19.30254745 6.788759708 -1.029717684 0.9213181734 
-22.09343719 6.681796551 -1.161575317 0.9117004871 
-25.35553741 6.452338696 -1.316672206 0.9005163312 
-39.50093842 6.382338524 -2.013643265 0.8519261479 
-39.73353577 4.617631912 -2.013027191 0.8519679904 
-14.66915989 0.3917431533 -0.7384808064 0.9429218769 
-14.84549809 -0.9260351062 -0.7485436797 0.9421670437 
-39.46414948 -6.016654968 -2.00895524 0.8522437215 
-25.66461945 -7.513334751 -1.345765352 0.8984335661 
-25.35997963 -8.666220665 -1.34868753 0.8982246518 
-34.27000809 -13.4416647 -1.852535009 0.8629196286 
-33.62527847 -14.94690418 -1.851823688 0.862968564 
-32.91431046 -16.42167854 -1.851105571 0.8630177379 
-28.42642021 -23.23666954 -1.847673416 0.8632537723 
-27.3558979 -24.47017097 -1.847077489 0.8632947206 
-13.81182575 -14.76592731 -1.017498493 0.9222144485 
-9.319375038 -13.09478951 -0.808836937 0.9376568198 
-5.720136642 -13.68020439 -0.7462081909 0.9423421621 
-5.011503696 -13.66385269 -0.7324166894 0.943377018 
-3.663720608 -13.6327486 -0.7104026675 0.9450312257 
-2.38475585 -13.60322762 -0.6950153708 0.9461892843 
-1.76333487 -13.58890152 -0.6895877123 0.946598053 
-1.150458932 -13.5747509 -0.6855906248 0.9468992352 
3.033691406 -13.13726044 -0.6785241365 0.947431922 
4.493051529 -13.74483395 -0.7277208567 0.9437296987 
5.17448473 -13.72911549 -0.7383546829 0.942931354 
5.672243595 -13.23359871 -0.7245729566 0.9439662099 
12.84815121 -23.8613224 -1.363818645 0.8971437216 
12.70166969 -17.51498413 -1.088811874 0.916995585 
12.60291195 -13.23544407 -0.9197269082 0.9294183254 
13.09191895 -12.57777786 -0.9136330485 0.9298692346 
13.83364487 -12.15455532 -0.9267123342 0.9289018512 
15.10422039 -12.12390137 -0.9746960402 0.9253615141 
17.05786133 -12.48634243 -1.063835382 0.9188199639 
19.21019173 -12.78948689 -1.16140008 0.9117134213 
23.32690811 -12.69458485 -1.336491346 0.8990972042 
25.89943314 -12.63527775 -1.450208545 0.8909965754 
34.18050766 -13.05652809 -1.841341496 0.8636889458 
34.6463089 -11.49638653 -1.837039948 0.8639845848 
38.4789238 -9.066146851 -1.989453673 0.8535677791 
38.85504913 -7.347390175 -1.990013123 0.8535298705 
39.59106445 -0.3522656262 -1.992476583 0.8533624411 
39.49243164 3.170080423 -1.993827581 0.8532707095 
39.3260994 4.925271034 -1.994528294 0.8532233834 
28.01652336 4.783149242 -1.430318713 0.892408371 
15.07201672 3.269089222 -0.7761281133 0.9401010275 
13.62115479 3.595703125 -0.7089596391 0.9451398849 
13.53962326 4.226691723 -0.7138026357 0.9447755814 
34.57189941 12.50578213 -1.850142002 0.8630840778 
33.28763199 15.51223755 -1.848149657 0.8632212281 
27.51221466 17.61832428 -1.644099236 0.8773534894 
24.61530685 17.35394096 -1.515653014 0.8863680363 
22.95467567 19.45537567 -1.514280677 0.8864649534 
26.83624458 24.87936401 -1.841605306 0.8636706471 
25.69113159 26.03626442 -1.840749145 0.8637295365 
21.72858429 24.07459259 -1.63203454 0.8781964779 
20.17667007 24.46009254 -1.595685601 0.8807404637 
20.1699791 26.79685783 -1.687859297 0.8743033409 
20.66016769 30.15145683 -1.839394927 0.863822639 
17.89525604 31.86244774 -1.839055538 0.8638461828 
16.45861053 32.6241951 -1.83889401 0.8638571501 
11.96812439 34.51977921 -1.838637352 0.8638747931 
4.987353325 16.75934792 -0.8799583912 0.9323646426 
4.097416878 16.40641975 -0.8510029912 0.9345155954 
3.573222637 17.60510063 -0.9040310383 0.93058002 
1.145537138 17.13723564 -0.8643491268 0.9335237741 
-2.439243078 36.49103546 -1.840491176 0.8637472987 
-4.061196327 36.35510635 -1.840932846 0.86371696 
-5.0346241 32.06491089 -1.633422613 0.8780995011 
-8.197055817 27.54510117 -1.446272254 0.8912760615 
-8.027733803 20.20214272 -1.093989968 0.9166176319 
-7.970434189 17.71749878 -0.977694273 0.9251407981 
-8.056689262 15.9699707 -0.9001657963 0.9308667183 
-7.928129673 12.75213814 -0.7556586266 0.9416337013 
-8.376776695 9.281210899 -0.6291792393 0.9511598945 
-7.408837795 7.508368969 -0.5308380127 0.9586333632 
-7.598925591 7.044824123 -0.5214672685 0.9593484998 
-12.00016117 6.952016354 -0.6979247928 0.9459702969 
-13.32393551 6.946381569 -0.7561720014 0.9415951371 
-14.64113235 6.822841644 -0.8128830791 0.9373551011 
-16.68161011 6.88792944 -0.9082408547 0.9302683473 
-25.07611847 6.619560242 -1.305171132 0.9013409019 
-29.77973557 6.459159851 -1.533492684 0.8851103783 
-39.44485092 6.734262466 -2.013762951 0.8519181013 
-39.6933403 4.971283913 -2.01315093 0.8519595265 
-16.92419815 1.358520508 -0.8544406891 0.9342600107 
-14.65171814 0.5217626691 -0.7378068566 0.9429724216 
-14.73920822 -0.1311523467 -0.741774559 0.9426749349 
-39.51894379 -5.665708065 -2.009100437 0.8522340059 
-20.63809586 -3.902792931 -1.057009101 0.919319272 
-26.55112267 -7.517050743 -1.388689876 0.8953697085 
-25.36973572 -8.418242455 -1.345171213 0.8984761238 
-37.22472763 -14.21977997 -2.005342245 0.852489233 
-31.47240639 -18.98910141 -1.849793315 0.8631082177 
-29.63790512 -21.69494629 -1.848402977 0.8632032871 
-25.94580078 -20.82626343 -1.674314857 0.875246346 
-13.71025848 -14.39838791 -1.000538707 0.9234600663 
-13.41417408 -15.40497494 -1.02796936 0.9214465618 
-12.99789047 -16.34145546 -1.05079031 0.9197742343 
-9.499018669 -13.09893036 -0.8142847419 0.9372506738 
-6.608564377 -13.70070744 -0.7654992342 0.9408965707 
-4.462431431 -13.65118122 -0.7227625251 0.9441022277 
-3.145336866 -13.62078571 -0.7034971714 0.9455507994 
-0.06027831882 -13.54960442 -0.681882441 0.9471786618 
1.145971656 -13.52178192 -0.682915628 0.9471008182 
