# .PCD v0.7 - Point Cloud Data file format
VERSION 0.7
FIELDS x y z intensities
SIZE 4 4 4 4
TYPE F F F F
COUNT 1 1 1 1
WIDTH 935
HEIGHT 1
VIEWPOINT 0 0 0 1 0 0 0
POINTS 935
DATA ascii
-100.0196915 43.39850998 6.486631393 0.6460437775 
-65.29158783 24.94093132 4.158249378 0.7557333708 
-61.96311569 17.54240608 3.831343412 0.7725570798 
-77.02774048 18.14874458 4.708192825 0.7282525301 
-78.16728973 14.78158665 4.732933998 0.72704041 
-56.66467667 8.123803139 3.405695677 0.7950254679 
-119.0818024 11.69527817 7.118780136 0.6191143394 
-14.96121502 0.7996826172 0.8913803101 0.9417303801 
-15.10529232 -0.5380029082 0.8992507458 0.9412312508 
-111.5343933 -19.04187965 6.731674671 0.6354683042 
-70.87004852 -18.70828629 4.360805035 0.7454929948 
-35.6717186 -12.90363216 2.256898403 0.858985126 
-68.36865997 -35.64415359 4.587164879 0.734213829 
-13.90581512 -12.89171314 1.128147602 0.9268317819 
-11.63158131 -12.8874464 1.032838464 0.9328004718 
-10.62895489 -12.88556576 0.9937747121 0.9352580309 
-8.826962471 -12.88219166 0.9290755987 0.93934232 
-8.008036613 -12.8806591 0.9023538232 0.9410344362 
-5.79257822 -12.87649918 0.8400259018 0.9449931979 
-5.116225243 -12.87524414 0.8242657185 0.9459968209 
-3.830776215 -12.87282181 0.7990524173 0.9476046562 
-3.214687347 -12.87166977 0.7893127203 0.9482264519 
-1.437509775 -12.86832523 0.7703539729 0.9494379759 
0.2862499952 -12.86221123 0.7654183507 0.9497537017 
0.8597558141 -12.86112785 0.7668722272 0.9496607184 
2.019541025 -12.86185074 0.7745822072 0.9491676688 
10.23565388 -40.98370361 2.513195992 0.8442817926 
12.19508553 -40.98003387 2.543740273 0.8425462246 
8.903044701 -25.67880249 1.616962194 0.8968148828 
8.89690876 -22.38948631 1.433360219 0.9079735279 
8.890622139 -19.76323128 1.289295316 0.9168266058 
10.59371758 -12.84284592 0.9904769659 0.9354655743 
11.58974361 -12.84097672 1.029118061 0.9330341816 
12.67155266 -12.84181118 1.07333982 0.9302592874 
13.84961128 -12.83960915 1.123585463 0.9271164536 
15.1460743 -12.83717251 1.181223154 0.9235244989 
18.20044136 -12.83143044 1.324868441 0.9146324992 
22.13601112 -12.82403755 1.522007465 0.9025686383 
24.58880234 -12.81943321 1.649769545 0.8948351741 
54.21480942 -25.26443863 3.558501482 0.7868850231 
54.20943069 -22.38367081 3.48926878 0.7905626893 
59.97537613 -18.72294426 3.738018036 0.7774282098 
91.83965302 -15.67946243 5.542984486 0.6884359717 
107.3145294 15.38531685 6.449888229 0.6476441026 
65.5752182 12.40033627 3.970493793 0.7653504014 
63.39774704 14.93732643 3.875077963 0.7702844143 
102.9292374 34.15409088 6.452023983 0.6475505829 
103.2111893 39.42587662 6.573236465 0.642285943 
57.94820023 34.96311569 4.026495934 0.7624687552 
57.94139099 38.57535172 4.141271114 0.7565973997 
57.92645264 46.49687576 4.419205666 0.7425662875 
58.05384064 51.00735092 4.597640991 0.7336953282 
32.39077377 67.15089417 4.435577393 0.7417476773 
28.02973175 100.7132568 6.219600677 0.6577676535 
19.05212784 103.2674026 6.247511387 0.656532228 
3.012065411 21.69681931 1.303247929 0.9159674048 
-4.200829983 104.8333588 6.241998672 0.6567761302 
-7.636503696 90.10623932 5.380030632 0.6960340738 
-27.08129883 100.7696915 6.207939148 0.6582838893 
-29.30840302 92.43624115 5.769237041 0.6780249476 
-33.30093002 90.79466248 5.753632069 0.6787381172 
-35.77546692 67.88213348 4.565145969 0.7353030443 
-60.17168808 102.8072433 7.087067127 0.6204383373 
-11.05365181 10.81038094 0.9198525548 0.9399260879 
-11.27519512 10.08579063 0.900024116 0.9411821365 
-11.51642513 9.413803101 0.8849408031 0.9421386719 
-12.31982422 9.187539101 0.9143362045 0.9402754307 
-12.78988266 8.680360794 0.9196243286 0.9399404526 
-61.491745 37.85181046 4.295974255 0.7487555742 
-89.42035675 35.07313919 5.714586735 0.6805253029 
-59.59668732 20.36607933 3.74698472 0.7769591808 
-66.07571411 19.34360886 4.096124172 0.7589019537 
-66.79161835 16.36550331 4.091269016 0.7591500282 
-67.98264313 10.36453629 4.09132576 0.7591475248 
-118.641655 12.71875477 7.098955631 0.6199417114 
-15.0847559 -0.4028613269 0.8977792263 0.9413245916 
-64.41616058 -22.6550827 4.062506199 0.7606220245 
-64.17424011 -25.83206558 4.115718842 0.7579011917 
-66.45598602 -37.71421432 4.546074867 0.7362484932 
-64.1472168 -40.27812958 4.506349564 0.7382204533 
-63.38605499 -43.84856796 4.585491657 0.7342957258 
-16.97446251 -14.12926197 1.313960195 0.9153048396 
-16.61547279 -15.13113689 1.33700037 0.9138854742 
-11.84180641 -12.88784599 1.041278362 0.9322704077 
-10.82343769 -12.88593674 1.001191974 0.9347907901 
-9.878764153 -12.88416481 0.9659206867 0.9370141625 
-6.641327858 -12.8781004 0.8620556593 0.9435919523 
-3.955854416 -12.87305641 0.8012185693 0.9474663138 
-3.336689472 -12.87189865 0.7911165953 0.9481112361 
-2.731752872 -12.87076664 0.7827953696 0.9486427903 
-2.13825202 -12.86963367 0.7761663795 0.9490664005 
-1.553569317 -12.86855412 0.7711642385 0.9493861794 
-0.4008007646 -12.8635006 0.7656781077 0.9497371912 
9.849105835 -40.98443604 2.507759094 0.8445906639 
8.891523361 -20.24474144 1.315495849 0.9152101874 
8.878405571 -13.2077589 0.9468215704 0.9382202625 
11.38432121 -12.841362 1.020987511 0.9335452914 
12.44831562 -12.84223557 1.064073205 0.9308401942 
14.87615204 -12.83768559 1.169036865 0.92428267 
16.28487778 -12.83503342 1.233605981 0.9202718139 
17.86159134 -12.83207512 1.3084656 0.9156435132 
57.75919342 -15.79827595 3.562568903 0.7866697907 
107.6000748 14.44997025 6.459048748 0.6472439766 
63.53470612 14.37388897 3.875478506 0.7702637911 
102.9214783 38.26941681 6.532835484 0.6440357566 
61.55951691 32.79436493 4.149711609 0.7561671138 
57.94952393 34.26438522 4.005255222 0.7635608315 
57.94278336 37.8366394 4.117144108 0.7578276992 
15.36266613 103.8652496 6.246620178 0.6565715671 
-3.26760745 104.8701706 6.24221468 0.6567667127 
-31.34575081 102.0031357 6.348689556 0.6520735025 
-32.25710297 90.42941284 5.71207428 0.6806406975 
-66.67488861 95.47238922 6.928101063 0.6271169782 
-12.58030224 14.97757816 1.163706899 0.9246147275 
-11.05596161 12.03257275 0.9721773863 0.9366194606 
-11.05401325 11.00495052 0.9279980063 0.9394105673 
-11.27553654 10.26823235 0.9073116779 0.9407203197 
-11.30993176 9.414194107 0.8754799962 0.9427393079 
-12.23775387 9.296992302 0.9143502712 0.940274477 
-12.63826656 8.742768288 0.9142830968 0.9402787089 
-19.97965813 10.19127941 1.33438623 0.9140466452 
-99.7611084 45.41282654 6.521247387 0.6445390582 
-59.50231171 20.92687035 3.752615213 0.7766649127 
-78.67990875 20.02247429 4.830215454 0.7222928405 
-111.3754501 12.94351006 6.670814037 0.638078928 
-16.94314384 1.208354473 1.010583162 0.9341998696 
-14.96317387 0.3995996118 0.8905435205 0.9417834282 
-15.06431103 -0.2681494057 0.8963848948 0.9414129853 
-15.16738224 -0.9461035132 0.9041296244 0.9409220815 
-64.17547607 -25.17141151 4.101270199 0.758638978 
-64.16918945 -28.52440834 4.177892208 0.7547336817 
-64.16266632 -32.01218033 4.266050816 0.7502657771 
-67.86826324 -37.72097015 4.619534016 0.7326149344 
-63.80721664 -43.30530548 4.587910652 0.7341769934 
-17.77416039 -14.52904797 1.365798593 0.9121146798 
-16.76649284 -14.99784184 1.338358164 0.9138019681 
-12.05549335 -12.8882513 1.049938679 0.9317267537 
-11.02085876 -12.88630295 1.008803725 0.9343117476 
-10.06232357 -12.88450146 0.9726205468 0.936591506 
-9.168540001 -12.88283634 0.9407449365 0.9386044741 
-7.538349628 -12.87977028 0.8878729343 0.941952765 
-6.787192345 -12.87836838 0.8660842776 0.9433361292 
-5.383696079 -12.87573242 0.8303008676 0.945612371 
-4.721992016 -12.87449169 0.815852046 0.9465329647 
-4.081684589 -12.87329102 0.8034633994 0.9473231435 
-1.669941425 -12.86876965 0.7720379233 0.9493303299 
-1.090288043 -12.86479473 0.7681274414 0.9495804906 
-0.515463829 -12.86371517 0.7659307718 0.9497207999 
0.05722167715 -12.86264133 0.7652612329 0.9497637153 
1.205317378 -12.86048317 0.7684786916 0.94955796 
1.785263658 -12.85938931 0.7723996043 0.9493073225 
11.40563488 -40.98151779 2.530831575 0.8432791829 
8.899191856 -23.61130714 1.501200795 0.9038342237 
8.892460823 -20.74650764 1.342902184 0.9135223031 
8.888132095 -18.42642975 1.217137098 0.9212931991 
8.884548187 -16.50019073 1.114929795 0.9276572466 
8.881510735 -14.86942387 1.03043735 0.9329512715 
9.317231178 -12.84811974 0.9442266822 0.9383842349 
11.18209457 -12.84174252 1.013061523 0.9340437055 
12.2288866 -12.84265137 1.055044532 0.9314062595 
14.61184311 -12.83817863 1.157195449 0.9250200391 
15.9908638 -12.83558559 1.219936132 0.9211195111 
17.53116608 -12.83269024 1.292571425 0.9166241884 
23.55987167 -12.82136154 1.595793128 0.8980941772 
54.21702957 -26.44995499 3.588978767 0.785271287 
54.20629883 -20.7063961 3.452245474 0.7925366759 
56.70731354 -18.81670761 3.554639101 0.7870894074 
57.65414047 -16.32251358 3.56490159 0.7865457535 
100.6696243 -14.43264103 6.050513744 0.6653014421 
107.4100876 13.45270443 6.440202713 0.6480660439 
105.3142242 32.87667847 6.563796043 0.6426938176 
70.40901947 32.81101608 4.621438026 0.7325200438 
57.97488022 33.58654785 3.986177921 0.7645421028 
57.92960739 44.82736206 4.357860565 0.7456403971 
57.92154694 49.09181976 4.517222881 0.7376800179 
57.91284561 53.68944168 4.698329926 0.7287362218 
11.25490189 100.7517548 6.031439304 0.6661563516 
2.004018545 90.06433105 5.359634399 0.6969903708 
-2.3345263 104.8988647 6.242432117 0.6567568183 
-60.22288132 96.86634827 6.785964012 0.6331484914 
-65.41955566 95.47410583 6.885685444 0.6289106607 
-12.79348087 16.9968071 1.26565516 0.9182875156 
-11.05636692 12.25 0.981757164 0.9360153079 
-11.054389 11.20291996 0.9363619685 0.9388815761 
-11.27260685 10.45053196 0.9145205617 0.9402635694 
-11.274189 9.555521965 0.8792593479 0.9424993396 
-12.15475082 9.405649185 0.9143642783 0.9402735233 
-13.55288029 8.678935051 0.9574779868 0.9375470877 
-68.28205109 35.5990181 4.581352234 0.7345012426 
-59.35906982 21.47209358 3.755480766 0.7765147686 
-67.00636292 17.68829536 4.123068333 0.7575262785 
-76.58485413 16.61146927 4.662312508 0.7305065393 
-68.1342926 11.63232899 4.112261295 0.7580776811 
-110.1811829 13.79932117 6.606368065 0.6408542395 
-18.98221588 1.52364254 1.132968068 0.9265310168 
-57.71751022 -13.59899902 3.527894735 0.7885092497 
-68.29510498 -22.66176224 4.281022072 0.7495096922 
-64.17670441 -24.51502419 4.087242126 0.7593561411 
-69.31912994 -37.72370529 4.695239544 0.7288885117 
-63.38916016 -42.20232773 4.530651569 0.7370134592 
-16.91789055 -14.86442375 1.339833379 0.9137112498 
-9.34264183 -12.88314915 0.9468035698 0.9382215142 
-8.493642807 -12.88157177 0.9179809093 0.9400444627 
-7.693261623 -12.88005829 0.8925768733 0.9416542649 
-6.211459637 -12.87728024 0.8505935669 0.9443206787 
-5.518959999 -12.87599564 0.8334530592 0.9454116821 
-4.208227634 -12.87353039 0.8057848811 0.9471750259 
-2.972187519 -12.87121582 0.7859137058 0.9484434128 
-1.786533117 -12.86897469 0.7729745507 0.9492705464 
-0.6301513314 -12.8639307 0.7662478685 0.9497005939 
-0.05721679702 -12.86285591 0.7652749419 0.9497628808 
0.5153906345 -12.86178207 0.765817523 0.9497281909 
9.063266754 -40.90558624 2.492666245 0.8454495668 
11.03108406 -34.79109192 2.171426535 0.8639414907 
8.900407791 -24.26689911 1.537786841 0.9016098976 
8.894824028 -21.27299309 1.371802688 0.9117459059 
8.885214806 -16.85924721 1.13380003 0.9264788628 
10.03070068 -12.84391117 0.9695587158 0.9367846251 
10.98306847 -12.84211922 1.005345106 0.9345294237 
13.12991905 -12.84095192 1.092631459 0.9290514588 
14.35270214 -12.83866215 1.145678401 0.9257379174 
15.70312214 -12.83612728 1.206653357 0.9219438434 
17.20849609 -12.83329582 1.277154207 0.9175765514 
18.90423203 -12.83011246 1.359260559 0.9125163555 
23.07006264 -12.8222847 1.57028532 0.8996384144 
55.07168961 -18.81978035 3.462475538 0.7919903994 
55.77841568 -16.3288765 3.457763672 0.7922417521 
78.89218903 -15.6468792 4.785051823 0.7244921923 
64.66264343 13.42399025 3.929086208 0.7674878836 
32.26053619 9.756711006 2.005309343 0.8736696243 
79.15552521 31.86243248 5.076508045 0.7104091048 
102.9053116 46.84416962 6.726759434 0.6356781125 
58.24599075 33.05495834 3.984436035 0.7646316886 
54.57679749 86.06673431 6.063211441 0.664732933 
27.70981407 90.17260742 5.612352848 0.6852278709 
26.35768509 101.6795654 6.249296665 0.656453073 
7.932739258 104.6652145 6.244844437 0.6566500664 
-1.400776386 104.9190598 6.242648602 0.6567474008 
-6.065493107 104.7348633 6.241567135 0.6567949057 
-30.72221565 91.22683716 5.726993084 0.6799574494 
-55.52872086 91.11405182 6.348136902 0.6520978212 
-64.17998505 95.47579956 6.844360352 0.6306638122 
-12.83363247 17.36964798 1.284864783 0.9171001911 
-11.05477524 11.40458965 0.9449560046 0.9383383393 
-11.27452087 9.729575157 0.8860058188 0.942071259 
-11.94307613 9.413002968 0.9047076106 0.9408852458 
-67.46725464 35.94159698 4.547967911 0.7361544967 
-19.9505024 9.514008522 1.314996362 0.9152408838 
-77.06508636 32.62652588 4.978903294 0.715094924 
-59.70949936 22.20159531 3.789999962 0.7747115493 
-76.55775452 17.32022858 4.669862747 0.7301353216 
-68.67233276 9.222270012 4.122293472 0.7575654387 
-14.92315865 0.6644921899 0.8887252808 0.9418988228 
-15.12589836 -0.6735205054 0.9007989168 0.9411331415 
-15.23035145 -1.359047771 0.9097219706 0.9405677319 
-98.91016388 -22.37712288 6.033316612 0.6660725474 
-70.8687973 -19.38400841 4.371175289 0.7449728847 
-64.1717453 -27.16829491 4.145919323 0.7563608885 
-64.16531372 -30.59954453 4.229343891 0.7521231174 
-69.86534119 -37.21909714 4.709617615 0.7281829119 
-63.3906517 -41.39411545 4.504250526 0.7383248806 
-64.13634491 -46.0766449 4.698373318 0.7287348509 
-13.65941906 -12.89124966 1.117424011 0.92750144 
-11.42482853 -12.88706493 1.024621248 0.9333168864 
-10.43741226 -12.88521004 0.9865450859 0.93571347 
-7.083188534 -12.87892532 0.8744598031 0.9428039193 
-6.353437424 -12.87756348 0.8543127179 0.9440841675 
-4.983891487 -12.87498474 0.8213763237 0.9461809397 
-2.493149281 -12.87031174 0.7799447179 0.9488249421 
-1.903476477 -12.86920834 0.7739745975 0.949206531 
-1.321616173 -12.86812019 0.7696072459 0.9494857788 
0.9747460485 -12.86092281 0.7673462033 0.9496303797 
2.136926174 -12.86162567 0.7756841779 0.9490972757 
8.901694298 -24.95496559 1.576305151 0.8992736936 
8.885908127 -17.23051262 1.153406024 0.9252562523 
9.848171234 -12.84424782 0.962929368 0.9372030497 
10.78694057 -12.84248543 0.9978170395 0.9350033402 
14.09863758 -12.83913994 1.134476542 0.9264366031 
16.89340591 -12.83388615 1.26219666 0.9185013771 
18.54791451 -12.83077621 1.341792226 0.9135903716 
20.42894173 -12.82724571 1.43513155 0.9078652263 
22.59585953 -12.82317352 1.545714378 0.9011285901 
25.13003349 -12.81841278 1.678361773 0.8931136727 
54.21371841 -24.67897987 3.543864727 0.7876608372 
54.20838165 -21.82048798 3.476563692 0.7912396193 
59.9742775 -18.13831902 3.727744102 0.7779666781 
57.25484848 -14.57026863 3.514899731 0.7891991138 
72.26319122 -15.00188446 4.390908241 0.7439824343 
95.4798584 14.55710697 5.74614954 0.6790803075 
65.30455017 16.00147057 4.000179291 0.7638215423 
112.3481216 32.88991165 6.964597225 0.6255764365 
65.8680191 32.86296463 4.379429817 0.7445580959 
57.94687271 35.66970444 4.048304558 0.7613496184 
57.93267441 43.20345688 4.29956007 0.7485740781 
57.91640091 51.80686569 4.623081684 0.7324394584 
32.64959335 89.01876831 5.641096115 0.6839023232 
27.14686394 101.0135345 6.223036289 0.657618165 
18.13196182 103.4291 6.247288704 0.656542182 
4.202167988 104.866539 6.243961811 0.6566887498 
-5.133163929 104.7880707 6.241783142 0.6567860246 
-27.96702003 100.4880829 6.205698013 0.6583840251 
-29.69382286 90.8372345 5.685717583 0.6818500161 
-34.15301132 90.61462402 5.761259079 0.6783895493 
-62.62998962 94.98535156 6.768956661 0.6338744164 
-12.87532234 17.75458908 1.304813147 0.9158689976 
-11.05516052 11.61000443 0.9537850618 0.9377804995 
-11.08520985 10.64985847 0.9145544171 0.9402616024 
-12.40094662 9.07738781 0.9143224955 0.9402762055 
-67.82587433 36.91102982 4.594098568 0.7338708639 
-19.9573822 9.736264229 1.321113825 0.9148640633 
-100.0196915 43.39850998 6.486631393 0.6460437775 
-59.76943207 19.83273888 3.746590376 0.7769794464 
-77.02774048 18.14874458 4.708192825 0.7282525301 
-78.16728973 14.78158665 4.732933998 0.72704041 
-56.66467667 8.123803139 3.405695677 0.7950254679 
-119.0818024 11.69527817 7.118780136 0.6191143394 
-15.10529232 -0.5380029082 0.8992507458 0.9412312508 
-15.20927238 -1.220869064 0.907777667 0.9406908751 
-69.36504364 -21.6541748 4.323248863 0.7473813295 
-68.36865997 -35.64415359 4.587164879 0.734213829 
-66.29837036 -38.40859604 4.55848074 0.7356331348 
-63.38447952 -44.68648911 4.613965511 0.732889235 
-17.04461861 -14.44630814 1.32929039 0.914360404 
-13.90568829 -12.89170837 1.128142357 0.9268320799 
-12.71848106 -12.88948727 1.077320814 0.9300099611 
-9.697636604 -12.88382339 0.9593856335 0.9374266863 
-8.826962471 -12.88219166 0.9290755987 0.93934232 
-6.49672842 -12.87781715 0.8581328988 0.9438413382 
-5.116225243 -12.87524414 0.8242657185 0.9459968209 
-4.463515759 -12.87400818 0.8106585741 0.9468641281 
-3.830776215 -12.87282181 0.7990524173 0.9476046562 
-3.214687347 -12.87166977 0.7893127203 0.9482264519 
-2.61226058 -12.87054157 0.7813351154 0.9487359524 
-2.020717621 -12.86942863 0.7750378251 0.9491384625 
-0.286215812 -12.86328125 0.7654824853 0.9497496486 
0.8597558141 -12.86112785 0.7668722272 0.9496607184 
1.436586857 -12.86005306 0.769859314 0.9494696856 
2.019541025 -12.86185074 0.7745822072 0.9491676688 
8.93724823 -44.03355789 2.673159122 0.835234046 
12.19508553 -40.98003387 2.543740273 0.8425462246 
8.890622139 -19.76323128 1.289295316 0.9168266058 
8.886620522 -17.61506271 1.173808575 0.9239858985 
8.880414963 -14.28385258 1.000653028 0.9348246455 
9.668107986 -12.84458923 0.9564632773 0.9376111627 
10.59380817 -12.84285164 0.9904800057 0.9354653358 
11.58974361 -12.84097672 1.029118061 0.9330341816 
20.03175163 -12.82799244 1.41520083 0.9090848565 
22.13601112 -12.82403755 1.522007465 0.9025686383 
24.58906746 -12.81943321 1.649783611 0.8948343396 
54.20424271 -19.60746956 3.429344416 0.7937600613 
59.97537613 -18.72266579 3.73801136 0.7774285078 
57.34107208 -15.1369133 3.528332949 0.7884858251 
69.1919632 -15.00764656 4.212238789 0.752989471 
63.39774704 14.93732643 3.875077963 0.7702844143 
102.9292374 34.15409088 6.452023983 0.6475505829 
78.06915283 33.8742218 5.063049316 0.711053431 
60.25679398 32.79191208 4.081406116 0.7596542239 
57.94820023 34.96346664 4.026506901 0.7624682188 
57.94139099 38.57535172 4.141271114 0.7565973997 
58.05384064 51.00735092 4.597640991 0.7336953282 
57.90916824 55.63490295 4.777614594 0.724855125 
19.05212784 103.2674026 6.247511387 0.656532228 
9.794965744 104.5149841 6.245286942 0.6566301584 
-4.20036602 104.8333969 6.241998672 0.6567760706 
-7.636503696 90.10623932 5.380030632 0.6960340738 
-27.08129883 100.7696915 6.207939148 0.6582838893 
-33.30093002 90.79466248 5.753632069 0.6787381172 
-35.77571869 67.88186646 4.565140247 0.7353034616 
-61.74387741 95.47912598 6.764727116 0.6340548992 
-12.54886246 14.67307091 1.148677349 0.9255511761 
-11.05555153 11.81921387 0.9628515244 0.9372079372 
-11.27519512 10.08579063 0.900024116 0.9411821365 
-11.51652336 9.413803101 0.8849477768 0.9421383739 
-61.491745 37.85181046 4.295974255 0.7487555742 
-64.29430389 35.73421478 4.37624979 0.7447178364 
-19.96837807 9.962646484 1.327661157 0.9144608378 
-100.4620132 44.6566925 6.540819168 0.6436898708 
-89.42035675 35.07313919 5.714586735 0.6805253029 
-66.79161835 16.36550331 4.091269016 0.7591500282 
-36.44201279 7.22777319 2.210329294 0.8616809249 
-118.6415787 12.71923351 7.098953724 0.619941771 
-15.26518536 0.9522021413 0.9099606276 0.9405527115 
-14.98326111 0.2667675614 0.8915615678 0.9417188168 
-15.0847559 -0.4028613269 0.8977792263 0.9413245916 
-72.49190521 -18.4480896 4.450316906 0.7410116196 
-64.16790009 -29.21060944 4.194566727 0.753886342 
-64.1472168 -40.27777863 4.506337643 0.7382209897 
-63.38605499 -43.84856796 4.585491657 0.7342957258 
-77.26239014 -58.69554901 5.772679806 0.6778680086 
-16.97446251 -14.12926197 1.313960195 0.9153048396 
-16.61555099 -15.13107872 1.337000728 0.9138854146 
-12.9473877 -12.88991642 1.086947322 0.9294071794 
-10.82343769 -12.88593674 1.001191974 0.9347907901 
-8.168012619 -12.88095665 0.9074328542 0.94071275 
-7.385131836 -12.87948227 0.8832861185 0.9422436357 
-6.64125967 -12.87809086 0.8620538116 0.9435920715 
-5.249443054 -12.87547779 0.8272393346 0.945807457 
-4.592372894 -12.87425232 0.8132165074 0.9467010498 
-3.336743116 -12.87188911 0.7911172509 0.9481112361 
-2.731752872 -12.87076664 0.7827953696 0.9486427903 
-0.9750732183 -12.86458492 0.767565608 0.9496163726 
0.1717822254 -12.86243153 0.7653115392 0.9497606158 
1.90199697 -12.8591795 0.7733709812 0.9492450953 
9.849105835 -40.98443604 2.507759094 0.8445906639 
11.79945755 -40.98078156 2.537175894 0.8429191709 
8.89801693 -22.98612785 1.466430068 0.9059534073 
8.887363434 -18.01329613 1.195026517 0.9226661921 
8.883898735 -16.15304184 1.096769094 0.9287925363 
8.878405571 -13.20788574 0.946827352 0.9382199049 
9.490514755 -12.84491634 0.9501613975 0.9380091429 
10.40330029 -12.84320736 0.9833248854 0.9359164238 
12.4484272 -12.8422308 1.064078093 0.9308398962 
14.87627697 -12.83768082 1.169042587 0.924282372 
19.64579391 -12.82871532 1.395938039 0.9102647901 
54.21591568 -25.85453987 3.573531389 0.7860888243 
63.53467178 14.37416267 3.875479698 0.7702637315 
103.1530075 33.21251297 6.447272778 0.6477578282 
78.06245422 33.04916763 5.043347836 0.7119977474 
68.79704285 32.80797958 4.534607887 0.736816287 
57.94952393 34.26402664 4.005244255 0.763561368 
57.94278336 37.8366394 4.117144108 0.7578276992 
58.86682892 42.29053116 4.312321186 0.7479307652 
57.92803574 45.65633774 4.388148785 0.7441211343 
19.80455017 102.2342758 6.19536972 0.6588391066 
15.36266613 103.8652496 6.246620178 0.6565715671 
10.72478485 104.4272461 6.245508194 0.6566208005 
-3.26760745 104.8701706 6.24221468 0.6567667127 
-7.628569126 100.6463089 6.005063534 0.6673411131 
-32.25710297 90.42941284 5.71207428 0.6806406975 
-60.61949921 95.59508514 6.734486103 0.6353486776 
-66.67488861 95.47238922 6.928101063 0.6271169782 
-12.58030224 14.97757816 1.163706899 0.9246147275 
-11.05401325 11.00495052 0.9279980063 0.9394105673 
-11.27553654 10.26814461 0.907308042 0.9407205582 
-11.30993176 9.414194107 0.8754799962 0.9427393079 
-12.63826656 8.742768288 0.9142830968 0.9402787089 
-13.82144547 8.678427696 0.9709576368 0.9366964102 
-63.3862114 35.97210312 4.336087704 0.746735692 
-19.97965813 10.19127941 1.33438623 0.9140466452 
-99.76079559 45.41318893 6.521238804 0.6445393562 
-59.50223541 20.92712402 3.752614737 0.7766649127 
-66.85292053 20.21858788 4.155296326 0.7558837533 
-78.67997742 20.02214241 4.83021307 0.7222928405 
-77.0350647 15.99249458 4.680867672 0.7295942307 
-67.9254837 10.97506332 4.093601704 0.7590312362 
-111.3754501 12.94351006 6.670814037 0.638078928 
-16.94315338 1.208290935 1.010583758 0.9341998696 
-14.96317387 0.3995996118 0.8905435205 0.9417834282 
-15.06432056 -0.2682079971 0.8963851929 0.9414129257 
-114.0963364 -17.39494514 6.866523743 0.6297230124 
-72.56286621 -17.77965355 4.444778919 0.7412881851 
-66.29227448 -22.65390015 4.167947292 0.7552396655 
-64.16918945 -28.524086 4.177885056 0.7547340989 
-64.1486969 -39.4873085 4.481592178 0.7394528985 
-63.80666733 -43.30530548 4.587883949 0.7341783643 
-69.55942535 -51.87414551 5.162459373 0.7063085437 
-17.77399826 -14.52904224 1.365788817 0.9121152163 
-11.02076626 -12.88630867 1.00880003 0.9343119264 
-10.06240654 -12.88450623 0.9726235867 0.9365912676 
-7.538349628 -12.87977028 0.8878729343 0.941952765 
-6.787265301 -12.8783741 0.8660857677 0.9433359504 
-5.383769512 -12.87573242 0.8303027153 0.9456122518 
-1.669887662 -12.86875916 0.7720373273 0.9493303895 
-0.5154052377 -12.86371517 0.7659307718 0.9497207999 
0.05722167715 -12.86264133 0.7652612329 0.9497637153 
1.205263615 -12.8604784 0.7684786916 0.94955796 
1.785263658 -12.85938931 0.7723996043 0.9493073225 
2.372805119 -12.86118603 0.7780801058 0.9489440322 
11.40544605 -40.98151398 2.530827999 0.8432793617 
11.39081764 -34.84598923 2.181093931 0.8633791208 
8.899187088 -23.61161041 1.501217365 0.9038332105 
8.892460823 -20.74650764 1.342902184 0.9135223031 
8.884548187 -16.50019073 1.114929795 0.9276572466 
8.881505966 -14.86928654 1.030429959 0.9329516888 
9.31730938 -12.84811974 0.944229424 0.9383840561 
10.21568584 -12.84356403 0.9763537645 0.9363558888 
12.2288866 -12.84265137 1.055044532 0.9314062595 
13.36540985 -12.84051228 1.1026721 0.9284232855 
14.61171627 -12.8381691 1.157189965 0.9250203967 
15.9908638 -12.83558559 1.219936132 0.9211195111 
54.21702576 -26.45025826 3.588986635 0.7852708697 
56.70731354 -18.81670761 3.554639101 0.7870894074 
57.65412521 -16.32224083 3.564896107 0.7865459919 
100.6696243 -14.43264103 6.050513744 0.6653014421 
107.4098053 13.45222664 6.440181732 0.6480669379 
63.30338669 13.73039722 3.853755474 0.7713913321 
105.3157883 32.87668228 6.563886166 0.6426900029 
77.81707764 32.1318779 5.008824348 0.7136551142 
70.40901947 32.81101608 4.621438026 0.7325200438 
62.90671921 32.79689789 4.220691204 0.7525609732 
57.94416046 37.10641861 4.093624592 0.7590292692 
57.93710327 40.84598923 4.217429161 0.7527265549 
57.92960739 44.82778168 4.357876301 0.7456396818 
25.4506588 101.9064789 6.249073505 0.656463027 
20.42008209 100.6089554 6.107704163 0.6627433896 
16.28672791 103.7282181 6.246842384 0.6565614939 
11.25490189 100.7517548 6.031439304 0.6661563516 
7.000502586 104.7279282 6.244622707 0.6566599607 
-6.996845722 104.672966 6.241353035 0.6568049192 
-29.75315285 99.98162079 6.206133366 0.6583642364 
-31.3202343 90.3348999 5.688278198 0.6817325354 
-12.61282158 15.29050732 1.179254174 0.9236470461 
-11.054389 11.20291996 0.9363619685 0.9388815761 
-11.274189 9.555521965 0.8792593479 0.9424993396 
-12.5601511 8.854985237 0.9142959118 0.9402779341 
-13.55275345 8.678930283 0.9574722052 0.9375475049 
-68.28244781 35.59885025 4.581368923 0.7345004082 
-76.58493805 16.61115646 4.662314415 0.7305065393 
-68.1342926 11.63232899 4.112261295 0.7580776811 
-14.94314384 0.5321533084 0.8895971775 0.9418434501 
-15.04393482 -0.1338525414 0.8950659037 0.9414966106 
-15.14660168 -0.8095946908 0.9024264216 0.9410300851 
-110.5487289 -20.90545273 6.693592548 0.6371004581 
-68.29510498 -22.66176224 4.281022072 0.7495096922 
-64.16399384 -31.30298233 4.247454643 0.7512061596 
-69.31912994 -37.72370529 4.695239544 0.7288885117 
-64.98809052 -39.21104813 4.515683651 0.7377570271 
-64.13472748 -46.94657516 4.72866869 0.7272488475 
-13.41774845 -12.89080048 1.106992126 0.928153336 
-10.24853039 -12.88485336 0.9794964194 0.9361579418 
-9.342558861 -12.88315392 0.946800828 0.938221693 
-8.493642807 -12.88157177 0.9179809093 0.9400444627 
-7.693178654 -12.88006306 0.8925747275 0.9416544437 
-6.211401463 -12.87728024 0.8505923152 0.9443207979 
-4.852470398 -12.8747406 0.8185732961 0.9463596344 
-3.582465649 -12.87235355 0.7949374318 0.9478672743 
-2.972255707 -12.87120533 0.7859143019 0.9484434128 
-2.374448299 -12.87008762 0.778619349 0.9489096403 
-1.786591768 -12.86897469 0.7729751468 0.9492704868 
-0.6302099228 -12.8639307 0.7662484646 0.9497005939 
-0.05721679702 -12.86285591 0.7652749419 0.9497628808 
0.5153320432 -12.86178207 0.765816927 0.9497281909 
1.08994627 -12.86069775 0.7678817511 0.9495961666 
2.254709482 -12.8614006 0.7768484354 0.9490227699 
11.01375198 -40.98225021 2.524722576 0.8436262608 
8.900407791 -24.26689911 1.537786841 0.9016098976 
8.894824028 -21.27273941 1.371789217 0.9117467403 
8.885219574 -16.85908127 1.133791208 0.9264793992 
8.879379272 -13.73086929 0.972836256 0.9365777969 
10.03070068 -12.84391117 0.9695587158 0.9367846251 
10.98296833 -12.84211349 1.005340815 0.9345296621 
14.35270214 -12.83866215 1.145678401 0.9257379174 
15.70326138 -12.83612728 1.206659555 0.9219434857 
18.90440941 -12.83011246 1.359269023 0.9125158191 
20.83710861 -12.82647896 1.455730557 0.9066064954 
54.20733643 -21.26163101 3.4642272 0.7918972969 
55.77730179 -16.32881737 3.457702637 0.7922452092 
56.91112518 -13.94459915 3.486038685 0.7907345891 
101.4045258 -15.45995045 6.102708817 0.6629666686 
64.66264343 13.42399025 3.929086208 0.7674878836 
102.9253769 36.19919968 6.49115181 0.6458462477 
102.9053116 46.84469223 6.726771832 0.6356775761 
65.40019226 33.35951233 4.367884636 0.7451372147 
57.94552612 36.38370895 4.070662975 0.7602038383 
57.93855286 40.08016205 4.191410542 0.7540467381 
57.93115234 44.00974655 4.328331947 0.7471246719 
57.91463852 52.74032974 4.660207272 0.7306099534 
57.90536499 57.64825439 4.861210346 0.720785439 
27.70981407 90.17260742 5.612352848 0.6852278709 
26.35812378 101.679451 6.249296665 0.656453073 
11.07441425 91.73142242 5.49715519 0.6905661225 
7.93316412 104.6651917 6.244844437 0.6566500068 
3.268422842 104.8959961 6.243741989 0.6566987038 
-55.52872086 91.11405182 6.348136902 0.6520978212 
-12.83363247 17.36964798 1.284864783 0.9171001911 
-11.17932129 10.55062485 0.9145370126 0.9402626753 
-11.94307613 9.413002968 0.9047076106 0.9408852458 
-12.4810791 8.96652317 0.9143093824 0.9402769804 
-13.29162121 8.679423332 0.944442749 0.938370645 
-19.9505024 9.514008522 1.314996362 0.9152408838 
-68.76542664 12.37071705 4.156826019 0.7558053732 
-68.67173767 9.222495079 4.122261047 0.7575671673 
-15.19924736 -1.356274366 0.7679364085 0.9407142997 
-115.7916489 -15.55014133 5.879477024 0.6263061762 
-109.8973541 -19.77033615 5.619308472 0.6394087672 
-69.3744812 -18.97544479 3.619485378 0.7497202158 
-64.02884674 -23.80780792 3.437753916 0.7606415153 
-64.34713745 -27.24238777 3.51648736 0.7558902502 
-64.1651535 -30.59934998 3.577470064 0.7522312999 
-68.37174988 -36.42328644 3.898562431 0.7332521081 
-64.13616943 -46.07641983 3.974193096 0.728851378 
-58.72058487 -46.28094101 3.762583017 0.7412298322 
-13.65942383 -12.89125919 0.9451953173 0.9275364876 
-11.42482853 -12.8870697 0.8666961193 0.9333491921 
-10.437397 -12.88521481 0.8344882131 0.9357447028 
-9.518983841 -12.88349056 0.8061276078 0.9378591776 
-7.849799633 -12.88036633 0.7590896487 0.9413767457 
-4.983911037 -12.87498951 0.6947774887 0.9462071657 
-4.335483074 -12.8737793 0.6836175323 0.9470479488 
-2.493154287 -12.87031174 0.6597329378 0.9488499165 
-1.321625948 -12.86812496 0.6509875059 0.9495104551 
-0.171723634 -12.86307621 0.6473852396 0.9497827291 
0.4007714689 -12.86199665 0.6475878954 0.9497674704 
0.9747655988 -12.86092758 0.6490765214 0.9496549964 
1.552536607 -12.85983372 0.6518648863 0.949444294 
2.136940956 -12.86163521 0.6561279297 0.9491221309 
10.60299778 -40.90272903 2.126445055 0.8443125486 
8.900365829 -24.95138168 1.333157659 0.8993353844 
8.882702827 -15.49123478 0.898655653 0.9309782982 
8.879926682 -14.00352955 0.8344625831 0.9357465506 
8.973154068 -12.84876442 0.7886794806 0.9391623735 
11.79840755 -12.84059048 0.8775558472 0.9325428009 
12.89866924 -12.8414011 0.9159576297 0.9296972752 
18.54782104 -12.83079052 1.134982586 0.9136320949 
25.12991905 -12.81843185 1.419670343 0.8931646943 
54.20851135 -21.82063484 2.940724134 0.7913320065 
54.20335007 -19.06332016 2.891544104 0.7944362164 
59.97441101 -18.13842201 3.153192043 0.7780641913 
71.87985992 -14.92231941 3.694440126 0.7452604771 
63.52878189 15.56621552 3.291626453 0.769539237 
112.5557327 32.95043564 5.902030468 0.6251820326 
59.10793686 32.85199356 3.4031353 0.7627398968 
59.41475296 40.32413101 3.613607645 0.7500699759 
57.96524811 47.38208008 3.767636538 0.7409322858 
57.91656494 51.80708694 3.91053462 0.7325531244 
32.44741821 68.82714844 3.829307079 0.7373049855 
32.65493011 89.03314209 4.772411823 0.6839907169 
11.70662117 90.21250153 4.577959538 0.6946576834 
-12.37293911 17.06179619 1.060634494 0.9190540314 
-11.82351494 14.8649559 0.9558520317 0.9267502427 
-11.25135231 12.92123985 0.8622268438 0.9336813092 
-11.27656746 10.833745 0.7869491577 0.9392917752 
-11.27482414 9.90625 0.7552962899 0.9416609406 
-12.8570509 9.411289215 0.8018444777 0.9381788969 
-19.92168808 13.26320744 1.204414606 0.9085975885 
-19.91934586 12.01840305 1.170757771 0.9110345244 
-19.91711807 10.83897972 1.14113307 0.9131852388 
-58.24603271 19.32723045 3.088363171 0.7820893526 
-68.29282379 9.790844917 3.471953154 0.7585750222 
-106.8013916 10.4890089 5.400588989 0.6506365538 
-14.92638683 0.7977929711 0.7522381544 0.9418902993 
-15.07478523 -0.5368847251 0.7591149807 0.9413749576 
-69.8106308 -21.79323769 3.680411339 0.7460944057 
-64.34840393 -26.57010269 3.503494263 0.7566723228 
-64.14555359 -41.07735825 3.833259106 0.7370724678 
-12.71853447 -12.88950157 0.9112768173 0.9300436378 
-11.63164997 -12.88745117 0.8736504912 0.9328328371 
-8.826982498 -12.88220692 0.7858791947 0.9393717051 
-7.233417988 -12.87921333 0.7433676124 0.9425553083 
-5.79257822 -12.87651348 0.7105541825 0.9450199604 
-5.116225243 -12.87524414 0.6972228885 0.9460231662 
-3.214687347 -12.87167931 0.6676559448 0.9482516646 
-2.612246037 -12.87054634 0.6609106064 0.9487609863 
-2.020712852 -12.86942387 0.6555822492 0.9491633773 
2.019526243 -12.86185074 0.6551965475 0.949192524 
8.903102875 -25.67897797 1.36774838 0.8968632221 
8.890673637 -19.76330566 1.090581894 0.9168662429 
8.886667252 -17.61512184 0.9928924441 0.9240222573 
8.880454063 -14.28387165 0.846424818 0.9348561168 
10.5937624 -12.84285641 0.8378201127 0.9354968071 
13.84957504 -12.83961868 0.9504073858 0.9271517396 
16.5857029 -12.83448219 1.05538547 0.9194379449 
54.20956039 -22.38372421 2.951478243 0.7906554937 
57.22854996 -15.10714817 2.978652239 0.7889475226 
87.23741913 -14.89352989 4.453692913 0.7015616298 
106.9784927 15.33698654 5.43866396 0.6486666799 
64.21408844 12.14288807 3.288806677 0.7697116733 
77.47503662 33.61654663 4.250094891 0.7130220532 
60.37227249 32.8548317 3.45896101 0.7593589425 
59.40880585 43.48698044 3.705101252 0.744628787 
57.98984146 46.54759598 3.742158175 0.742435813 
58.05402374 51.00727844 3.889011145 0.7338091135 
57.90934372 55.63540268 4.041267395 0.724970758 
28.02959442 100.7132111 5.260977745 0.6579061747 
3.012023926 21.69616318 1.102321506 0.9160101414 
-7.636420727 90.10618591 4.55079937 0.6961608529 
-35.77544785 67.88195038 3.861516714 0.735417068 
-12.80301285 19.7983532 1.186520338 0.9098924994 
-11.28418922 13.19423771 0.8737090826 0.9328286052 
-11.2788763 12.05798817 0.8308990002 0.9360120296 
-11.5164156 9.413798332 0.7485449314 0.9421669245 
-62.14887619 38.25629425 3.67266345 0.7465535402 
-99.41982269 44.1938324 5.475292206 0.6467794776 
-24.42677689 9.58082962 1.320442796 0.9002463222 
-58.28221512 19.91674232 3.09955287 0.7813929319 
-66.47360229 16.28767967 3.444207668 0.7602512836 
-110.8385849 11.88228989 5.609853268 0.6398900151 
-15.15006828 0.9450292587 0.7639138699 0.9410161972 
-15.0543499 -0.4020263553 0.7578747272 0.9414678216 
-15.57811451 -1.810424805 0.7892379761 0.9391207099 
-111.7959366 -23.20890999 5.746024609 0.6329926848 
-72.51141357 -18.45280647 3.765398502 0.7410635352 
-70.86479187 -21.4320755 3.725760937 0.7434052229 
-64.41590881 -22.65510178 3.43633914 0.7607272267 
-64.34329224 -29.29030609 3.557755709 0.7534116507 
-66.46469879 -37.71897888 3.845893383 0.7363323569 
-64.31483459 -44.49097061 3.935575485 0.7310953736 
-60.32151413 -45.82603073 3.812299013 0.7383033037 
-16.83697701 -14.01477528 1.102436185 0.9160016179 
-11.84181118 -12.88784122 0.8807879686 0.9323032498 
-9.878774643 -12.88416958 0.8170431256 0.9370447397 
-8.168070793 -12.88097095 0.7675710917 0.9407414198 
-7.385121822 -12.87950134 0.7471459508 0.942271769 
-6.64132309 -12.87809563 0.7291894555 0.9436194897 
-5.931054592 -12.87677193 0.7134530544 0.9448019266 
-3.955883741 -12.87306118 0.6777297854 0.9474919438 
-3.336718559 -12.87190914 0.6691818237 0.9481365681 
-2.731767416 -12.87076187 0.6621432304 0.9486678839 
-2.138266563 -12.86965275 0.6565371752 0.9490912557 
-1.55358398 -12.86854935 0.6523073912 0.9494109154 
-0.4008056521 -12.86350536 0.6476635337 0.9497617483 
1.901994586 -12.8591795 0.6541720629 0.9492698908 
11.79931831 -40.98080444 2.146113634 0.8429914713 
8.896681786 -22.98282623 1.240231037 0.9060112238 
8.891571999 -20.2449646 1.112748742 0.9152500629 
8.887407303 -18.01348114 1.010848045 0.9227027893 
8.883937836 -16.15302658 0.9277233481 0.9288269877 
9.490497589 -12.84492683 0.8037139773 0.9380393028 
12.44554424 -12.83937931 0.8998675346 0.9308885336 
13.60519028 -12.84007263 0.9414404035 0.92781353 
16.28492546 -12.83504868 1.043471098 0.9203100204 
24.06573486 -12.82042408 1.372227192 0.8965435028 
54.21604538 -25.85474014 3.022756815 0.7861831784 
54.21061707 -22.95093155 2.962543011 0.7899597883 
57.39200211 -15.69793415 2.99431181 0.7879648805 
66.35928345 -15.01299286 3.423887968 0.7614811659 
112.8333893 -10.06839085 5.700832367 0.6352730989 
106.962944 14.36452103 5.43117094 0.6490542293 
64.35284424 11.57693577 3.290510893 0.7696076035 
77.73236084 32.90922165 4.247966766 0.713142395 
68.79660797 32.80794907 3.835681677 0.7369304299 
61.67502975 32.85578537 3.516704082 0.7558770776 
58.01127625 34.3008194 3.39152956 0.7634449005 
59.56212234 42.79030228 3.690757275 0.7454788685 
57.99186325 45.70661926 3.7158885 0.743989408 
57.92002869 49.98321533 3.850076199 0.7360860705 
57.91119003 54.65444183 4.007297993 0.7269337177 
19.80477524 102.2375946 5.240698814 0.6589683294 
-7.628256798 100.6462479 5.079495907 0.6674768329 
-26.42125893 101.9239426 5.298801899 0.6559280753 
-32.55835342 91.2746048 4.876833439 0.6783300638 
-12.63943863 19.93218231 1.187749624 0.9098032713 
-12.44200611 17.81583977 1.093568683 0.9166483283 
-12.37449646 16.13915062 1.023455739 0.921777308 
-12.38941383 9.412162781 0.7830041051 0.9395866394 
-19.91800308 11.30352974 1.152528048 0.9123573899 
-19.91584015 10.15878868 1.125112534 0.9143500924 
-59.52545929 20.93501472 3.175463915 0.7766871452 
-78.48839569 16.29421425 4.034109592 0.7253845334 
-66.61122131 10.7630024 3.395657301 0.7631946206 
-15.17653751 1.082363248 0.7656945586 0.940882206 
-15.03399372 -0.2676464915 0.7566983104 0.9415558577 
-15.13660145 -0.9442187548 0.7632238865 0.9410670996 
-15.29090786 -1.639257789 0.7739178538 0.94026649 
-64.17533112 -25.17120552 3.469126463 0.7587448359 
-64.3445816 -28.60235786 3.543616295 0.754260242 
-64.1625061 -32.01209259 3.608513832 0.7503745556 
-64.31639862 -43.65088272 3.911734581 0.732483387 
-60.10071182 -44.82034683 3.772980928 0.7406169176 
-12.05544853 -12.88825607 0.8881094456 0.9317598939 
-11.0208149 -12.88630867 0.853314817 0.9343436956 
-7.538393497 -12.87977982 0.7510256767 0.9419808984 
-6.070673466 -12.87703133 0.7164334059 0.9445779324 
-4.721996784 -12.87450123 0.6901058555 0.9465590119 
-4.081684589 -12.87330055 0.6796267629 0.9473488331 
-3.459311485 -12.87213326 0.6707684398 0.9480169415 
-2.256191254 -12.86987782 0.6575472951 0.9490149617 
-1.669951081 -12.86876965 0.6530447006 0.9493551254 
-1.090292931 -12.86480427 0.6497359872 0.9496051073 
0.05725097656 -12.8626461 0.6473141313 0.9497882724 
0.6300683618 -12.8615675 0.6480291486 0.9497341514 
1.205288053 -12.86049747 0.6500329375 0.9495825768 
1.785231948 -12.85939884 0.6533495784 0.9493320584 
11.40554428 -40.98153305 2.140751839 0.8433513641 
8.888178825 -18.42652702 1.0295434 0.9213306904 
8.881545067 -14.86948681 0.8716207743 0.932983458 
8.878925323 -13.46588326 0.8117144704 0.9374421835 
9.317231178 -12.84811974 0.798692286 0.9384141564 
12.22621822 -12.83978939 0.8922353983 0.9314541221 
13.36536312 -12.84052181 0.9327172637 0.928458035 
15.990798 -12.83559036 1.031906366 0.9211576581 
17.53110123 -12.83269978 1.093346238 0.9166644216 
19.27009964 -12.82943821 1.16501987 0.9114505649 
23.55991554 -12.82138157 1.349837303 0.898142457 
54.21715164 -26.45003891 3.035820246 0.785366118 
56.70744324 -18.81673813 3.006780386 0.7871835828 
57.34111023 -16.23390007 2.999074697 0.787666142 
52.68721008 -12.4138031 2.724059105 0.8050961494 
82.01636505 -15.50941849 4.200572968 0.7158374786 
100.6693954 -14.43262196 5.117930412 0.6654381156 
54.20506668 9.254104614 2.767365694 0.8023296595 
105.5155258 32.93954468 5.562737465 0.6422936916 
102.9867783 37.25368118 5.511400223 0.6449226141 
78.00593567 32.20946884 4.247083664 0.7131925225 
58.02828979 33.61746597 3.374890089 0.7644561529 
58.00737 37.14656448 3.466439247 0.7589067221 
59.38165283 41.86462402 3.656488657 0.7475231886 
58.51960754 45.2841301 3.723738909 0.7435250282 
50.3981514 66.95626068 4.21739006 0.7148801684 
27.16544914 91.2858963 4.792938709 0.6828699112 
20.41983414 100.608902 5.166312695 0.6628805399 
-31.68242073 91.38069916 4.867236137 0.678847909 
-35.79066849 79.56012726 4.390303135 0.7051103711 
-38.11238098 67.85948181 3.916777372 0.7321918011 
-12.4784956 18.21120644 1.110974669 0.9153792858 
-12.30870533 16.35268974 1.030014634 0.9212965965 
-11.53979492 13.98972607 0.9126378894 0.9299430847 
-11.27415943 9.555541992 0.743739903 0.9425274134 
-12.16371059 9.41258812 0.7740066648 0.9402599335 
-19.92316437 14.04595184 1.226742506 0.9069843888 
-16.27144432 10.41984367 0.9723590016 0.9255333543 
-19.91844749 11.53932571 1.158446074 0.9119274616 
-19.91625977 10.38337898 1.130311608 0.9139718413 
-61.95311356 19.34033585 3.266148567 0.7711012959 
-67.22924042 11.47767067 3.432235718 0.7609762549 
-14.91329098 0.5311279297 0.7509823442 0.9419844151 
-15.22034168 -1.494819283 0.7696441412 0.9405864477 
-57.71737289 -13.59898853 2.984138727 0.788603723 
-69.37322998 -19.64032745 3.628397226 0.7491887212 
-68.83574677 -22.84117699 3.649860859 0.7479099035 
-64.17656708 -24.51497459 3.457266092 0.7594615221 
-68.37028503 -37.20754242 3.917203188 0.7321647406 
-64.00111389 -38.61537552 3.76167345 0.7412842512 
-64.29549408 -42.80590057 3.887191772 0.7339185476 
-64.13455963 -46.94623566 3.99983573 0.7273660898 
-11.22124004 -12.88668919 0.8599197268 0.9338527322 
-10.24853992 -12.88485813 0.8285266161 0.9361889362 
-8.493647575 -12.88157177 0.7764941454 0.9400736094 
-6.934526443 -12.87864685 0.7360937595 0.9431011081 
-6.211464882 -12.87729454 0.7194927931 0.9443477988 
-5.518969536 -12.8760004 0.70499295 0.9454382658 
-4.85250473 -12.87474537 0.6924051046 0.9463857412 
-3.582490206 -12.87236786 0.6724154353 0.9478926659 
-2.972216845 -12.87121105 0.664783597 0.9484686255 
-2.374472618 -12.87009716 0.6586108208 0.9489345551 
-1.205981374 -12.86791515 0.6504086256 0.9495542049 
-0.6301757693 -12.86394024 0.648147285 0.9497251511 
-0.05724609271 -12.86286545 0.6473223567 0.9497874379 
0.5153906345 -12.86179161 0.6477831602 0.949752748 
1.08994627 -12.86070251 0.6495290995 0.9496207833 
1.668757319 -12.85961914 0.6525793076 0.949390173 
2.254709482 -12.86141109 0.6571136117 0.9490476251 
9.063263893 -40.90560913 2.10847497 0.8455207348 
10.99217796 -40.90199661 2.131407976 0.8439790606 
12.99291515 -40.97855377 2.163399935 0.8418328762 
8.888977051 -18.85515976 1.049033523 0.9199029207 
8.882116318 -15.17560482 0.8848953247 0.9319982529 
8.879418373 -13.73098564 0.8229000568 0.9366081357 
9.144113541 -12.84844208 0.7936242223 0.9387928843 
10.03065872 -12.84392071 0.8201190233 0.9368153811 
10.9830246 -12.84212399 0.8503893614 0.9345612526 
14.35270977 -12.83866692 0.9690988064 0.9257737398 
15.70312977 -12.83613777 1.020673752 0.9219814539 
23.07009315 -12.82229996 1.328260183 0.8996860385 
54.20431519 -24.09468651 2.985155344 0.7885389328 
56.39646912 -16.50996017 2.957232237 0.7902932763 
63.56830978 16.1768837 3.300996065 0.7689652443 
58.30764389 33.08977509 3.373883486 0.7645178437 
58.00836182 36.42333984 3.446992636 0.7600822449 
59.56509018 41.20513153 3.644919395 0.7482036948 
59.40570068 45.13017654 3.754406691 0.741712153 
57.91480255 52.7409668 3.941952467 0.7307234406 
57.90553665 57.64844131 4.111958981 0.7209031582 
52.12538147 101.075943 5.723160744 0.6341459155 
-28.93509674 100.4953461 5.262833118 0.6578085423 
-12.73011208 20.88822746 1.231023192 0.9066756368 
-11.67783165 14.41653252 0.9336630106 0.9283881783 
-11.27449226 9.729545593 0.7494430542 0.9420996308 
-11.9430666 9.412998199 0.7652664185 0.9409140348 
-13.09941387 9.410834312 0.8117077351 0.9374429584 
-19.92121124 13.00849533 1.197337031 0.9091094136 
-19.91668892 10.61008263 1.135649681 0.9135836363 
-64.09779358 27.13685036 3.502882004 0.7567104101 
-57.61671829 21.42355919 3.093486309 0.7817703485 
-60.57233429 19.50250435 3.202382088 0.7750247717 
-36.24724579 9.914413452 1.891134262 0.8602734208 
-76.77178192 17.36862755 3.961146116 0.7296090722 
-67.33408356 12.11322689 3.442950249 0.7603273392 
-67.42089081 9.054213524 3.423377514 0.7615123391 
-21.78978539 1.9443506 1.100918293 0.9161124229 
-14.99350548 -4.882812391e-06 0.7545409799 0.9417175055 
-69.3744812 -18.97548294 3.619487286 0.7497201562 
-69.54586792 -22.39178085 3.676802874 0.7463080287 
-64.02884674 -23.80780792 3.437753916 0.7606415153 
-64.16514587 -30.59929085 3.577469349 0.7522314191 
-68.37174988 -36.42324448 3.898560762 0.7332521677 
-64.31951904 -42.00065994 3.865837336 0.7351636291 
-64.13617706 -46.07651901 3.97419548 0.7288511992 
-58.72055435 -46.28099823 3.762584209 0.7412297726 
-17.00678635 -14.6763525 1.130483985 0.9139592648 
-13.65942383 -12.89125919 0.9451953173 0.9275364876 
-12.49371529 -12.88907719 0.9033508301 0.9306305051 
-11.42483902 -12.8870697 0.8666964769 0.9333491921 
-9.518969536 -12.88348579 0.8061270118 0.9378592372 
-7.849790096 -12.88037109 0.7590893507 0.9413767457 
-6.353466511 -12.87756348 0.7226394415 0.9441114068 
-4.983920574 -12.87499523 0.6947793365 0.9462071061 
-4.335493088 -12.87377453 0.6836178303 0.9470479488 
-3.706298828 -12.87260246 0.6741241217 0.9477638006 
-3.093183517 -12.87144947 0.6661892533 0.9483623505 
-2.493144512 -12.87032223 0.6597329378 0.9488499165 
-1.903476477 -12.8692131 0.6546835303 0.9492313266 
-1.321625948 -12.86812019 0.6509875059 0.9495104551 
0.9747753739 -12.86092281 0.6490765214 0.9496549964 
8.933730125 -42.09109116 2.165400028 0.8416990638 
10.60300732 -40.90271759 2.126440048 0.8443125486 
8.889806747 -19.30048752 1.069363952 0.9184156656 
8.973163605 -12.84876919 0.7886791825 0.9391623139 
9.848178864 -12.84426212 0.8145129085 0.937233448 
11.79839611 -12.84059048 0.8775558472 0.9325428605 
12.89865208 -12.8414011 0.9159570336 0.9296973348 
15.42163563 -12.83666992 1.009761333 0.9227823615 
16.89349365 -12.83390141 1.067659259 0.9185402393 
18.54784584 -12.83079052 1.134983182 0.9136320353 
22.59576607 -12.8231926 1.307471633 0.9011759162 
54.21385193 -24.67918968 2.997662067 0.7877545357 
54.20850372 -21.82054138 2.940723896 0.7913321853 
54.20335007 -19.06326103 2.891542912 0.794436276 
57.27843475 -14.57626438 2.974370718 0.7892159224 
95.86759186 -15.49020958 4.88704443 0.6777780056 
95.56620026 14.57004833 4.864884377 0.6789747477 
63.8456955 12.66281128 3.275574207 0.7705222368 
63.52878189 15.56621552 3.291626453 0.769539237 
102.9895859 35.19458389 5.47715807 0.6466828585 
104.2677383 40.89671707 5.636411667 0.6385390759 
59.10791397 32.85198975 3.403134584 0.7627399564 
59.41475296 40.32413101 3.613607645 0.7500699759 
59.40726471 44.30311584 3.729443312 0.7431874871 
57.96528244 47.38256836 3.767636538 0.7409313321 
57.91656494 51.8070488 3.910532713 0.732553184 
57.90745926 56.63323593 4.076152802 0.7229609489 
27.14707947 101.0144348 5.263816833 0.6577541232 
19.95598602 90.06798553 4.642547131 0.6910963058 
-30.27821732 92.62496185 4.904026985 0.6768631935 
-16.32159615 33.83712006 1.890583396 0.8603106737 
-62.45075226 94.71356964 5.709284306 0.6348466873 
-12.37294388 17.06182098 1.060635328 0.9190539122 
-11.82352543 14.864995 0.9558541775 0.9267501235 
-11.25131798 12.92123508 0.8622259498 0.9336814284 
-11.27657223 10.83378887 0.7869506478 0.939291656 
-11.27482414 9.906210899 0.7552950978 0.9416610003 
-19.92168808 13.2631731 1.204413772 0.9085976481 
-19.91711807 10.83894539 1.141132236 0.913185358 
-19.91500854 9.715595245 1.115116835 0.9150777459 
-76.19123077 33.05936813 4.179672241 0.71702981 
