# .PCD v0.7 - Point Cloud Data file format
VERSION 0.7
FIELDS x y z intensities
SIZE 4 4 4 4
TYPE F F F F
COUNT 1 1 1 1
WIDTH 923
HEIGHT 1
VIEWPOINT 0 0 0 1 0 0 0
POINTS 923
DATA ascii
5.801271915 -4.32631588 -2.000477314 0.9704135656 
5.988080978 -4.0640378 -2.000509739 0.9704130888 
6.325817585 -3.515866518 -2.000582457 0.9704120159 
6.848981857 -2.340497971 -2.000758171 0.9704094529 
6.946496487 -2.033564329 -2.000807762 0.9704086781 
7.030258656 -1.722595215 -2.000859737 0.9704079628 
7.100114822 -1.408195734 -2.000913382 0.9704071879 
7.15592289 -1.090988755 -2.000968933 0.9704064131 
7.22499752 -0.4506713748 -2.001085758 0.9704046845 
7.221374512 0.5150219798 -2.00127244 0.9704019427 
7.14748764 1.154882789 -2.001403093 0.9704000354 
7.089274883 1.47174561 -2.001469612 0.9703990817 
6.930883408 2.09615469 -2.001605749 0.9703970551 
6.831007957 2.40247798 -2.001674414 0.9703961015 
6.717612267 2.704060078 -2.001743555 0.9703950286 
6.590900898 3.000309944 -2.001812935 0.9703940749 
6.451135159 3.290642023 -2.001882553 0.9703930616 
6.298593521 3.574482441 -2.001952171 0.9703919888 
5.566960335 4.633854866 -2.002227783 0.9703879952 
4.901156902 5.334101677 -2.002427816 0.9703851342 
4.659169674 5.547028542 -2.002492428 0.9703841805 
4.14798069 5.939550877 -2.002617836 0.9703823328 
2.84472394 6.176078796 -1.879645228 0.9721754193 
2.527248383 6.198627949 -1.850425839 0.9726020098 
1.679863214 6.480321884 -1.850562692 0.9726000428 
1.389960885 6.54878664 -1.850604177 0.9725994468 
1.097294927 6.604272366 -1.850643396 0.9725988507 
0.802431643 6.646681786 -1.850680351 0.9725983143 
0.5059765577 6.675925255 -1.850714803 0.9725977778 
0.2085107416 6.691943169 -1.85074687 0.972597301 
-0.3871044815 6.68418932 -1.850803494 0.9725965261 
-0.6840624809 6.660439491 -1.850827932 0.9725961685 
-1.564536095 6.510332108 -1.850884676 0.9725953341 
-2.417167902 6.244282246 -1.850916505 0.9725948572 
-4.561777115 5.631645203 -2.003407478 0.9703708887 
-5.044194221 5.203813553 -2.003371954 0.9703713655 
-5.270634651 4.974223614 -2.003349781 0.9703716636 
-5.486611366 4.734780312 -2.003324747 0.9703720212 
-6.067705154 3.962206841 -2.003232479 0.9703733921 
-6.237841606 3.688295841 -2.003196001 0.9703739285 
-6.395615101 3.407094717 -2.003157377 0.9703745246 
-6.540712833 3.119160175 -2.003115892 0.970375061 
-6.988984108 1.911645412 -2.002926826 0.9703778028 
-7.066914082 1.598798752 -2.002874136 0.9703785777 
-7.216220379 0.6439208984 -2.002704382 0.9703810811 
-7.244462967 4.882812391e-06 -2.002583027 0.9703828096 
-7.237060547 -0.3222412169 -2.002520323 0.9703837633 
-7.179316044 -0.9641357064 -2.002390862 0.9703856111 
-7.129081726 -1.282514572 -2.002324581 0.9703866243 
-7.064736366 -1.598320246 -2.002257347 0.970387578 
-6.894248009 -2.219746113 -2.002120972 0.9703896046 
-6.788442135 -2.52413559 -2.002052069 0.9703906178 
-6.66921854 -2.823505878 -2.001982689 0.9703916311 
-6.233407974 -3.685688496 -2.001773834 0.970394671 
-6.063080788 -3.959189415 -2.001704454 0.9703956246 
-5.686806679 -4.482084751 -2.001567125 0.9703976512 
-5.481611252 -4.730463982 -2.001499176 0.9703986645 
-4.802743912 -5.417426586 -2.001300573 0.9704015851 
-4.556850433 -5.62553215 -2.001236439 0.9704024792 
-4.03856945 -6.007910252 -2.001112223 0.9704042673 
-3.488398314 -6.342700005 -2.000993967 0.9704060555 
-3.202709913 -6.491420746 -2.000937462 0.9704068303 
-2.910702944 -6.627270222 -2.000882864 0.9704076648 
-2.612939358 -6.750024319 -2.000830173 0.97040838 
-1.376406193 -7.105341434 -2.000641108 0.9704111218 
-0.7394042611 -7.199267387 -2.00056076 0.9704123139 
-0.4184179604 -7.224902153 -2.000524759 0.9704128504 
0.2253759652 -7.233256817 -2.000460386 0.9704138041 
0.5469238162 -7.215976238 -2.000432491 0.9704142213 
1.186076641 -7.138637543 -2.000385046 0.9704148769 
1.502446294 -7.07874012 -2.000365734 0.970415175 
1.815827608 -7.004841328 -2.000349283 0.9704154134 
2.125617743 -6.917087078 -2.00033617 0.9704155922 
2.43120122 -6.815654278 -2.000325918 0.9704157114 
2.731970072 -6.700739384 -2.000318766 0.9704158306 
3.027316809 -6.572568417 -2.000314474 0.9704158902 
3.59951663 -6.277482986 -2.000315666 0.9704158902 
3.875217199 -6.111159325 -2.000320911 0.9704158306 
5.128371239 -5.105602741 -2.000392675 0.9704147577 
5.350478172 -4.872465611 -2.000415802 0.9704144597 
5.562004089 -4.629692078 -2.000442266 0.9704140425 
5.951660156 -4.117150784 -2.000503063 0.9704131484 
6.447052956 -3.288547277 -2.000614405 0.9704115391 
6.587099552 -2.998561859 -2.000656605 0.9704108834 
6.714118481 -2.702626944 -2.000701427 0.9704102874 
7.236640453 -0.1932519525 -2.001134396 0.9704039097 
7.225629807 0.45073241 -2.001259565 0.9704021215 
7.198654652 0.7717431188 -2.001324177 0.9704011679 
7.102043152 1.408586383 -2.001456261 0.9703992605 
7.032592773 1.723178625 -2.001523733 0.9703982472 
6.852072716 2.34156251 -2.001660585 0.9703962803 
6.741364479 2.64415288 -2.001729727 0.970395267 
6.617299557 2.941518545 -2.001799107 0.9703942537 
6.167553425 3.796499014 -2.002007961 0.9703912139 
5.398652077 4.82916975 -2.002281904 0.9703872204 
4.948393345 5.290244102 -2.002414703 0.970385313 
4.458913326 5.709489822 -2.002543211 0.9703834057 
4.20065403 5.9023633 -2.002605438 0.9703825116 
3.255204916 6.176562309 -1.929990292 0.9714409709 
2.911765099 6.176228046 -1.887500167 0.9720606804 
2.305246592 6.284787655 -1.850464106 0.9726012349 
1.156020522 6.594221115 -1.850635767 0.9725989699 
-0.3275878727 6.687353134 -1.850798249 0.9725965858 
-1.2148242 6.584486961 -1.850865006 0.9725956321 
-1.506538033 6.523989201 -1.850881815 0.9725953341 
-1.795263648 6.450556278 -1.850895643 0.9725952148 
-2.080444336 6.364355564 -1.850906968 0.9725949764 
-2.361503839 6.26554203 -1.850915194 0.9725948572 
-4.254755974 5.867148399 -2.003422976 0.9703705907 
-4.511484146 5.672030926 -2.003410339 0.9703708291 
-4.759325981 5.465688229 -2.003394842 0.9703709483 
-4.997690201 5.248520374 -2.003376007 0.9703712463 
-5.444272518 4.783422947 -2.003329992 0.9703719616 
-5.847724438 4.280483246 -2.003272295 0.9703727961 
-6.032236099 4.016059399 -2.003239155 0.9703732729 
-6.204814434 3.743686438 -2.00320363 0.9703737497 
-6.512734413 3.177265644 -2.003124237 0.9703749418 
-6.647450924 2.884340763 -2.003081083 0.9703756571 
-6.769042969 2.585722685 -2.003035307 0.9703762531 
-6.971728325 1.973769546 -2.002937078 0.9703776836 
-7.05244112 1.6616503 -2.002884865 0.9703784585 
-7.119179726 1.346259713 -2.002830505 0.9703792334 
-7.171821117 1.02820313 -2.002774239 0.9703800678 
-7.210248947 0.708139658 -2.002716303 0.9703809023 
-7.234404087 0.3866845667 -2.002656698 0.9703817368 
-7.244218826 0.06449218839 -2.002595425 0.9703826308 
-7.239677429 -0.2578466833 -2.002532959 0.9703835845 
-7.003451824 -1.848701119 -2.002203226 0.9703873992 
-6.810673714 -2.463647366 -2.002065897 0.970390439 
-6.694111347 -2.764067411 -2.001996517 0.9703914523 
-6.421508789 -3.34786129 -2.001857519 0.9703934789 
-6.098124981 -3.905087709 -2.001718283 0.9703954458 
-5.918169022 -4.172343731 -2.00164938 0.9703964591 
-5.726523399 -4.431318283 -2.001580715 0.9703974724 
-5.085219383 -5.153588772 -2.001378775 0.9704004526 
-4.850780964 -5.374511719 -2.001313448 0.9704014063 
-4.606757641 -5.584794998 -2.001249075 0.9704023004 
-4.353662014 -5.784023285 -2.001186132 0.9704031348 
-3.260273457 -6.462685585 -2.000948668 0.9704068899 
-2.969658136 -6.601157188 -2.000893593 0.9704073071 
-2.371005774 -6.838603497 -2.000789404 0.9704089761 
-1.753730416 -7.021928787 -2.000694036 0.9704104066 
-1.122646451 -7.149706841 -2.000607967 0.9704116583 
-0.8034521341 -7.192426682 -2.00056839 0.9704121947 
-0.482724607 -7.220912933 -2.000531673 0.9704127312 
0.1610156149 -7.235004902 -2.000466347 0.9704136848 
1.122507334 -7.148923397 -2.000389099 0.9704148173 
1.43939209 -7.091840744 -2.00036931 0.9704151154 
1.753422856 -7.020734787 -2.000352383 0.9704153538 
2.96871829 -6.599243164 -2.000315189 0.9704158902 
3.543505669 -6.309269905 -2.000314951 0.9704158902 
3.820654154 -6.145410061 -2.000319719 0.9704158306 
4.351794243 -5.781567097 -2.000338078 0.9704155326 
4.60468483 -5.582297325 -2.000351906 0.9704153538 
4.848520279 -5.371957779 -2.000368595 0.9704151154 
5.082734108 -5.151018143 -2.000388384 0.9704148173 
5.520573616 -4.678994179 -2.000436544 0.9704141021 
5.91476059 -4.169941425 -2.000496387 0.9704132676 
6.094504356 -3.902768373 -2.000530243 0.9704127908 
6.262194633 -3.627863646 -2.000567198 0.9704122543 
6.417497635 -3.345778704 -2.000606298 0.9704116583 
6.806171894 -2.462009192 -2.000738859 0.9704097509 
6.909132957 -2.156862736 -2.000787497 0.9704089761 
7.073850155 -1.534333467 -2.000891685 0.970407486 
7.135295391 -1.218176246 -2.000946522 0.9704067111 
7.239106178 0.06444823742 -2.001183748 0.970403254 
7.229306698 0.3864135742 -2.001246691 0.9704023004 
7.205192566 0.7076416016 -2.001311064 0.9704013467 
7.166816235 1.027485371 -2.00137639 0.970400393 
7.114255428 1.34531486 -2.001442909 0.9703994393 
6.872594833 2.280478477 -2.001646757 0.9703964591 
6.764582157 2.58402586 -2.001715899 0.9703954458 
6.028691292 4.013700962 -2.002063274 0.970390439 
5.44137907 4.78092289 -2.002268553 0.9703873992 
4.757099628 5.4631567 -2.002466679 0.9703845382 
3.988019943 6.048278809 -2.002654314 0.9703817964 
3.688962221 6.176074028 -1.988608241 0.9705864191 
3.325761557 6.176555157 -1.939158082 0.9713072777 
2.979240656 6.176350117 -1.895566106 0.9719430208 
2.649223566 6.180771351 -1.858880281 0.9724786282 
2.079990149 6.362958908 -1.85050106 0.9726009369 
0.9205883741 6.631296158 -1.850665808 0.9725985527 
0.6247045994 6.665810585 -1.850701213 0.9725980163 
0.02978515625 6.695180416 -1.85076499 0.9725971222 
-0.8616406322 6.639858246 -1.850841165 0.9725959301 
-1.156162143 6.595024109 -1.850861311 0.9725956917 
-1.448398352 6.537118912 -1.850878596 0.9725954533 
-1.737773418 6.46627903 -1.850893259 0.9725952148 
-2.305639505 6.286308289 -1.850913763 0.9725949168 
-3.178520441 6.031078815 -1.884529114 0.9721041918 
-3.520546913 6.015087605 -1.926608562 0.9714903235 
-3.878530264 5.997665882 -1.974391103 0.9707936049 
-4.202382565 5.904775143 -2.003425121 0.9703705311 
-4.710512638 5.507822037 -2.00339818 0.9703709483 
-5.181288719 5.067260742 -2.003359079 0.9703715444 
-5.809399128 4.332382679 -2.003278494 0.9703726768 
-5.996269226 4.069604397 -2.003246069 0.9703732133 
-6.171259403 3.798774242 -2.003211021 0.9703736901 
-6.484218597 3.235117197 -2.00313282 0.9703748226 
-6.62152338 2.943408251 -2.003089905 0.9703755975 
-6.953920841 2.035766602 -2.00294733 0.9703775048 
-7.037421703 1.724340796 -2.002895355 0.9703782797 
-7.162431717 1.091977477 -2.002785683 0.970379889 
-7.203710556 0.7722607255 -2.002727985 0.9703807235 
-7.230712891 0.4510351419 -2.002668619 0.9703816175 
-7.225732327 -0.5153271556 -2.002481937 0.9703843594 
-6.932841778 -2.096709013 -2.00214839 0.9703888893 
-6.832392216 -2.40293932 -2.002079487 0.9703902006 
-6.591332912 -3.000473499 -2.001940966 0.9703922272 
-6.451093674 -3.290624857 -2.001871347 0.9703932405 
-6.132666111 -3.850708008 -2.001732349 0.970395267 
-5.95509243 -4.119550705 -2.001663208 0.9703962803 
-5.564994812 -4.632221699 -2.001526356 0.9703983068 
-5.353261471 -4.87501955 -2.001458883 0.9703992605 
-4.656313419 -5.543608189 -2.00126195 0.9704021215 
-4.404960632 -5.745063305 -2.00119853 0.9704030752 
-3.876679659 -6.113461971 -2.001075983 0.9704048634 
-3.317749023 -6.433456898 -2.000959873 0.9704065919 
-2.732714891 -6.702509403 -2.000850916 0.970408082 
-1.816142559 -7.006093502 -2.000703096 0.9704102278 
-1.502641559 -7.079780102 -2.000658274 0.970410943 
-1.186196208 -7.139462948 -2.000615835 0.9704115391 
-0.5469433665 -7.216362 -2.000538826 0.970412612 
-0.2253808528 -7.233427525 -2.000504255 0.9704131484 
0.09661132842 -7.236166954 -2.000472307 0.9704136252 
0.4183935523 -7.224606991 -2.00044322 0.9704140425 
0.7393505573 -7.198752403 -2.000416756 0.9704144001 
1.0588305 -7.158652306 -2.000393391 0.9704147577 
1.690859318 -7.036076546 -2.000355482 0.9704152942 
2.00216794 -6.95384264 -2.000340939 0.9704155326 
2.612265587 -6.74831295 -2.00032115 0.9704158306 
2.909870625 -6.625400066 -2.000315905 0.9704158902 
3.201721191 -6.489397049 -2.000313759 0.9704158902 
3.487231255 -6.34054184 -2.000314474 0.9704158902 
3.765822649 -6.17915535 -2.000318289 0.9704158902 
4.036994457 -6.005541801 -2.00032568 0.970415771 
4.300173283 -5.820048809 -2.000335693 0.9704155922 
4.555063248 -5.623014927 -2.000348806 0.9704149365 
4.800502777 -5.414897442 -2.000365019 0.970415175 
5.478686333 -4.72794199 -2.000431299 0.9704142213 
5.683657169 -4.47960186 -2.000459194 0.9704138041 
5.877385139 -4.222409725 -2.00048995 0.9704133868 
6.059499264 -3.956850529 -2.000523329 0.9704128504 
6.387438774 -3.402751446 -2.000598192 0.9704117775 
6.532621861 -3.115309954 -2.000639677 0.9704111814 
6.664892197 -2.821669817 -2.000683308 0.9704105258 
6.783971786 -2.522458553 -2.000729322 0.9704098701 
6.889631271 -2.218239784 -2.000777721 0.9704091549 
6.981657505 -1.909619093 -2.000828266 0.9704084396 
7.124135494 -1.281603932 -2.000935555 0.9704068303 
7.239352703 4.882812391e-06 -2.00117135 0.9704034328 
7.232411861 0.3220458925 -2.001234055 0.9704024792 
7.175632 0.963649869 -2.001363277 0.9704005718 
7.125895977 1.281933546 -2.001429558 0.9703996181 
7.062053204 1.597705007 -2.001496792 0.9703986645 
6.78725338 2.523723125 -2.00170207 0.9703956842 
6.234052658 3.686083794 -2.001980066 0.9703916311 
5.882174969 4.225856781 -2.002118587 0.9703896046 
5.483679295 4.732263088 -2.002254963 0.970387578 
5.267912388 4.971672058 -2.002321959 0.9703866839 
4.304990292 5.826593876 -2.002580881 0.9703828692 
4.041669846 6.012509823 -2.002642393 0.9703819752 
3.047287464 6.176435471 -1.903841853 0.971822381 
2.416543007 6.2427001 -1.850445032 0.9726017118 
1.852231383 6.433090687 -1.850536704 0.9726004004 
0.9795751572 6.622812271 -1.850658417 0.9725986123 
0.6840112209 6.659963131 -1.850694418 0.9725980759 
-0.506000936 6.676279068 -1.850813508 0.9725963473 
-0.802495122 6.647241116 -1.850836873 0.9725960493 
-1.097412109 6.60503912 -1.850857496 0.9725957513 
-1.390156269 6.549755573 -1.850875378 0.9725954533 
-1.966845632 6.400361061 -1.850902677 0.972595036 
-2.249619007 6.306567192 -1.850912333 0.9725949168 
-2.527929544 6.200268269 -1.850918889 0.9725948572 
-3.805536985 6.001279354 -1.964349031 0.9709399343 
-4.149662971 5.941953182 -2.003427029 0.9703705311 
-4.903486252 5.336650372 -2.003383875 0.9703711867 
-5.959824085 4.122831821 -2.003252745 0.9703730941 
-6.302470684 3.576655149 -2.003180981 0.9703741074 
-6.45519495 3.292690277 -2.003140926 0.970374763 
-6.595146179 3.002216816 -2.003098726 0.9703752995 
-6.835585594 2.40406251 -2.003006697 0.9703765512 
-7.021831036 1.786923766 -2.002906084 0.9703781009 
-7.152470589 1.155693293 -2.002796888 0.9703797102 
-7.196586609 0.8363574147 -2.002739668 0.9703805447 
-7.226454735 0.5153808594 -2.002680779 0.9703814387 
-7.242011547 0.1934082061 -2.00262022 0.9703822732 
-7.160917759 -1.091728449 -2.002364397 0.9703860283 
-7.105029106 -1.409184575 -2.002297878 0.970386982 
-6.951191425 -2.034955978 -2.002162218 0.9703889489 
-6.742343426 -2.64453125 -2.002024174 0.9703910351 
-6.61780262 -2.94173336 -2.001954794 0.9703920484 
-6.48018074 -3.233095646 -2.001885176 0.970393002 
-6.166738033 -3.795991182 -2.001746178 0.9703950882 
-5.606059551 -4.5825243 -2.001539946 0.9703980684 
-4.705517292 -5.501977444 -2.001274824 0.9704018831 
-3.656562328 -6.247431278 -2.001028776 0.9704054594 
-3.086621046 -6.547319412 -2.000915527 0.9704071879 
-2.492348671 -6.795385361 -2.000809669 0.9704087377 
-0.9313476086 -7.177041054 -2.000583887 0.9704120159 
-0.6111620665 -7.211235046 -2.000545979 0.9704125524 
-0.2897656262 -7.231152058 -2.000510931 0.9704130292 
0.03219726309 -7.236772537 -2.000478506 0.970413506 
1.312949181 -7.116366863 -2.00037694 0.9704149961 
2.248398304 -6.87814188 -2.00033164 0.9704156518 
3.143828154 -6.517636776 -2.000313759 0.9704158902 
3.430649281 -6.371337891 -2.000314236 0.9704158902 
3.710676193 -6.212426662 -2.000317574 0.9704158902 
3.983376265 -6.041235447 -2.000324011 0.970415771 
4.504597187 -5.663352013 -2.000345945 0.9704154134 
4.752094746 -5.457411766 -2.000361443 0.9704152346 
5.64356184 -4.529975414 -2.000453472 0.9704139233 
5.839575291 -4.274523735 -2.000483751 0.9704134464 
6.504611492 -3.173293352 -2.000631094 0.9704113007 
6.761213303 -2.582722187 -2.000720024 0.9704099894 
6.964340687 -1.9716748 -2.000818014 0.9704086185 
7.112404823 -1.344963312 -2.000924349 0.9704070091 
7.228766918 -0.3863696158 -2.001097918 0.9704045057 
7.234941483 0.2576879859 -2.001221418 0.9704027176 
7.136974812 1.218471646 -2.001416206 0.9703998566 
7.075939655 1.534799814 -2.001483202 0.9703988433 
6.911996841 2.157775879 -2.001619101 0.9703968763 
6.693325043 2.763754845 -2.001757383 0.9703948498 
6.563989162 3.058867216 -2.001827002 0.9703938365 
6.266571999 3.630417347 -2.001966238 0.9703918099 
5.525546551 4.683227539 -2.002241373 0.9703878164 
4.853520393 5.377563477 -2.002440691 0.9703848958 
4.609643459 5.588312626 -2.002505064 0.9703840017 
4.356633186 5.788022518 -2.002568245 0.9703830481 
3.825195312 6.152702332 -2.002690315 0.9703812599 
3.468898773 6.176445007 -1.958200455 0.9710296392 
2.778315306 6.175915241 -1.871993661 0.9722870588 
1.909401774 6.416310787 -1.850528121 0.9726005793 
1.622136235 6.495043755 -1.850571275 0.9725999236 
1.331633329 6.560922623 -1.850612164 0.9725993276 
1.038483858 6.613805771 -1.850650907 0.9725987315 
0.7432665825 6.653581619 -1.850687385 0.9725981951 
0.4465380907 6.680187702 -1.850721359 0.9725977182 
0.1489355415 6.693554401 -1.850753188 0.9725972414 
-0.7433202863 6.654111385 -1.850832462 0.9725960493 
-1.038598657 6.614526272 -1.850853562 0.9725958109 
-1.622412086 6.496157169 -1.850887656 0.9725952744 
-1.909794927 6.417607307 -1.850900531 0.9725950956 
-2.1933887 6.326337814 -1.850910544 0.9725949168 
-3.733261585 6.004814148 -1.95455575 0.971082747 
-4.358490944 5.790483475 -2.003418207 0.9703706503 
-4.855785847 5.380083084 -2.003387451 0.9703712463 
-5.090297699 5.158696175 -2.003367662 0.9703714252 
-5.314677715 4.927104473 -2.003345013 0.9703717232 
-5.731415749 4.435117245 -2.003290892 0.970372498 
-6.81393528 2.4648242 -2.003016233 0.9703764915 
-7.005673885 1.849365234 -2.002916336 0.9703779817 
-7.188906193 0.9003612995 -2.00275135 0.9703803658 
-7.221630573 0.5796630979 -2.002692699 0.9703812599 
-7.240058422 0.2578369081 -2.00263238 0.9703820944 
-7.209267616 -0.7080321908 -2.002443075 0.9703848958 
-7.117333889 -1.345888615 -2.00231123 0.9703868032 
-7.050185204 -1.661108375 -2.002243996 0.9703877568 
-6.968964577 -1.973017573 -2.002175808 0.9703891873 
-6.360820293 -3.461581945 -2.001829386 0.9703938365 
-5.842856407 -4.276982307 -2.001621723 0.9703969359 
-5.439248085 -4.779037952 -2.001485586 0.9703988433 
-5.221103191 -5.016088963 -2.001418829 0.9703998566 
-4.249941349 -5.86050272 -2.001161337 0.9704036117 
-3.984911919 -6.043573856 -2.001100063 0.9704045057 
-3.431889534 -6.373471737 -2.000982523 0.9704059958 
-3.144833803 -6.519628525 -2.000926495 0.9704069495 
-2.552753925 -6.772968769 -2.000819921 0.9704085588 
-2.248886585 -6.879648209 -2.000769615 0.9704092741 
-1.628427744 -7.051982403 -2.000675917 0.970410645 
-0.03219726309 -7.236786842 -2.000484705 0.9704134464 
0.289755851 -7.230947018 -2.000454426 0.9704138637 
0.611115694 -7.210803032 -2.000427008 0.9704142809 
0.9312597513 -7.176393986 -2.000402451 0.9704146385 
1.249555588 -7.127790451 -2.000380754 0.9704149365 
1.56537354 -7.065075397 -2.000362158 0.9704152346 
2.187082529 -6.897890568 -2.000333786 0.9704156518 
2.491748095 -6.793745041 -2.000324249 0.970415771 
2.79148674 -6.676154613 -2.000317574 0.9704158902 
3.085690737 -6.545358658 -2.000314236 0.9704159498 
4.70334959 -5.49946022 -2.000358105 0.9704152942 
4.94337368 -5.284838676 -2.000375986 0.9704149961 
5.393649578 -4.824672699 -2.000421047 0.9704143405 
5.603003025 -4.580019474 -2.00044775 0.9704139829 
5.988080978 -4.0640378 -2.000509739 0.9704130888 
6.848984241 -2.340507746 -2.000758171 0.9704094529 
7.030263424 -1.722578049 -2.000859737 0.9704079628 
7.197590351 -0.7715991139 -2.00102663 0.970405519 
7.017021179 1.785707951 -2.001537323 0.9703980684 
6.930883408 2.09615469 -2.001605749 0.9703970551 
6.831015587 2.40246582 -2.001674414 0.9703960419 
6.717617035 2.704052687 -2.001743555 0.9703950286 
6.590903282 3.000295401 -2.001812935 0.9703940749 
6.451128006 3.290654182 -2.001882553 0.9703930616 
5.956367016 4.120446682 -2.002090931 0.9703900218 
5.355500221 4.877067566 -2.002295256 0.9703870416 
5.133425236 5.110646725 -2.002362013 0.9703860283 
4.901156902 5.334101677 -2.002427816 0.9703851342 
4.659169674 5.547028542 -2.002492428 0.9703841805 
4.14798069 5.939550877 -2.002617836 0.9703823328 
3.879790068 6.118378639 -2.002678394 0.9703814387 
2.527258158 6.198617935 -1.850425839 0.9726020694 
1.679846168 6.480329514 -1.850562692 0.9726000428 
1.389946222 6.548791409 -1.850604177 0.9725994468 
-0.6840624809 6.660439491 -1.850827932 0.9725961685 
-0.9796777368 6.623496056 -1.850849509 0.9725958705 
-1.273359299 6.573427677 -1.850868464 0.9725955725 
-1.564521432 6.510336876 -1.850884676 0.9725953341 
-1.852587819 6.434345722 -1.850898147 0.9725950956 
-2.692621946 6.13058567 -1.850921392 0.9725946784 
-2.981357336 6.04274416 -1.862633586 0.9724237919 
-3.31354475 6.024843693 -1.900714517 0.9718680978 
-4.026718616 5.990253925 -1.995231271 0.9704899192 
-4.306791782 5.829032898 -2.003420591 0.9703706503 
-4.561777115 5.631645203 -2.003407478 0.9703708887 
-5.691718578 4.485971451 -2.003296852 0.9703724384 
-6.067695141 3.962221622 -2.003232479 0.9703733921 
-6.237836838 3.68832016 -2.003196001 0.9703739285 
-6.395605564 3.407114267 -2.003157377 0.9703745246 
-6.54072237 3.119155169 -2.003115892 0.970375061 
-6.791757584 2.525351524 -2.003026009 0.9703763723 
-6.988984108 1.911621094 -2.002926826 0.9703778625 
-7.066914082 1.598798752 -2.002874136 0.9703785777 
-7.180654049 0.9643163681 -2.002762794 0.970380187 
-7.216220379 0.6439208984 -2.002704382 0.9703810811 
-7.179316044 -0.9641357064 -2.002390862 0.9703856111 
-7.064741135 -1.598291039 -2.002257347 0.970387578 
-6.986406326 -1.910917878 -2.002189398 0.9703885913 
-6.788442135 -2.524150372 -2.002052069 0.9703906178 
-6.669209003 -2.823525429 -2.001982689 0.9703916311 
-6.391416073 -3.404863119 -2.001843452 0.9703936577 
-6.063080788 -3.959189415 -2.001704454 0.9703956246 
-5.880732059 -4.224833965 -2.001635551 0.9703966975 
-5.686806679 -4.482084751 -2.001567125 0.9703976512 
-4.802743912 -5.417426586 -2.001300573 0.9704015851 
-4.556850433 -5.62553215 -2.001236439 0.9704024792 
-4.301972389 -5.822480202 -2.001173735 0.9704033732 
-3.488378763 -6.342704773 -2.000993967 0.9704060555 
-2.612919807 -6.750024319 -2.000830173 0.9704084396 
-2.310024261 -6.859404087 -2.000779629 0.9704091549 
-0.7394042611 -7.199267387 -2.00056076 0.9704123139 
-0.4184179604 -7.224902153 -2.000524759 0.9704128504 
-0.09661132842 -7.236235142 -2.000491142 0.9704133868 
0.2253759652 -7.233256817 -2.000460386 0.9704138041 
0.5468993783 -7.215973854 -2.000432491 0.9704142213 
0.8673437238 -7.18441391 -2.000407219 0.9704145789 
1.186064482 -7.138637543 -2.000385046 0.9704148769 
2.125632286 -6.917084694 -2.00033617 0.9704155922 
2.431208372 -6.81564188 -2.000325918 0.970415771 
4.143232346 -5.932753563 -2.000329256 0.9704157114 
4.654206276 -5.541098595 -2.000354767 0.9704152942 
4.896125317 -5.328622818 -2.000372171 0.9704150558 
5.128371239 -5.105602741 -2.000392675 0.9704147577 
5.561992168 -4.62970686 -2.000442266 0.9704140425 
5.76251936 -4.377768517 -2.000471115 0.9704136252 
6.294264793 -3.571996927 -2.000574827 0.9704121351 
6.447060585 -3.288532734 -2.000614405 0.9704115391 
6.587101936 -2.998552084 -2.000656605 0.970410943 
6.714118481 -2.702626944 -2.000701427 0.9704102874 
6.82785368 -2.401340246 -2.000748396 0.9704095721 
7.190392971 -0.8356298804 -2.001014948 0.9704056978 
7.225629807 0.4507226348 -2.001259565 0.9704021215 
7.198654652 0.771723628 -2.001324177 0.9704011679 
7.157431602 1.091252446 -2.001389742 0.9704002142 
7.102038383 1.40860343 -2.001456261 0.9703992605 
7.032585144 1.723186016 -2.001523733 0.9703983068 
6.949206352 2.034392118 -2.001591921 0.9703972936 
6.852072716 2.341577053 -2.001660585 0.9703962803 
6.617299557 2.941518545 -2.001799107 0.9703942537 
6.330109596 3.518264055 -2.001938343 0.9703922272 
5.992775917 4.067233562 -2.002076864 0.9703902006 
5.806110859 4.329936504 -2.002146006 0.9703891873 
5.398652077 4.82916975 -2.002281904 0.9703872204 
5.178678989 5.064704418 -2.002348661 0.9703862667 
4.948422909 5.290234089 -2.002414703 0.9703852534 
4.708330154 5.505300045 -2.002479553 0.9703843594 
4.200642109 5.902377605 -2.002605438 0.9703825116 
3.934047699 6.083576679 -2.002666473 0.9703816175 
3.614858389 6.176228046 -1.978218794 0.9707378149 
3.255195141 6.176567078 -1.929988265 0.9714409709 
2.911765099 6.176228046 -1.887500167 0.9720606804 
2.586061954 6.184992313 -1.853153944 0.9725623131 
1.448181152 6.536127567 -1.85059607 0.972599566 
1.156020522 6.594221115 -1.850635767 0.9725989699 
0.2680664062 6.68979454 -1.85074079 0.9725974202 
-0.02978515625 6.695204735 -1.850770831 0.972597003 
-0.9207080007 6.631938457 -1.850845456 0.9725958705 
-1.2148242 6.584486961 -1.850865006 0.9725956321 
-1.506538033 6.523989201 -1.850881815 0.9725953341 
-1.795263648 6.450556278 -1.850895643 0.9725952148 
-2.080444336 6.364355564 -1.850906968 0.9725949764 
-2.361503839 6.26554203 -1.850915194 0.9725948572 
-2.918115139 6.050077915 -1.856812239 0.9725090265 
-3.245795727 6.027983189 -1.892516494 0.9719876051 
-3.9522264 5.993994236 -1.984678745 0.9706436992 
-4.254755974 5.867148399 -2.003422976 0.9703705907 
-5.226142406 5.020927429 -2.003354549 0.9703716636 
-5.444272518 4.783422947 -2.003329992 0.9703719616 
-6.204814434 3.743686438 -2.00320363 0.9703737497 
-6.365077972 3.463896513 -2.003165245 0.9703743458 
-6.512734413 3.177265644 -2.003124237 0.9703749418 
-6.647450924 2.884340763 -2.003081083 0.9703756571 
-6.769042969 2.585722685 -2.003035307 0.9703762531 
-6.877197266 2.282001972 -2.002987385 0.9703769684 
-7.210248947 0.708139658 -2.002716303 0.9703809023 
-7.234404087 0.3866845667 -2.002656698 0.9703817368 
-7.244218826 0.06445800513 -2.002595425 0.9703826308 
-7.239677429 -0.2578466833 -2.002532959 0.9703835845 
-7.22081995 -0.579614222 -2.002469063 0.9703844786 
-7.187690258 -0.9002343416 -2.002403975 0.970385313 
-7.07872057 -1.535385728 -2.002270937 0.9703873992 
-6.810673714 -2.463647366 -2.002065897 0.970390439 
-6.694111347 -2.764067411 -2.001996517 0.9703914523 
-6.26601553 -3.630073071 -2.001787901 0.9703944325 
-6.098124981 -3.905087709 -2.001718283 0.9703954458 
-5.726523399 -4.431318283 -2.001580715 0.9703974724 
-5.30961895 -4.922441483 -2.001445532 0.9703994393 
-5.085219383 -5.153588772 -2.001378775 0.9704004526 
-4.606757641 -5.584794998 -2.001249075 0.9704023004 
-2.969658136 -6.601157188 -2.000893593 0.9704073071 
-2.371005774 -6.838603497 -2.000789404 0.9704089761 
-0.8034521341 -7.192426682 -2.00056839 0.9704121947 
-0.482675761 -7.22092247 -2.000531673 0.9704127312 
0.4826855361 -7.220575809 -2.000437737 0.9704141021 
1.122507334 -7.148923397 -2.000389099 0.9704148173 
1.43939209 -7.091840744 -2.00036931 0.9704151154 
1.753422856 -7.020734787 -2.000352383 0.9704153538 
2.063979387 -6.935737133 -2.000338554 0.9704155922 
2.370449066 -6.837026119 -2.000327826 0.9704157114 
2.96871829 -6.599243164 -2.000315189 0.9704158902 
3.820654154 -6.145410061 -2.000319719 0.9704158306 
4.351794243 -5.781567097 -2.000338078 0.9704155326 
4.604712009 -5.582277775 -2.000351906 0.9704153538 
4.848520279 -5.371957779 -2.000368595 0.9704151154 
5.082734108 -5.151018143 -2.000388384 0.9704148173 
6.262194633 -3.627863646 -2.000567198 0.9704122543 
6.560122013 -3.057050705 -2.00064826 0.9704110622 
6.909132957 -2.156835794 -2.000787497 0.9704090357 
6.998413086 -1.847436428 -2.000838518 0.9704082608 
7.073854923 -1.534299254 -2.000891685 0.970407486 
7.182629108 -0.8995629549 -2.001003265 0.9704058766 
7.234587193 -0.2576342821 -2.001121998 0.9704041481 
7.229306698 0.3864135742 -2.001246691 0.9704023004 
7.047602177 1.660510182 -2.001510143 0.9703984857 
6.872594833 2.280478477 -2.001646757 0.9703964591 
6.76457262 2.58405757 -2.001715899 0.9703954458 
6.643168926 2.882482767 -2.001785278 0.9703944325 
5.44137907 4.78092289 -2.002268553 0.9703873992 
5.223530293 5.018378735 -2.002335548 0.9703863859 
4.757119179 5.463134766 -2.002466679 0.9703845382 
4.253015041 5.864692211 -2.002593279 0.9703826904 
3.988019943 6.048278809 -2.002654314 0.9703817964 
3.688928127 6.17606926 -1.988602996 0.9705865383 
3.325761557 6.176555157 -1.939158082 0.9713072777 
2.649223566 6.180771351 -1.858880281 0.9724786282 
2.079990149 6.362958908 -1.85050106 0.9726009369 
1.506296396 6.522949219 -1.850587845 0.9725996852 
1.214636207 6.583644867 -1.850628018 0.9725990891 
0.92061764 6.631286621 -1.850665808 0.9725985527 
0.02978515625 6.695180416 -1.85076499 0.9725971222 
-0.5654150248 6.671533108 -1.850818396 0.9725962877 
-0.861669898 6.639853477 -1.850841165 0.9725959301 
-1.156162143 6.595024109 -1.850861311 0.9725956917 
-1.448427677 6.537114143 -1.850878596 0.9725954533 
-1.737773418 6.46627903 -1.850893259 0.9725952148 
-2.023735285 6.38260746 -1.850904822 0.972595036 
-2.583027363 6.177534103 -1.850919962 0.9725947976 
-3.878530264 5.997665882 -1.974391103 0.9707936049 
-5.401503563 4.831708908 -2.003334999 0.970371902 
-5.809399128 4.332382679 -2.003278494 0.9703726768 
-6.171259403 3.798774242 -2.003211021 0.9703736901 
-6.621621132 2.943393469 -2.003089905 0.9703752995 
-6.953920841 2.035766602 -2.00294733 0.9703775048 
-7.037421703 1.724340796 -2.002895355 0.9703782797 
-7.106957912 1.409575105 -2.002841473 0.9703790545 
-7.230712891 0.4510351419 -2.002668619 0.9703816175 
-7.241738319 -0.1933935434 -2.002545595 0.9703834057 
-7.195429325 -0.8362109065 -2.002417088 0.9703852534 
-7.092157841 -1.472329021 -2.002284288 0.9703872204 
-7.019399166 -1.786328077 -2.002216816 0.9703881741 
-6.832382679 -2.402973652 -2.002079487 0.9703902006 
-6.451098442 -3.290595531 -2.001871347 0.9703932405 
-5.765766621 -4.380199909 -2.001594305 0.9703972936 
-4.898447037 -5.331186295 -2.001326561 0.9704011679 
-4.656313419 -5.543608189 -2.00126195 0.9704021215 
-4.404931545 -5.745082855 -2.00119853 0.9704030752 
-4.14494133 -5.9351511 -2.001136541 0.9704038501 
-3.600859404 -6.279687405 -2.001017094 0.970405519 
-3.317753792 -6.433466434 -2.000959873 0.9704065323 
-3.028232336 -6.574491978 -2.00090456 0.9704073071 
-2.431801796 -6.817265511 -2.000799417 0.9704087973 
-2.126039982 -6.918520451 -2.000750303 0.9704095721 
-1.816162109 -7.00607872 -2.000703096 0.9704102278 
-1.186240196 -7.139452934 -2.000615835 0.9704115391 
-0.5469726324 -7.216357231 -2.000538826 0.9704126716 
0.4183935523 -7.224606991 -2.00044322 0.9704140425 
0.7393749952 -7.198747635 -2.000416756 0.9704144001 
2.002194881 -6.953835487 -2.000340939 0.9704155326 
2.309494495 -6.857863426 -2.000329494 0.9704157114 
2.612292528 -6.748302937 -2.00032115 0.970415771 
2.909863234 -6.625412464 -2.000315905 0.9704158902 
3.487197161 -6.340563774 -2.000314474 0.9704158902 
4.036962986 -6.005556583 -2.00032568 0.970415771 
4.300173283 -5.820048809 -2.000335693 0.9704155922 
4.800502777 -5.414897442 -2.000365019 0.970415175 
5.036689281 -5.196020603 -2.000384092 0.9704149365 
5.478701115 -4.727917194 -2.000431299 0.9704142213 
6.059499264 -3.956850529 -2.000523329 0.9704128504 
6.229650974 -3.683425188 -2.000559568 0.9704123139 
6.664880276 -2.821696758 -2.000683308 0.9704105258 
6.783971786 -2.522458553 -2.000729322 0.9704098701 
6.981657505 -1.909619093 -2.000828266 0.9704084396 
7.174289227 -0.9634887576 -2.000991821 0.9704060555 
7.231969833 -0.3219873011 -2.001110077 0.9704042673 
7.239352703 4.882812391e-06 -2.00117135 0.9704034328 
7.232407093 0.322077632 -2.001234055 0.9704024792 
7.062047958 1.597731948 -2.001496792 0.9703986645 
6.984233379 1.910334468 -2.001564503 0.9703976512 
6.892563343 2.219228506 -2.001633167 0.9703966975 
6.787262917 2.523691416 -2.00170207 0.9703956842 
6.536564827 3.117165565 -2.00184083 0.9703935981 
6.064123631 3.95988512 -2.002049446 0.9703906178 
5.882189751 4.225832462 -2.002118587 0.9703896046 
5.688566685 4.483486176 -2.002187014 0.9703885913 
5.267912388 4.971672058 -2.002321959 0.9703866839 
5.04169178 5.201281548 -2.002388477 0.9703856707 
4.80550766 5.420558929 -2.002453804 0.970384717 
4.304990292 5.826593876 -2.002580881 0.9703828692 
4.041647911 6.012521744 -2.002642393 0.9703819752 
2.416562557 6.242682934 -1.850445032 0.9726017714 
2.136503935 6.344167233 -1.850491881 0.9726010561 
1.564257741 6.509260178 -1.8505795 0.9725998044 
1.273217797 6.572536469 -1.850620031 0.9725992084 
0.9795751572 6.622812271 -1.850658417 0.9725986123 
0.08935546875 6.694638729 -1.850759029 0.9725971222 
-0.5060351491 6.676279068 -1.850813508 0.9725963473 
-1.097441435 6.60503912 -1.850857496 0.9725956917 
-1.680175781 6.481469631 -1.850890517 0.9725952744 
-1.966821194 6.400371075 -1.850902677 0.972595036 
-2.527909994 6.200287819 -1.850918889 0.9725947976 
-3.111743212 6.034116268 -1.876748919 0.9722178578 
-3.805571318 6.001274109 -1.964353919 0.9709398746 
-4.90357399 5.336630821 -2.003383875 0.9703710675 
-5.569975376 4.636357307 -2.00331378 0.9703722 
-5.770634651 4.383911133 -2.003284693 0.9703726172 
-5.959824085 4.122831821 -2.003252745 0.9703730941 
-6.13723135 3.853549719 -2.003218174 0.9703735709 
-6.835536957 2.404086828 -2.003006697 0.97037673 
-7.094174862 1.472753882 -2.00285244 0.9703789353 
-7.196586609 0.8363574147 -2.002739668 0.9703805447 
-7.242011547 0.1934082061 -2.00262022 0.9703822732 
-7.24323225 -0.1289648414 -2.002557993 0.9703831673 
-7.230097294 -0.4509960711 -2.002494812 0.9703840613 
-7.202621937 -0.7721630931 -2.002429962 0.9703851342 
-7.160917759 -1.091728449 -2.002364397 0.9703860283 
-7.105029106 -1.409184575 -2.002297878 0.970386982 
-6.48018074 -3.233095646 -2.001885176 0.970393002 
-5.99155283 -4.066435337 -2.001676798 0.9703960419 
-5.606029987 -4.582553387 -2.001539946 0.9703980684 
-5.396474361 -4.827211857 -2.001472235 0.9703990221 
-4.705483437 -5.501992226 -2.001274824 0.9704019427 
-4.455956936 -5.705664158 -2.001211166 0.9704028368 
-4.197577953 -5.898066044 -2.001148939 0.9704037905 
-3.930966616 -6.078749657 -2.001088142 0.9704046845 
-2.187529325 -6.899364948 -2.00075984 0.9704094529 
-1.249721646 -7.128656864 -2.000624418 0.9704113603 
-0.6111620665 -7.211235046 -2.000545979 0.9704125524 
0.03219726309 -7.236772537 -2.000478506 0.970413506 
1.312919855 -7.116364479 -2.00037694 0.9704150558 
1.940190434 -6.971401215 -2.0003438 0.970415473 
3.143862247 -6.517617226 -2.000313759 0.9704159498 
3.430649281 -6.371337891 -2.000314236 0.9704158902 
3.710707903 -6.21241188 -2.000317574 0.9704158902 
4.504597187 -5.663352013 -2.000345945 0.9704154134 
4.990202427 -5.240664005 -2.000380039 0.9704149365 
5.218471527 -5.013522625 -2.000401497 0.9704146385 
5.436369419 -4.776506424 -2.000426054 0.9704142809 
5.83955574 -4.27454567 -2.000483751 0.9704134464 
6.196567059 -3.738740206 -2.000552177 0.9704124928 
6.761220455 -2.582702637 -2.000720024 0.9704099894 
6.869572639 -2.279465199 -2.000767946 0.9704093337 
6.964350224 -1.971647859 -2.000818014 0.9704086185 
7.045346737 -1.659970641 -2.000870228 0.970407784 
7.11241436 -1.344929218 -2.000924349 0.9704070091 
7.165392876 -1.02727294 -2.000980377 0.9704062343 
7.234948635 0.2576513588 -2.001221418 0.970402658 
7.21655035 0.5792871118 -2.001285315 0.9704017639 
7.18387413 0.8997241259 -2.001350164 0.9704008102 
7.075942039 1.534765601 -2.001483202 0.9703989029 
7.00090313 1.848107815 -2.001550913 0.9703978896 
6.809409142 2.463190794 -2.001688242 0.9703958631 
6.421630859 3.347973585 -2.00189662 0.9703928232 
5.919514179 4.173305511 -2.002104521 0.9703897834 
4.356633186 5.788022518 -2.002568245 0.9703830481 
4.095002174 5.976259708 -2.002629995 0.970382154 
3.825195312 6.152702332 -2.002690315 0.9703812599 
3.468933105 6.176445007 -1.958204865 0.9710295796 
1.622111797 6.495053768 -1.850571275 0.9725999236 
1.331633329 6.560922623 -1.850612164 0.9725993276 
1.038457036 6.613811016 -1.850650907 0.9725987315 
0.7432665825 6.653581619 -1.850687385 0.9725981951 
0.1489648372 6.693549633 -1.85075295 0.9725972414 
-0.1489746124 6.693652153 -1.850782156 0.9725968242 
-0.4465527236 6.680502892 -1.850808501 0.9725964069 
-0.7433202863 6.654111385 -1.850832462 0.9725960493 
-1.331826091 6.561845779 -1.85087204 0.9725955129 
-1.62238276 6.496161938 -1.850887656 0.9725953341 
-1.909794927 6.417607307 -1.850900531 0.9725950956 
-2.193418026 6.326323032 -1.850910544 0.9725949764 
-2.746997118 6.106381893 -1.850921988 0.9725947976 
-3.045678616 6.03710413 -1.869175076 0.9723282456 
-4.096630573 5.978642464 -2.003429174 0.9703705311 
-4.358490944 5.790483475 -2.003418207 0.9703706503 
-4.855824947 5.380092621 -2.003387451 0.9703711271 
-5.090297699 5.158696175 -2.003367662 0.9703714252 
-5.528515339 4.685741901 -2.003319263 0.9703721404 
-5.922934532 4.175707817 -2.00325942 0.9703729749 
-6.270400047 3.632631779 -2.00318861 0.9703740478 
-6.425673485 3.350004911 -2.003149271 0.9703745842 
-6.568193436 3.060820341 -2.003107309 0.9703751802 
-6.81393528 2.4648242 -2.003016233 0.9703764915 
-6.916669846 2.159199238 -2.002967596 0.9703772068 
-7.141942978 1.219316363 -2.002808094 0.9703795314 
-7.188906193 0.9003612995 -2.00275135 0.9703803658 
-7.221630573 0.5796874762 -2.002692699 0.9703812003 
-7.209267616 -0.7079980373 -2.002443075 0.9703848958 
-7.117323875 -1.34591794 -2.00231123 0.9703868628 
-7.050185204 -1.661108375 -2.002243996 0.9703877568 
-6.96917963 -1.97304678 -2.002175808 0.9703883529 
-6.874169827 -2.280996084 -2.002107143 0.9703897834 
-6.765654087 -2.584462881 -2.002038002 0.9703907967 
-6.643774033 -2.88272953 -2.001968622 0.9703918099 
-6.200312138 -3.740996122 -2.001760006 0.9703948498 
-5.439248085 -4.779037952 -2.001485586 0.9703988433 
-4.249921799 -5.860527039 -2.001161098 0.9704035521 
-3.431889534 -6.373471737 -2.000982523 0.9704059958 
-2.851586819 -6.652885437 -2.000872135 0.970407784 
-2.552734375 -6.772978306 -2.000819921 0.9704085588 
-2.248886585 -6.879648209 -2.000769615 0.9704092741 
-1.940556645 -6.972714901 -2.000721693 0.9704099894 
-1.628466725 -7.051972389 -2.000675917 0.970410645 
-1.313085914 -7.117280006 -2.000632524 0.9704113007 
-0.9952050447 -7.168496132 -2.000591755 0.9704118967 
-0.6752929688 -7.205532074 -2.00055337 0.9704124331 
-0.3541162014 -7.228315353 -2.000517845 0.9704129696 
0.611115694 -7.210803032 -2.000427008 0.9704142809 
0.931291461 -7.176386356 -2.000402451 0.9704146385 
1.249555588 -7.127790451 -2.000380754 0.9704149365 
1.878090739 -6.988395691 -2.000346422 0.970415473 
2.187114239 -6.897888184 -2.000333786 0.9704155922 
2.491748095 -6.793745041 -2.000324249 0.970415771 
2.791503906 -6.676142216 -2.000317574 0.9704158902 
3.373827934 -6.401601315 -2.000313759 0.9704159498 
3.92946291 -6.076423168 -2.000322342 0.9704158306 
4.94337368 -5.284838676 -2.000375986 0.9704149961 
6.163044453 -3.793710947 -2.000544786 0.9704125524 
6.325829983 -3.515837431 -2.000582457 0.9704120159 
6.476083755 -3.231049776 -2.000622749 0.9704114199 
6.737934589 -2.642802715 -2.000710726 0.9704101086 
7.030263424 -1.722578049 -2.000859737 0.9704079628 
7.155934811 -1.09097898 -2.000968933 0.9704063535 
7.22499752 -0.4506713748 -2.001085758 0.9704046845 
7.238110065 -0.1288647503 -2.001146555 0.9704037905 
7.236908913 0.1932763606 -2.001209021 0.9704028368 
7.221374512 0.5150512457 -2.00127244 0.9704019427 
7.191552639 0.8357714415 -2.001337051 0.9704009891 
7.017016411 1.785734773 -2.001537323 0.9703980684 
6.831005573 2.402490139 -2.001674414 0.9703961015 
6.717617035 2.704052687 -2.001743555 0.9703950286 
6.590893269 3.000322104 -2.001812935 0.9703940749 
6.451139927 3.29062748 -2.001882553 0.9703930616 
5.956367016 4.120446682 -2.002090931 0.9703900218 
4.659169674 5.547028542 -2.002492428 0.9703841805 
4.14798069 5.939550877 -2.002617836 0.9703823328 
3.541533232 6.176350117 -1.968087435 0.9708855152 
3.185258627 6.176542759 -1.921048284 0.9715713859 
2.527233839 6.198632717 -1.850425839 0.9726020098 
2.249082088 6.305068016 -1.850473404 0.9726013541 
1.966406226 6.399040222 -1.850519061 0.9726006985 
1.67987299 6.4803195 -1.850562692 0.9726000428 
1.389946222 6.548791409 -1.850604177 0.9725994468 
0.802431643 6.646681786 -1.850680351 0.9725983143 
0.5060058236 6.675917625 -1.850714803 0.9725978374 
-0.3871044815 6.68418932 -1.850803494 0.9725965261 
-0.6840918064 6.660434246 -1.850827932 0.9725961685 
-2.136982441 6.345600605 -1.850908756 0.9725949764 
-2.417187452 6.244267464 -1.850916505 0.9725948572 
-3.313471556 6.024848461 -1.900710583 0.971868217 
-3.661708832 6.008300781 -1.945005894 0.9712219834 
-4.026679516 5.990253925 -1.995226502 0.9704900384 
-4.306791782 5.829032898 -2.003420591 0.9703706503 
-5.270634651 4.974223614 -2.003349781 0.9703716636 
-5.486635685 4.734760761 -2.003324747 0.9703720212 
-5.885566235 4.228251934 -2.003265858 0.9703729153 
-6.067695141 3.962221622 -2.003232479 0.9703733921 
-6.395605564 3.407114267 -2.003157377 0.9703745246 
-6.897187233 2.2207129 -2.002977371 0.9703771472 
-7.066904068 1.598832965 -2.002874136 0.9703786373 
-7.130839825 1.282822251 -2.0028193 0.9703794122 
-7.216220379 0.6439208984 -2.002704382 0.9703810811 
-6.994711876 9.765624782e-06 -2.002558708 0.9713165164 
-6.987587929 -0.3111376762 -2.00249815 0.9713172913 
-6.966616154 -0.6216455102 -2.002436161 0.9713181853 
-6.883354187 -1.2383008 -2.002309084 0.9713199735 
-6.82123518 -1.543222666 -2.002244234 0.9713208675 
-6.656645298 -2.143237352 -2.002112627 0.9713227153 
-6.55448246 -2.437143564 -2.00204587 0.9713237286 
-6.439374924 -2.726206064 -2.001979113 0.9713246822 
-6.171171665 -3.287524223 -2.001844645 0.97132653 
-6.018613338 -3.55867672 -2.001777411 0.9713274837 
-5.854155064 -3.822758675 -2.001710415 0.9713284373 
-5.292738914 -4.567475319 -2.001512289 0.9713312387 
-5.084165096 -4.798242092 -2.001447439 0.9713321328 
-4.39987278 -5.431733131 -2.001258612 0.971334815 
-4.15375948 -5.621904373 -2.001197815 0.9713357091 
-3.368242025 -6.124223709 -2.001024485 0.9713380933 
-3.092392445 -6.267822266 -2.000969887 0.9713388681 
-2.522944212 -6.517529011 -2.000866175 0.9713403583 
-1.933598638 -6.715649128 -2.000770569 0.9713417292 
-1.632900357 -6.794867992 -2.000725985 0.9713423252 
-1.32900393 -6.860634804 -2.000683784 0.9713429213 
-0.403994143 -6.976093769 -2.000571251 0.9713445306 
0.2176269442 -6.984164715 -2.000509024 0.9713454247 
0.5280810595 -6.967480183 -2.000482082 0.9713457823 
1.450703144 -6.834982872 -2.000417709 0.9713466763 
2.052412033 -6.678898811 -2.000389099 0.9713470936 
2.34748292 -6.58095932 -2.000379324 0.9713472128 
2.637885571 -6.469997406 -2.000372171 0.971347332 
2.923085928 -6.346228123 -2.000368357 0.9713473916 
3.475576162 -6.061316013 -2.000369549 0.9713473916 
3.741770029 -5.900724888 -2.000374556 0.971347332 
4.000576019 -5.728456974 -2.000382423 0.9713471532 
4.493933201 -5.35028553 -2.000407457 0.9713468552 
4.951774597 -4.929777622 -2.000443935 0.9713463187 
5.166220665 -4.704684734 -2.000466347 0.9713460207 
5.370466232 -4.47026825 -2.000491619 0.9713456035 
5.5640769 -4.227001667 -2.000519753 0.9713452458 
5.746686935 -3.9753685 -2.00055027 0.9713448286 
5.917936802 -3.715864182 -2.000583649 0.9713443518 
6.225019455 -3.175287962 -2.000657797 0.9713432789 
6.482875824 -2.609553099 -2.00074172 0.9713420868 
6.843146801 -1.420637131 -2.000936031 0.971339345 
6.899755478 -1.114850998 -2.000989437 0.9713385701 
6.942709923 -0.8068407774 -2.00104475 0.9713377953 
6.988940239 0.1244189441 -2.001219749 0.9713353515 
6.950649261 0.7451440096 -2.00134325 0.9713336229 
6.509069443 2.553029776 -2.001734734 0.9713280797 
6.111960411 3.397011757 -2.001936197 0.9713252187 
5.954995155 3.665661573 -2.002003193 0.971324265 
5.786230564 3.927062988 -2.002070189 0.9713233709 
5.41465807 4.426093578 -2.002202511 0.9713214636 
5.21257782 4.662724495 -2.002267838 0.9713205695 
5.000165939 4.890141487 -2.002332449 0.9713196158 
4.777839184 5.107882977 -2.002396107 0.9713187218 
4.055773735 5.698894024 -2.002580404 0.971316278 
3.248771906 6.164367676 -1.994925499 0.9714241624 
2.906054735 6.164294243 -1.951093197 0.9720432162 
2.577158213 6.163554668 -1.912642479 0.9725865126 
2.260219574 6.16218996 -1.879125476 0.9730602503 
1.11615479 6.366840839 -1.850595832 0.9734639525 
-0.6032177806 6.436367035 -1.850776792 0.9734613299 
-1.735224605 6.234745979 -1.852820754 0.9734324217 
-2.008584023 6.144877911 -1.850857496 0.9734603167 
-2.591245174 6.045400143 -1.883056998 0.9730046988 
-2.909321308 6.031464577 -1.917168021 0.9725225568 
-3.851962805 5.841967583 -2.003378868 0.9713048935 
-4.107993126 5.664809227 -2.00336957 0.9713050127 
-4.595195293 5.277197361 -2.00334239 0.9713053107 
-4.82534647 5.067519188 -2.00332427 0.9713056087 
-5.256513596 4.618476391 -2.003279924 0.971306324 
-5.6460495 4.132885456 -2.003224134 0.9713070989 
-5.824223518 3.877583027 -2.003192186 0.9713074565 
-5.990829945 3.614599466 -2.003157854 0.9713079929 
-6.288154125 3.067709923 -2.003081322 0.9713090658 
-6.809296608 1.604355454 -2.002850056 0.9713123441 
-6.924570084 0.9927441478 -2.002743244 0.9713138342 
-6.985004902 0.3733447194 -2.002629757 0.9713154435 
-6.994492054 0.06225585938 -2.002570868 0.971316278 
-6.971923828 -0.5596289039 -2.002448797 0.9713179469 
-6.834750652 -1.482460856 -2.002257347 0.9713206887 
-6.761816025 -1.784975529 -2.002191782 0.9713215828 
-6.575966835 -2.378735304 -2.002059221 0.9713234901 
-6.463437557 -2.66880846 -2.001992464 0.9713244438 
-6.338095665 -2.953588724 -2.00192523 0.9713253975 
-5.714238167 -4.028588772 -2.001657248 0.9713292122 
-5.529194355 -4.278637409 -2.001590967 0.9713301659 
-4.683681488 -5.18934536 -2.001332998 0.9713338017 
-4.203661919 -5.584755898 -2.001209736 0.9713354707 
-3.690429688 -5.935917854 -2.001092196 0.9713371992 
-3.42269516 -6.094042778 -2.001035452 0.9713378549 
-2.867285013 -6.373774052 -2.000927448 0.9713395238 
-2.580859423 -6.494853497 -2.000876188 0.9713401794 
-1.99329102 -6.698203087 -2.000779629 0.97134161 
-0.7757812142 -6.944726467 -2.000613451 0.9713439345 
-0.4660644531 -6.972236156 -2.000578165 0.971344471 
1.389819264 -6.84762907 -2.000421286 0.9713466763 
1.693034649 -6.778974533 -2.000404835 0.9713468552 
1.992900372 -6.696906567 -2.000391483 0.9713470936 
2.288828135 -6.601596355 -2.000380993 0.9713472128 
2.866496563 -6.37199688 -2.000368834 0.9713473916 
3.689101458 -5.933784008 -2.000373363 0.971347332 
3.949435949 -5.763830662 -2.000380754 0.9713472128 
4.201933384 -5.582472801 -2.000391006 0.971347034 
4.681547642 -5.186989784 -2.00042057 0.9713466167 
4.907690525 -4.973647118 -2.000439644 0.9713463783 
5.330453873 -4.517870903 -2.000486135 0.9713457227 
5.526223183 -4.276332855 -2.000513792 0.971345365 
5.884613991 -3.768366575 -2.000576735 0.971344471 
6.046528339 -3.502929688 -2.00061202 0.9713439345 
6.334191799 -2.951770067 -2.00069046 0.971342802 
6.459360123 -2.667138577 -2.000733137 0.971342206 
6.571762562 -2.377209425 -2.00077796 0.97134161 
6.757360458 -1.783793926 -2.000874519 0.971340239 
6.830197811 -1.481477022 -2.000925541 0.9713395238 
6.889521122 -1.176203609 -2.000978708 0.9713387489 
6.935212135 -0.8685937524 -2.001033545 0.9713379741 
6.967182636 -0.5592406988 -2.00109005 0.9713371992 
6.980251312 0.373098135 -2.001268625 0.9713346958 
6.956957817 0.6832543612 -2.001330614 0.9713338017 
6.804782391 1.603293419 -2.001522779 0.9713310599 
6.531481743 2.494985342 -2.001721382 0.9713282585 
6.414255142 2.783156633 -2.001788378 0.9713273048 
6.141906738 3.342463255 -2.001922607 0.9713254571 
