# .PCD v0.7 - Point Cloud Data file format
VERSION 0.7
FIELDS x y z intensities
SIZE 4 4 4 4
TYPE F F F F
COUNT 1 1 1 1
WIDTH 918
HEIGHT 1
VIEWPOINT 0 0 0 1 0 0 0
POINTS 918
DATA ascii
-8.545405388 -13.47596645 -0.6568388343 0.9381156564 
-6.956977367 -13.49016094 -0.6247898936 0.9410443306 
-6.216650486 -13.49678707 -0.611669302 0.942245841 
-4.818828106 -13.50927734 -0.5904018879 0.9441968799 
-3.948378801 -12.84872532 -0.5533000231 0.9476099014 
-3.453183413 -13.3212738 -0.5664694309 0.9463972449 
-2.298144579 -13.83198166 -0.5771723986 0.9454125762 
4.590026855 -44.6912384 -1.84931016 0.8353892565 
6.235966682 -42.16069794 -1.754344463 0.8431403041 
6.222262859 -32.12100983 -1.346776128 0.8772323728 
7.718969345 -32.12039566 -1.359822154 0.8761207461 
6.481195927 -14.75677681 -0.6634383798 0.9375137091 
6.495436668 -13.16523361 -0.6042903066 0.9429223537 
7.656357288 -13.92093754 -0.6539787054 0.9383767247 
8.488534927 -13.92838383 -0.6714196801 0.9367863536 
10.09342957 -13.66094685 -0.6991651654 0.9342618585 
10.51253128 -12.97794914 -0.6874856353 0.9353237152 
11.82850075 -13.3423872 -0.7339654565 0.9311051369 
12.94278812 -13.35235786 -0.7654583454 0.9282577038 
14.15951157 -13.36322689 -0.8014318943 0.9250156879 
15.49904728 -13.37520981 -0.8427047729 0.9213100076 
16.98713303 -13.3885107 -0.8903179169 0.9170535803 
20.55186653 -13.42037582 -1.0103724 0.9064082503 
22.12447739 -13.08175755 -1.0579983 0.9022194147 
43.17175674 -22.99872971 -2.013522387 0.8221533298 
44.16316223 -21.06080055 -2.014019966 0.8221129775 
28.72179413 -12.15975094 -1.28386569 0.8826163411 
45.88101959 -17.05980492 -2.014941216 0.8220402598 
46.60439682 -15.00516605 -2.015363216 0.8220059872 
47.2349205 -12.91968727 -2.015755653 0.8219746947 
47.77122879 -10.80761719 -2.016111612 0.8219465017 
48.21286011 -8.673358917 -2.016450167 0.8219192028 
48.55849457 -6.521093369 -2.016760588 0.8218941689 
48.80737305 -4.355178356 -2.017041445 0.8218715191 
49.01250839 -1.220703052e-05 -2.017510891 0.8218346238 
48.9685936 2.180449247 -2.017699003 0.8218194842 
13.06094456 3.57242918 -0.5573768616 0.9472344518 
45.14601517 19.11338806 -2.018038034 0.8217924237 
43.26351166 23.04754829 -2.017794847 0.8218113184 
41.03613663 26.79508018 -2.017423391 0.8218442202 
21.96995735 15.78357601 -1.113535643 0.8973593712 
20.90078545 16.47307968 -1.095437169 0.8989403248 
17.9094677 16.90228081 -1.013679862 0.906116724 
18.08233452 18.65452385 -1.069420457 0.9012179375 
29.71587753 33.51911926 -1.843886375 0.8358296156 
17.41865158 21.50370598 -1.139131188 0.8951289654 
16.24274826 21.98370361 -1.125124931 0.8963485956 
15.28959465 22.74520493 -1.128136873 0.8960860372 
15.28601074 25.0819664 -1.209077358 0.8890595436 
16.6066494 33.65939713 -1.544980645 0.8604845405 
15.31734848 34.87581635 -1.567955852 0.8585640192 
12.28266048 42.65964127 -1.827341318 0.8371759057 
6.485204697 43.84564209 -1.824454665 0.8374105692 
4.526337624 44.07098007 -1.823643327 0.8374771476 
2.560390472 44.21103287 -1.822909713 0.8375364542 
0.5909765363 44.26524353 -1.822255373 0.83758986 
-1.238481402 16.34078979 -0.6745661497 0.9364996552 
-4.079877853 33.79444122 -1.401179314 0.8726029992 
-3.035678625 18.27099991 -0.7624008656 0.9285336733 
-3.722509623 17.53868675 -0.738030076 0.930737257 
-4.635263443 17.88105392 -0.7603676319 0.9287173152 
-12.98752403 42.26305389 -1.819967031 0.8377763033 
-9.706045151 27.20986176 -1.1891675 0.8907828927 
-12.9898777 28.20190811 -1.278101444 0.8831112981 
-13.01631832 25.23968697 -1.168966413 0.8925349712 
-13.32842731 23.2444191 -1.102947593 0.8982838988 
-13.05779266 20.59194756 -1.003684044 0.9069981575 
-13.08921337 17.07130814 -0.885492444 0.9174841046 
-13.11419868 14.27262688 -0.7978527546 0.9253376722 
-12.78720188 8.02902317 -0.6215191483 0.9413437843 
-18.70746994 7.530307293 -0.8301041126 0.9224398732 
-21.10523796 7.422670841 -0.9209203124 0.9143282175 
-24.73914528 7.481972694 -1.06389606 0.901702404 
-29.08573723 7.401757717 -1.235417366 0.8867849708 
-35.29639435 7.327543736 -1.48388803 0.8656124473 
-47.65642929 7.700268269 -1.987127304 0.8242663145 
-47.94460297 5.5718894 -1.98683238 0.8242901564 
-14.68455982 0.3921581805 -0.6046780348 0.942886889 
-14.88548279 -1.59577632 -0.616243124 0.94182688 
-25.54917336 -3.895180464 -1.063835263 0.9017074704 
-33.49715424 -6.643740177 -1.405704737 0.8722193837 
-44.90843201 -17.61433983 -1.98567903 0.824382484 
-38.96100998 -21.65444374 -1.83482039 0.8365671039 
-34.06449509 -20.9687252 -1.646559715 0.852025032 
-19.79425812 -14.76162529 -1.016418934 0.9058753848 
-13.73183537 -13.42964363 -0.7906318307 0.9259878993 
-12.5716114 -13.44000912 -0.7575352192 0.9289732575 
-11.50256824 -13.44956017 -0.72848171 0.9316018224 
-10.51051712 -13.45842266 -0.7029136419 0.9339213371 
-8.713496208 -13.47447205 -0.6605189443 0.9377800226 
-6.362202168 -13.49547291 -0.6141537428 0.9420184493 
-4.073539734 -12.84761238 -0.5547944307 0.9474724531 
-3.453437328 -12.85025883 -0.5477250814 0.9481240511 
-1.795522451 -13.83646965 -0.5743274093 0.945674181 
-1.173115253 -13.84203053 -0.571824789 0.9459044933 
-0.5548900962 -13.84755325 -0.57046628 0.9460294247 
0.05731933564 -12.88452625 -0.530371666 0.9497255087 
2.196755409 -44.84446716 -1.848149419 0.8354831934 
6.180478573 -44.51854706 -1.850092292 0.8353250623 
5.92318821 -32.10435486 -1.343813896 0.8774850368 
7.416696548 -32.11769485 -1.356836557 0.8763731122 
6.459880352 -17.13933563 -0.7539545298 0.9292966723 
6.478007793 -15.1134758 -0.6768553257 0.9362910986 
6.970939636 -12.94628906 -0.6052513123 0.9428341985 
10.0911541 -13.91534138 -0.7075573802 0.9334993958 
12.71226025 -13.35029221 -0.7588225603 0.9288569093 
15.22023869 -13.37271976 -0.8339822292 0.9220919013 
16.67625237 -13.38572693 -0.880230248 0.9179536104 
43.97185898 -21.45181656 -2.013922215 0.8221209645 
44.89317322 -19.47916412 -2.014400482 0.8220829368 
45.72563553 -17.46685028 -2.014853716 0.8220463395 
46.46709442 -15.41877937 -2.015280962 0.8220125437 
48.76537323 -4.789345741 -2.016987801 0.8218758106 
48.93632126 -2.615661621 -2.017244101 0.8218554854 
49.00970459 -0.4362768531 -2.017469645 0.8218374848 
48.64340591 6.092399597 -2.017956734 0.8217986226 
47.91334915 10.3925581 -2.018124819 0.8217853904 
13.14761734 4.104384899 -0.5669535995 0.9463524818 
46.10371017 16.67720795 -2.018121481 0.8217858076 
44.43548584 20.707201 -2.017956257 0.821798563 
42.4129982 24.57105255 -2.017661572 0.8218221068 
22.50515366 15.86626339 -1.133459568 0.895622313 
20.73624802 16.04623032 -1.079285741 0.9003536105 
19.08555603 16.17609978 -1.029845953 0.9046938419 
18.09283638 18.33608055 -1.060348153 0.9020132422 
30.01958847 33.26076889 -1.844296813 0.8357963562 
16.52790451 21.95816422 -1.131296277 0.8958105445 
15.2820158 24.5805912 -1.191418648 0.8905879855 
21.82067871 38.85206604 -1.83424437 0.8366141319 
17.02041054 33.73783875 -1.555470586 0.8596068025 
12.66342258 42.55376053 -1.827556968 0.8371579647 
10.75175285 43.05016327 -1.826506615 0.8372436166 
6.765341759 43.08641052 -1.795295238 0.8397886753 
4.918876648 44.03282928 -1.823799372 0.8374640346 
2.95386219 44.18984222 -1.823050141 0.8375252485 
0.9848437309 44.26114655 -1.822379827 0.8375800848 
-3.773432493 33.7791214 -1.399099827 0.872779727 
-4.49580574 18.00126457 -0.7637766004 0.9284120798 
-9.716039658 24.45087433 -1.083026171 0.9000261426 
-12.98398876 28.86246109 -1.302751303 0.8809970021 
-13.08641052 17.38598061 -0.8957369924 0.916570425 
-13.1228857 13.29919434 -0.7690778375 0.9279310107 
-14.07735348 13.05073738 -0.7901747227 0.9260289669 
-13.08227539 10.12339783 -0.6809098721 0.9359221458 
-12.76869583 8.176757812 -0.6241320372 0.9411045313 
-14.08385754 7.342646122 -0.6537934542 0.9383935928 
-15.45934582 7.204125881 -0.7020585537 0.9339990616 
-23.84855843 7.444965839 -1.028403044 0.9048201442 
-27.79520035 7.33735323 -1.183331013 0.8912888169 
-34.17915344 7.413520336 -1.439634323 0.869345963 
-47.58737564 8.124399185 -1.987188816 0.8242616653 
-18.50717163 1.485507727 -0.7642615438 0.9283655882 
-14.66998482 0.5224170089 -0.6042446494 0.9429265857 
-14.74305153 -0.1312353462 -0.606893599 0.9426836967 
-14.81677246 -0.7919726372 -0.6107757688 0.9423279166 
-14.89145947 -1.462529302 -0.6159283519 0.9418557882 
-25.7947216 -4.877831936 -1.080610275 0.9002376795 
-46.41298294 -13.14003372 -1.985598683 0.8243895173 
-37.98955536 -12.60575199 -1.647607684 0.8519383669 
-45.06316757 -17.21380424 -1.985666156 0.8243834376 
-40.88523483 -17.74014664 -1.834561825 0.8365881443 
-39.15155029 -21.30641556 -1.834791064 0.8365696669 
-38.16832733 -23.02897453 -1.834945083 0.8365566134 
-13.9762249 -13.42746544 -0.7977908254 0.9253432155 
-12.79577637 -13.43800735 -0.7638071775 0.9284066558 
-11.7097311 -13.44770432 -0.7339963913 0.9311024547 
-8.883579254 -13.47295856 -0.6642938256 0.9374356866 
-8.051825523 -13.48038101 -0.6463430524 0.9390738606 
-7.262319088 -13.48743629 -0.6305506825 0.9405171871 
-6.509013653 -13.49416924 -0.6167048216 0.9417846203 
-5.78669405 -13.50061989 -0.6046252251 0.942891717 
-3.19220686 -13.82398891 -0.5840133429 0.9447838068 
-1.920693278 -13.83535099 -0.5749658346 0.9456152916 
-1.297143579 -13.84092236 -0.5722308159 0.9458669424 
-0.6782861352 -13.84644985 -0.5706460476 0.946012795 
-0.05731689185 -12.88350105 -0.5303279161 0.9497294426 
1.797507286 -44.85761261 -1.847957611 0.8354986906 
5.783342361 -44.56703568 -1.849896193 0.8353411555 
6.400138855 -23.81497002 -1.015080214 0.9059932232 
6.490058422 -13.76667404 -0.6264950633 0.9408884048 
6.822292328 -12.94495583 -0.6023255587 0.943102479 
8.150400162 -13.92535591 -0.6641746163 0.9374466538 
9.010124207 -13.93304157 -0.6830006242 0.9357318282 
9.921853065 -13.94119644 -0.7043582201 0.9337900877 
10.13046837 -12.97165489 -0.6774970889 0.9362331629 
11.1037569 -12.9832325 -0.7032250762 0.9338931441 
13.65937233 -13.35875416 -0.786454916 0.9263637662 
19.76358414 -13.41333008 -0.9832004309 0.9088066816 
21.82034111 -13.43171883 -1.054722309 0.9025070071 
43.77698517 -21.84129906 -2.013823748 0.8221289515 
44.71604919 -19.87714767 -2.014306784 0.8220899701 
46.32598114 -15.8310833 -2.015197754 0.822019577 
46.99412918 -13.75731373 -2.015603542 0.821986258 
47.56806564 -11.65530777 -2.015970945 0.8219575286 
48.71955872 -5.222876072 -2.016932726 0.8218800426 
48.90996933 -3.050866604 -2.017195463 0.8218592405 
49.00287628 -0.8722680211 -2.017426968 0.8218408227 
48.9979248 1.308535099 -2.017627478 0.8218251467 
48.89537048 3.487143517 -2.017796516 0.8218114376 
48.69513702 5.659111023 -2.01793313 0.82180053 
13.10624504 3.335280657 -0.556689918 0.9472978711 
13.06784916 3.95217514 -0.5619750619 0.9468109012 
45.48003769 18.30706215 -2.018071175 0.8217891455 
44.61842728 20.31102371 -2.017978668 0.8217971921 
43.66812897 22.27454948 -2.017853737 0.8218066096 
30.33481789 17.21520805 -1.435737371 0.8696753383 
20.88720322 15.86796188 -1.079752207 0.9003127813 
20.84330559 17.349617 -1.116312861 0.8971171975 
17.99856377 16.39064407 -1.002052784 0.9071421623 
18.08978081 18.00948906 -1.050733089 0.9028571844 
30.30125427 32.97698975 -1.843494415 0.8358638287 
28.7912159 34.27763748 -1.842661858 0.835929513 
27.20820427 35.48559189 -1.840649366 0.8360932469 
15.38969231 22.03664017 -1.106407166 0.8979820013 
15.27564907 24.08946037 -1.174158931 0.8920843005 
15.53256512 33.722229 -1.528281569 0.8618830442 
16.78408623 41.1663475 -1.829967022 0.8369622827 
13.04305649 42.44435501 -1.827775836 0.8371406198 
11.13558292 42.95752716 -1.826710939 0.8372272253 
5.310908318 43.9911499 -1.823958516 0.8374511003 
3.347351074 44.16534042 -1.823193669 0.8375133276 
1.3788867 44.25374985 -1.82250762 0.8375695944 
-0.2222802639 16.64885139 -0.6853805184 0.9355153441 
-0.947065413 16.35332489 -0.674280405 0.9365256429 
-6.471372128 43.75228882 -1.820570588 0.8377270103 
-4.238070965 17.63558578 -0.7466022372 0.9299614429 
-12.2332716 42.48815155 -1.819987416 0.8377742767 
-12.94317341 33.43589783 -1.47584486 0.866289556 
-13.05583477 26.46209335 -1.214617014 0.8885803223 
-13.05045891 21.41379356 -1.032255292 0.9044812918 
-13.08353996 17.70788956 -0.9062865973 0.915630281 
-13.12077618 13.53596687 -0.7759845853 0.9273078442 
-13.82602501 13.04849052 -0.7825570703 0.926715374 
-13.07194328 11.28068829 -0.7107406259 0.9332107306 
-13.08061028 10.30956554 -0.6855709553 0.9354978204 
-13.38246059 9.614179611 -0.6782848835 0.9361611605 
-14.62259197 9.548549652 -0.718875885 0.932472527 
-13.79169369 7.347182274 -0.6432392597 0.9393571615 
-15.24234295 7.268754482 -0.6951138377 0.9346301556 
-48.07240677 4.28959465 -1.98667264 0.8243029714 
-14.80196762 -0.6591015458 -0.6098986864 0.9424082041 
-14.87643051 -1.327460885 -0.6147927642 0.9419597387 
-25.63349152 -4.611386776 -1.072093487 0.9009836912 
-31.34277344 -7.090903282 -1.322773457 0.8792830706 
-31.6421814 -8.654780388 -1.350334764 0.8769292235 
-41.04124451 -17.37555695 -1.834545255 0.8365889788 
-40.22964096 -19.18496513 -1.834639668 0.836581707 
-39.33900452 -20.95692253 -1.834762931 0.8365718126 
-38.08641815 -22.51975441 -1.821305513 0.8376674056 
-30.20022964 -19.72075653 -1.484707355 0.8655435443 
-19.97260284 -14.34864235 -1.012300491 0.9062381983 
-16.16376877 -12.73958492 -0.8471636772 0.9209104776 
-15.29844666 -13.20211411 -0.8318040967 0.9222877622 
-14.22521496 -13.4252243 -0.8051508665 0.9246811867 
-13.02382755 -13.43596172 -0.7702512145 0.9278250933 
-10.89891624 -13.45495129 -0.7127526402 0.9330279231 
-9.055634499 -13.47141075 -0.6681658626 0.9370827675 
-8.214623451 -13.47893047 -0.6497539878 0.9387623668 
-6.657001972 -13.49284649 -0.6193258762 0.9415444732 
-5.228012562 -13.50561523 -0.596131146 0.9436708689 
-4.325888634 -12.84536076 -0.5579310656 0.9471831918 
-3.321821213 -13.82284164 -0.5851892233 0.9446756244 
-2.046215773 -13.83422852 -0.57565552 0.9455520511 
-1.421420813 -13.83980942 -0.5726852417 0.9458251595 
-0.801826179 -13.84534645 -0.5708724856 0.945991993 
5.385827541 -44.61185074 -1.849700451 0.8353576064 
5.954711914 -35.83990479 -1.495580554 0.8646348715 
6.451406002 -18.08584404 -0.7904143333 0.9260072708 
7.983989239 -13.92386723 -0.6606875658 0.937764585 
9.734911919 -13.93951607 -0.6998699903 0.9341980219 
10.0978241 -13.16986275 -0.6831219196 0.9357206225 
10.9036541 -12.98144531 -0.6978416443 0.934382081 
12.26303196 -13.34627438 -0.7460684776 0.9300097227 
13.41614914 -13.35658646 -0.7792681456 0.9270117283 
16.07475853 -13.3803463 -0.8609196544 0.9196792841 
19.38514137 -13.40995598 -0.9702705145 0.9099501967 
21.38545799 -13.42783165 -1.039436698 0.9038498402 
47.46068192 -12.07781696 -2.015899658 0.8219634295 
47.95938492 -9.956391335 -2.016250849 0.8219351768 
48.3625679 -7.81438446 -2.016577959 0.8219093084 
48.66971588 -5.65616703 -2.016876698 0.8218847513 
48.99201965 -1.308388591 -2.017383337 0.8218445778 
48.74301529 5.225370884 -2.017908335 0.8218024373 
48.4650383 7.389099121 -2.018021107 0.8217932582 
13.17891121 3.229206562 -0.558532536 0.9471279979 
13.05240726 3.821088791 -0.5598254204 0.947008729 
45.6413765 17.90180206 -2.018085718 0.8217881918 
41.89847183 20.90404892 -1.92740953 0.8290676475 
41.73947144 25.69311523 -2.017548084 0.8218315244 
20.76957703 16.97755241 -1.104223251 0.8981723785 
27.52881813 35.24984741 -1.841048837 0.836060524 
15.63248253 21.96537018 -1.109764338 0.8976885676 
15.26998711 26.08977699 -1.244354486 0.8860143423 
20.76221657 39.39523315 -1.833053708 0.8367107511 
15.85737038 33.6365509 -1.530731916 0.8616776466 
15.30087376 41.71768951 -1.829087615 0.8370335698 
11.51882553 42.86162567 -1.826918125 0.8372101784 
8.227290154 37.13248825 -1.565556645 0.8587642312 
7.655595303 43.66931915 -1.824978232 0.8373682499 
1.77288568 44.242939 -1.822638512 0.8375588059 
-0.7993115187 16.31713295 -0.67247051 0.9366906881 
-6.082070351 43.80961227 -1.820636392 0.8377220035 
-11.85483837 42.5955658 -1.820003033 0.8377733827 
-13.73758316 42.02503967 -1.819959641 0.8377769589 
-12.93528748 34.31987762 -1.509724498 0.8634400964 
-13.0010252 26.95305061 -1.231795192 0.8870973587 
-13.02567387 24.19099617 -1.130953193 0.8958405256 
-13.13624001 19.9225769 -0.9822965264 0.9088864326 
-13.09464836 16.46308517 -0.8658948541 0.9192342758 
-13.10723591 15.05259228 -0.8215937018 0.9232035875 
-13.11862278 13.77704048 -0.7830775976 0.9266682267 
-13.57959938 13.04629326 -0.7751475573 0.9273833036 
-13.0789299 10.49821281 -0.6903532147 0.9350630045 
-13.39120579 7.287524223 -0.6275616288 0.9407907128 
-25.92784691 7.340424538 -1.109220386 0.8977363706 
-30.84391975 7.2672019 -1.304391503 0.8808558583 
-47.43825531 8.970639229 -1.987314701 0.8242515326 
-48.03355789 4.717446327 -1.986724615 0.8242988586 
-14.64086914 0.7825536728 -0.6035250425 0.9429926872 
-14.71376419 0.1309082061 -0.6056894064 0.9427942038 
-25.97088242 -3.25276351 -1.077392578 0.9005191922 
-25.55537033 -4.362983227 -1.067158937 0.9014160633 
-45.36188889 -16.40888214 -1.985644221 0.8243851662 
-29.90221596 -13.93463326 -1.357955575 0.8762793541 
-39.52342224 -20.60562515 -1.83473599 0.8365739584 
-16.45969772 -12.73694801 -0.8566962481 0.9200569987 
-10.13267517 -13.46180153 -0.6935597062 0.9347712994 
-7.573441982 -13.48465347 -0.6366235018 0.9399619699 
-5.366230488 -13.50436974 -0.5981615782 0.9434846044 
-4.453197956 -12.84421825 -0.5595814586 0.9470311999 
-3.823940277 -12.84984303 -0.5518626571 0.9477425218 
-2.806479454 -13.82743645 -0.58078444 0.9450803995 
-2.172040939 -13.83310509 -0.5763911605 0.9454844594 
6.437697411 -40.99977493 -1.708354473 0.8469200134 
6.517133713 -32.10965729 -1.348682642 0.8770700097 
6.4468503 -18.59448242 -0.8101062775 0.9242357612 
6.467602253 -16.27603912 -0.720929563 0.9322863817 
6.484267235 -14.41406727 -0.6505994797 0.9386851192 
6.529284477 -12.94233894 -0.5967031717 0.9436184764 
7.819299221 -13.92239189 -0.6572901607 0.9380746484 
8.660368919 -13.92991161 -0.675180316 0.9364437461 
9.550319672 -13.93786621 -0.6954870224 0.9345959425 
10.09565163 -13.41261196 -0.6910275221 0.9350017309 
10.70667934 -12.97968197 -0.6925988793 0.9348586798 
12.04404545 -13.34432125 -0.7399406433 0.9305642247 
13.1774044 -13.35444832 -0.7722725272 0.9276427031 
14.41678238 -13.36552715 -0.8092291355 0.9243143201 
15.78388596 -13.37774849 -0.851683557 0.9205058217 
43.37714386 -22.61452675 -2.013623714 0.822144866 
45.2370491 -18.67863655 -2.014585018 0.8220679164 
47.86723709 -10.38232613 -2.016181707 0.8219407797 
48.28967667 -8.244318962 -2.01651454 0.8219140172 
48.84547806 -3.920883656 -2.017093897 0.8218672872 
48.97743988 -1.74418211 -2.017338037 0.8218479156 
49.01171875 0.4360595644 -2.017551184 0.8218308687 
48.94810486 2.616281748 -2.01773262 0.8218166828 
48.78687286 4.791227818 -2.017882347 0.8218048215 
48.52827835 6.95731163 -2.017999887 0.8217952847 
41.8653717 18.1653862 -1.878541946 0.8330175281 
44.05879974 21.49445915 -2.017907619 0.8218023181 
40.79528809 27.15979385 -2.017379522 0.8218452334 
21.54305077 15.76948071 -1.098970294 0.8986315727 
21.02831078 16.87904358 -1.109946132 0.897672534 
18.64879417 16.38522911 -1.021849394 0.9053968787 
18.07629395 17.36637878 -1.031824946 0.9045189619 
15.94598579 21.9887104 -1.118072867 0.8969633579 
16.22392464 33.63494492 -1.53716886 0.8611385822 
13.79996586 42.21591187 -1.82822156 0.8371037245 
9.981679916 43.22516632 -1.826106787 0.8372763991 
2.166787148 44.2286911 -1.822772622 0.8375477791 
0.1505761743 33.84910965 -1.393350959 0.8732683063 
-0.6542236209 16.32837296 -0.6726660132 0.9366728067 
-1.411796808 16.65830994 -0.6881655455 0.9352618456 
-4.409125805 33.97592545 -1.410286188 0.8718312979 
-3.101001024 17.68884277 -0.7392299771 0.9306283593 
-9.686733246 30.5507164 -1.319262028 0.8795832396 
-12.99555588 27.56610298 -1.254476547 0.885142684 
-13.0210743 24.70656776 -1.149594188 0.8942178488 
-13.04269028 22.2842865 -1.062859416 0.9017935395 
-13.06131363 20.1977005 -0.9900954962 0.9081975818 
-13.07758236 18.37545395 -0.9283889532 0.9136641622 
-13.11643028 14.02245617 -0.7903656363 0.92601192 
-13.06828594 11.6897316 -0.7217396498 0.9322128296 
-13.08553219 9.758579254 -0.6719320416 0.9367396832 
-12.87349129 7.924375057 -0.6222618222 0.941275835 
-16.35972214 7.272114277 -0.7369514108 0.9308348894 
-21.73238182 7.426542759 -0.9453624487 0.9121572375 
-30.52311516 7.478867054 -1.293592453 0.8817819357 
-47.35817719 9.392856598 -1.987379432 0.8242460489 
-14.69914055 0.2616991997 -0.6051580906 0.9428428411 
-31.31144905 -7.968305588 -1.32995522 0.8786687851 
-46.1720047 -13.96404743 -1.985605001 0.8243887424 
-39.70469284 -20.25272942 -1.83471024 0.8365761042 
-38.7673912 -22.00076675 -1.834850669 0.8365645409 
-37.75365448 -23.70536995 -1.835013032 0.8365517855 
-30.04414558 -20.78363228 -1.503780484 0.8639391065 
-14.73732853 -13.42064953 -0.8204810619 0.9233034253 
-11.29837418 -13.45137691 -0.7231042385 0.9320892096 
-10.32028294 -13.46011734 -0.698174417 0.9343517423 
-9.405815125 -13.46828556 -0.6762079 0.9363501072 
-7.731328011 -13.48324203 -0.6397814751 0.9396734238 
-6.95690918 -13.49015617 -0.6247888207 0.9410444498 
-6.216650486 -13.49678707 -0.611669302 0.942245841 
-5.50534153 -13.50312996 -0.600252986 0.9432927966 
-3.948378801 -12.84872532 -0.5533000231 0.9476099014 
-2.934560537 -13.82628918 -0.5818098187 0.9449861646 
-2.298207998 -13.83198738 -0.5771725178 0.9454125166 
-1.670561433 -13.83758736 -0.5737339854 0.9457287788 
-0.4012500048 -12.87753391 -0.5303345919 0.9497288465 
6.235966682 -42.16069794 -1.754344463 0.8431403041 
6.413908482 -22.27619553 -0.9542082548 0.9113727808 
6.442065239 -19.12916946 -0.8308668137 0.9223712087 
6.495436668 -13.16523361 -0.6042903066 0.9429223537 
7.656281471 -13.92094231 -0.6539770365 0.9383768439 
8.488534927 -13.92838383 -0.6714196801 0.9367863536 
12.9428978 -13.35235786 -0.7654613853 0.9282574058 
15.49917698 -13.37520981 -0.8427088857 0.9213096499 
16.98713303 -13.3885107 -0.8903179169 0.9170535803 
18.6570797 -13.40344238 -0.9456240535 0.9121342301 
20.55186653 -13.42037582 -1.0103724 0.9064082503 
22.12468529 -13.08176231 -1.058006048 0.9022187591 
43.17175674 -22.99872971 -2.013522387 0.8221533298 
28.72184181 -12.15992641 -1.283869863 0.8826159239 
47.77118683 -10.80782413 -2.016111612 0.8219465017 
48.21286011 -8.673358917 -2.016450167 0.8219192028 
48.55846405 -6.521291256 -2.016760588 0.8218942285 
48.80737305 -4.355178356 -2.017041445 0.8218715191 
48.95869446 -2.179802179 -2.017291784 0.8218521476 
49.01250839 -1.220703052e-05 -2.017510891 0.8218346238 
48.96858215 2.180656672 -2.017699003 0.8218194842 
48.58782959 6.52524662 -2.017978907 0.8217967153 
13.06094456 3.57242918 -0.5573768616 0.9472344518 
45.9533577 17.08668327 -2.018110991 0.8217863441 
45.14601517 19.11338806 -2.018038034 0.8217924237 
42.19186401 24.94684219 -2.017624855 0.8218255043 
41.03613663 26.79508018 -2.017423391 0.8218442202 
15.28958416 22.74539566 -1.128142953 0.8960855007 
15.28601074 25.0819664 -1.209077358 0.8890595436 
21.46935463 39.03634262 -1.833845496 0.8366462588 
16.60682106 33.6593895 -1.544983745 0.8604842424 
16.04489708 41.44853592 -1.829521775 0.8369982243 
0.5907958746 44.26525116 -1.822255373 0.83758986 
-0.5190429688 16.65797234 -0.68602705 0.9354564548 
-1.23856926 16.34085846 -0.6745687723 0.9364993572 
-3.722509623 17.53868675 -0.738030076 0.930737257 
-9.706045151 27.20986176 -1.1891675 0.8907828927 
-12.9898777 28.20190811 -1.278101444 0.8831112981 
-13.01631832 25.23995018 -1.168975949 0.8925341368 
-13.0744915 18.72149467 -0.9399594069 0.9126367569 
-13.08921814 17.07116127 -0.885486722 0.9174845219 
-13.10236263 15.5991106 -0.8385621309 0.9216814637 
-13.1249609 13.06669903 -0.7623434067 0.9285378456 
-13.08391094 9.939731598 -0.6763628721 0.9363361001 
-13.86151791 9.588979721 -0.6938050389 0.9347492456 
-12.88305187 7.311205864 -0.6097524762 0.9424217343 
-14.17280769 7.229277134 -0.6549080014 0.9382918477 
-15.89418411 7.235351562 -0.718853116 0.9324746132 
-21.10520554 7.422763348 -0.920920372 0.9143282175 
-35.29639435 7.327543736 -1.48388803 0.8656124473 
-47.65645981 7.700063229 -1.987127304 0.8242663145 
-14.68455982 0.3921581805 -0.6046780348 0.942886889 
-14.83162594 -0.9251660109 -0.6117034554 0.9422429204 
-14.88563442 -1.595854402 -0.6162495017 0.9418262839 
-25.54917336 -3.895180464 -1.063835263 0.9017074704 
-33.49715424 -6.643740177 -1.405704737 0.8722193837 
-46.29421234 -13.55264091 -1.985600352 0.8243894577 
-44.90843201 -17.61433983 -1.98567903 0.824382484 
-40.72625351 -18.10340309 -1.834579587 0.8365864754 
-38.9609108 -21.65460396 -1.83482039 0.8365671635 
-15.59114742 -12.74470711 -0.8289160132 0.9225465059 
-15.00069809 -13.41829586 -0.8284640312 0.9225868583 
-13.73172855 -13.42964363 -0.790628314 0.9259881973 
-11.50246525 -13.44956493 -0.7284792662 0.9316020608 
-9.584072113 -13.46668911 -0.680382967 0.935970068 
-8.713583946 -13.47447205 -0.660520792 0.9377798438 
-7.890722275 -13.48182106 -0.643019259 0.9393774867 
-6.362202168 -13.49547291 -0.6141537428 0.9420184493 
-4.954365253 -13.50806141 -0.5922527909 0.944026947 
-4.07348156 -12.84761238 -0.5547929406 0.9474725127 
-3.063110352 -13.82514095 -0.5828852654 0.9448873401 
-1.7954638 -13.83646965 -0.5743272305 0.945674181 
-1.173115253 -13.84203053 -0.571824789 0.9459044933 
-0.5548315048 -13.84755325 -0.57046628 0.9460294247 
2.196945667 -44.84444809 -1.848149419 0.8354831934 
5.923046589 -32.10435104 -1.343823195 0.8774851561 
7.416696548 -32.11769485 -1.356836557 0.8763731122 
6.407228947 -23.02215767 -0.9836783409 0.9087643623 
6.437031269 -19.69171333 -0.8527823687 0.9204075933 
6.492800236 -13.46039009 -0.6151627898 0.9419258833 
6.970939636 -12.94628906 -0.6052513123 0.9428341985 
8.318588257 -13.92685986 -0.6677522063 0.9371205568 
10.09115982 -13.91521454 -0.7075542808 0.9334997535 
10.32121277 -12.97624493 -0.6825028658 0.9357771873 
11.61649609 -13.3404932 -0.7281473875 0.9316322207 
12.71226025 -13.35029221 -0.7588225603 0.9288569093 
16.67625237 -13.38572693 -0.880230248 0.9179536104 
21.95969963 -13.24954605 -1.055716276 0.9024195671 
44.89317322 -19.47916412 -2.014400482 0.8220829368 
45.72570038 -17.46665573 -2.014853716 0.8220463395 
48.13238144 -9.101689339 -2.016384602 0.8219239116 
48.49710846 -6.952863693 -2.016700983 0.8218988776 
48.76540756 -4.789115906 -2.016987801 0.8218758106 
48.86296844 3.922275305 -2.017826319 0.8218095303 
13.07963085 3.452761173 -0.5568404794 0.9472838044 
46.10371017 16.67720795 -2.018121481 0.8217858076 
43.43175125 17.93364716 -1.93419385 0.8285204768 
43.46747589 22.66208458 -2.017824888 0.8218089342 
20.73624992 16.04637527 -1.079289317 0.9003533125 
19.08555603 16.17609978 -1.029845953 0.9046938419 
17.9058876 16.60020065 -1.005075932 0.9068751335 
30.01958847 33.26076889 -1.844296813 0.8357963562 
28.4788475 34.52482986 -1.842256784 0.8359624743 
15.2820158 24.5805912 -1.191418648 0.8905879855 
15.3125 34.03899002 -1.536384821 0.8612031937 
16.41496468 41.30903244 -1.829743028 0.8369805813 
8.26031971 40.69828415 -1.709426045 0.8468318582 
6.765153885 43.08638763 -1.795293093 0.8397888541 
0.9850390553 44.26114273 -1.822380066 0.8375800848 
-1.090981364 16.32116127 -0.6733289957 0.9366123676 
-3.773432493 33.7791214 -1.399099827 0.872779727 
-3.561513662 17.5474453 -0.7370333672 0.93082726 
-4.496039867 18.00253296 -0.7638272047 0.9284073114 
-12.61084461 42.37705994 -1.819975734 0.8377760649 
-12.9092865 37.23338318 -1.622146606 0.8540507555 
-9.716039658 24.45087433 -1.083026171 0.9000261426 
-13.65437984 19.92720604 -0.9943580627 0.9078212976 
-13.08641052 17.38598061 -0.8957369924 0.916570425 
-13.1228857 13.29919434 -0.7690778375 0.9279310107 
-14.07722664 13.05073738 -0.7901707292 0.9260293245 
-13.53005791 9.538784027 -0.6814343333 0.9358744025 
-12.76864719 8.176811218 -0.6241316199 0.9411045909 
-12.85389137 7.446620941 -0.6114829779 0.9422630072 
-17.68509293 7.30225563 -0.7875887156 0.9262619019 
-27.79520035 7.33735323 -1.183331013 0.8912888169 
-34.17932129 7.413398266 -1.439640522 0.8693454862 
-47.89453506 5.998393536 -1.986887932 0.8242855072 
-18.50981331 1.485805631 -0.7643707395 0.9283556938 
-14.74304199 -0.1311816424 -0.6068934202 0.9426836967 
-14.89144993 -1.462460876 -0.6159276962 0.9418558478 
-25.79586411 -4.878163815 -1.080655575 0.9002334476 
-31.32283592 -7.380068302 -1.324646831 0.8791224957 
-45.06309891 -17.21397972 -1.985666156 0.8243834376 
-40.88523483 -17.74014664 -1.834561825 0.8365881443 
-40.05773163 -19.54252815 -1.834661961 0.8365799785 
-39.15155029 -21.30641556 -1.834791064 0.8365696669 
-38.16822815 -23.02915955 -1.834945083 0.8365565538 
-19.35212326 -14.16575146 -0.9872059226 0.9084528089 
-15.26925278 -13.41590309 -0.8366712928 0.9218508005 
-13.97634697 -13.42746067 -0.7977941036 0.9253429174 
-8.883579254 -13.47295856 -0.6642938256 0.9374356866 
-7.262319088 -13.48743629 -0.6305506825 0.9405171871 
-5.090712547 -13.50684547 -0.5941631794 0.9438516498 
-3.57681632 -12.85205078 -0.5491365194 0.9479939342 
-3.192270517 -13.82399845 -0.5840139389 0.9447837472 
-2.551489115 -13.82971191 -0.5788810849 0.9452554584 
-1.297143579 -13.84092236 -0.5722308159 0.9458669424 
-0.05731689185 -12.88350105 -0.5303279161 0.9497294426 
1.797314405 -44.85762024 -1.847957373 0.8354986906 
5.783537388 -44.56700516 -1.849896312 0.8353411555 
7.115717411 -32.11500549 -1.354013443 0.8766154051 
6.455739498 -17.60152245 -0.7717275023 0.9276916981 
6.474684715 -15.48476505 -0.6908792257 0.9350152016 
6.490058422 -13.76667404 -0.6264950633 0.9408884048 
6.8223629 -12.94495583 -0.6023271084 0.9431023598 
9.921767235 -13.94118595 -0.7043561935 0.9337903261 
10.13046837 -12.97165489 -0.6774970889 0.9362331629 
11.10365963 -12.98322678 -0.7032225132 0.9338933825 
13.65925217 -13.35875416 -0.7864513993 0.9263641238 
14.94701672 -13.37026787 -0.825499475 0.9228529334 
17.96471405 -13.39724541 -0.9224739671 0.9141901135 
19.76375961 -13.41333485 -0.9832066298 0.9088061452 
21.82034111 -13.43171883 -1.054722309 0.9025070071 
42.75136566 -23.76071167 -2.01331687 0.8221698999 
44.71612549 -19.87694359 -2.014306784 0.8220900297 
47.56806564 -11.65530777 -2.015970945 0.8219575286 
48.04760742 -9.52959919 -2.016317844 0.8219299912 
48.4318924 -7.383852482 -2.016640186 0.8219037056 
48.71953964 -5.223095417 -2.016932726 0.8218800426 
48.90996933 -3.050866604 -2.017195463 0.8218592405 
49.00287628 -0.8724755645 -2.017426968 0.8218407631 
48.89535141 3.487348557 -2.017796516 0.8218114376 
48.69513702 5.659111023 -2.01793313 0.82180053 
22.29150009 3.601938486 -0.929487288 0.9135665894 
13.10620308 3.335329533 -0.5566888452 0.9472979903 
13.06784916 3.95217514 -0.5619750619 0.9468109012 
43.66819382 22.27454567 -2.017853737 0.8218064308 
30.33481789 17.21520805 -1.435737371 0.8696753383 
41.50849533 26.06298256 -2.01750803 0.8218343854 
20.8873539 15.86793423 -1.079756498 0.9003124237 
20.84330559 17.349617 -1.116312861 0.8971171975 
17.99868202 16.3906002 -1.002055049 0.9071419835 
28.7912159 34.27763748 -1.842661858 0.835929513 
15.27564907 24.08969116 -1.174165487 0.8920835853 
20.35910034 39.47837448 -1.828422189 0.8370881081 
16.78390503 41.1664238 -1.829966903 0.8369622231 
14.92733383 41.84721756 -1.828874826 0.8370512128 
11.13576126 42.95747375 -1.826711059 0.8372272253 
9.206203461 43.37530136 -1.825234771 0.8373473287 
6.757372856 40.66984177 -1.697045565 0.847851932 
5.310908318 43.9911499 -1.823958516 0.8374511003 
3.347541332 44.16532516 -1.823193789 0.8375133276 
-3.467192411 33.75715637 -1.39685905 0.8729701042 
-6.471372128 43.75228882 -1.820570588 0.8377270103 
-3.403290987 17.56832886 -0.7366114855 0.9308656454 
-4.238070965 17.63558578 -0.7466022372 0.9299614429 
-12.94317341 33.43589783 -1.47584486 0.866289556 
-13.05583477 26.46209335 -1.214617014 0.8885803223 
-13.03013134 23.69185448 -1.112995863 0.8974066377 
-13.17323685 16.26277733 -0.8614941835 0.9196281433 
-13.10960388 14.78745079 -0.8134587407 0.9239342809 
-13.12077618 13.53585911 -0.7759814858 0.9273081422 
-13.07194805 11.28060532 -0.7107362151 0.933210969 
-12.86913586 7.609184265 -0.6154064536 0.9419037104 
-13.79169369 7.347182274 -0.6432392597 0.9393571615 
-22.74282646 7.322592735 -0.9834922552 0.9087808132 
-27.22740173 7.447206974 -1.161931753 0.8931456208 
-32.86046219 7.434370041 -1.386823893 0.8738225698 
-48.07240677 4.28959465 -1.98667264 0.8243029714 
-14.65542412 0.6524950862 -0.6038600206 0.942961812 
-14.71342278 -4.882812391e-06 -0.7404447198 0.9427744746 
-14.7868309 -0.6584374905 -0.7448764443 0.9424420595 
-25.62453461 -3.441225529 -1.301116586 0.9016317129 
-25.57124519 -4.600224495 -1.307518244 0.9011725783 
-31.33091164 -7.088261604 -1.616557479 0.8792786002 
-31.53441429 -8.625366211 -1.645246983 0.8772734404 
-34.21738815 -12.723032 -1.83715415 0.8639764786 
-33.62439346 -14.23542404 -1.837533951 0.863950789 
-32.96073532 -15.7184515 -1.837689757 0.8639397621 
-31.44014549 -18.5898819 -1.838094473 0.8639119864 
-30.58625412 -19.97279739 -1.838342428 0.863894701 
-19.11629868 -13.73343754 -1.184539199 0.910035789 
-16.16381836 -12.73960876 -1.035715699 0.9208785295 
-15.29850578 -13.20216274 -1.016928434 0.9222562909 
-14.22522449 -13.42524338 -0.9843479991 0.9246508479 
-11.92018986 -13.44583988 -0.9042770267 0.9305620193 
-10.89890099 -13.45496082 -0.8713871837 0.9330008626 
-9.947500229 -13.46346664 -0.8424166441 0.9351544976 
-9.055620193 -13.47142029 -0.8168763518 0.9370572567 
-7.417153358 -13.48606873 -0.7745518088 0.9402188659 
-6.657041073 -13.49286079 -0.7571699619 0.9415206313 
-4.325912952 -12.84536076 -0.682107687 0.9471616745 
-3.700092793 -12.85095692 -0.6729911566 0.9478492737 
-2.678784132 -13.82858372 -0.7088541985 0.945147872 
-1.4214257 -13.83982849 -0.7001457214 0.9458030462 
1.144272447 -36.72370911 -1.848998189 0.8631626368 
5.94350338 -35.77220154 -1.824898005 0.8648199439 
6.818723202 -32.12637711 -1.652760983 0.8767491579 
6.451344967 -18.08579636 -0.9663274884 0.9259777069 
8.305107117 -13.09705544 -0.7804480791 0.9397778511 
9.979999542 -13.01619625 -0.8254161477 0.9364206195 
10.90367413 -12.98145962 -0.8531579971 0.9343554974 
12.26305389 -13.34628868 -0.9121189713 0.9299814105 
17.63111496 -13.39428234 -1.114279032 0.9151387215 
19.38506126 -13.40996552 -1.186213493 0.9099144936 
21.38536644 -13.42785168 -1.270769119 0.903811872 
35.60662842 -18.16243553 -2.011533976 0.8520691395 
36.38651276 -16.5638237 -2.011932135 0.8520421386 
37.09428787 -14.9316206 -2.012310266 0.8520165086 
38.28751373 -11.57951832 -2.012992144 0.8519704342 
38.77074814 -9.866437912 -2.013302326 0.8519492149 
39.50518417 -6.38322258 -2.013860941 0.851911366 
39.754776 -4.620109558 -2.014104605 0.8518950343 
39.92523956 -2.84739995 -2.014323473 0.851880312 
40.01631546 -1.06865716 -2.014517546 0.8518669009 
40.02759552 0.7125439048 -2.014686346 0.8518554568 
39.95906448 2.492590189 -2.014829159 0.8518459201 
12.53412819 3.669335842 -0.657247901 0.9490376115 
22.64015579 8.880044937 -1.223861337 0.9071925282 
30.31964684 16.8515625 -1.745654702 0.8702911139 
20.87187386 17.06119728 -1.356635094 0.897656858 
18.02675819 16.12516594 -1.217169881 0.9076755643 
18.08360863 17.68565941 -1.27291882 0.9036573172 
17.8934269 19.12945747 -1.31818676 0.9004078507 
23.83467293 27.86914444 -1.845462561 0.8634056449 
15.5514307 21.85139084 -1.34972012 0.8981509805 
15.32258224 26.1795311 -1.526539922 0.8856004477 
17.03025627 32.31394577 -1.838204622 0.863904655 
15.56762409 33.0218544 -1.837221026 0.8639722466 
14.07590103 33.66403198 -1.836255312 0.8640384078 
11.01677513 34.74589539 -1.834357977 0.8641690016 
4.682595253 36.08455658 -1.831164002 0.8643887639 
3.071669817 36.24437714 -1.830520749 0.8644331098 
1.455898404 36.33370209 -1.829941988 0.8644727468 
-0.07938964665 17.83848763 -0.8977206945 0.9310474992 
-3.390571117 36.17767334 -1.828602433 0.8645650148 
-3.145864248 17.05114174 -0.8725717068 0.9329128861 
-3.919853449 16.97487259 -0.8767329454 0.9326040745 
-9.738032341 34.9897728 -1.827765465 0.8646225333 
-11.28346634 34.5177002 -1.827542543 0.8646380305 
-13.00111294 26.95326614 -1.50596261 0.8870520592 
-13.08065891 18.03772354 -1.121305704 0.9146273136 
-13.09470654 16.4631443 -1.0586164 0.9192015529 
-13.10729504 15.05263138 -1.004454494 0.9231725335 
-13.57951641 13.04626942 -0.9476649165 0.9273543358 
-13.07017517 11.48368168 -0.8755640984 0.93269068 
-13.22327137 9.67936039 -0.8246849775 0.9364750981 
-13.35050774 7.26540041 -0.7649034858 0.9409412146 
-14.7164011 7.179443359 -0.824029088 0.9365241528 
-22.25681496 7.385287762 -1.180113673 0.9103563428 
-25.86873436 7.323691368 -1.352998972 0.8979167342 
-35.8950882 6.787787914 -1.838412285 0.8638899326 
-39.34291458 3.863872051 -1.989437103 0.8535690308 
-14.62605953 0.7817382812 -0.7371003628 0.943025589 
-14.84616184 -1.19169426 -0.749527514 0.9420931935 
-31.35328484 -6.800590515 -1.614530921 0.8794208169 
-31.30685997 -8.264345169 -1.629473329 0.8783755302 
-34.32901764 -12.41790962 -1.837146401 0.8639773726 
-33.74931717 -13.93545341 -1.837506533 0.8639523983 
-32.38299561 -16.88296318 -1.837836981 0.8639296889 
-31.60355377 -18.30891037 -1.838048458 0.8639150858 
-16.459692 -12.73696232 -1.047367573 0.9200249314 
-14.47882271 -13.4229784 -0.9935917258 0.9239709377 
-13.2557373 -13.43391037 -0.9497652054 0.9271991253 
-12.13388634 -13.44393063 -0.9113749266 0.9300364852 
-11.0972023 -13.45318794 -0.8776333928 0.9325371385 
-10.13271427 -13.46181107 -0.8479217291 0.9347448349 
-9.229667664 -13.46987247 -0.8217284083 0.9366953373 
-4.453183651 -12.84422779 -0.6841275096 0.9470096231 
-3.823930502 -12.84985828 -0.6746881008 0.9477211833 
-3.282446146 -13.14298344 -0.6817287803 0.9471902847 
-2.806464672 -13.82745552 -0.7100476027 0.9450579882 
-2.172026396 -13.83311462 -0.7046725154 0.9454622865 
-1.545888662 -13.83872032 -0.7007588148 0.9457569718 
-0.9254443049 -13.84426212 -0.6982603073 0.9459449649 
-0.2866430581 -12.88146496 -0.648414135 0.9497050047 
0.8173339367 -36.7298584 -1.848871827 0.8631715775 
2.45126462 -36.66969299 -1.84950316 0.8631281257 
5.705688477 -36.33813095 -1.851100326 0.8630181551 
6.517104149 -32.10968018 -1.648844123 0.8770218492 
6.384421349 -25.56336403 -1.325978994 0.8998496532 
6.446796894 -18.5943203 -0.9903963804 0.9242058992 
7.365498066 -13.11436939 -0.7569383979 0.9415377378 
8.144526482 -13.10018063 -0.7762838602 0.940089345 
9.55036068 -13.93788528 -0.8502838016 0.9345693588 
9.797421455 -13.01634693 -0.8198648095 0.9368344545 
10.70664787 -12.97969246 -0.8467468619 0.9348323941 
12.04400635 -13.34433556 -0.9046227336 0.9305362701 
13.17736816 -13.35446739 -0.944150269 0.927613616 
14.41688156 -13.36555099 -0.9893398285 0.9242835641 
22.58803749 -13.08592224 -1.313708663 0.9007285237 
36.23619461 -16.88629913 -2.011853933 0.8520476818 
36.95853043 -15.26058102 -2.012236357 0.8520216942 
37.60758591 -13.60386181 -2.012596607 0.8519970179 
39.10191727 -8.481291771 -2.013537169 0.8519331813 
39.71113586 -4.973603249 -2.014057636 0.8518983126 
40.00497818 -1.425275803 -2.014481068 0.8518676758 
40.03168488 0.3562963903 -2.014654636 0.8518577218 
39.8469429 3.913388491 -2.014924765 0.8518393636 
39.6353302 5.682321548 -2.015020609 0.8518328071 
39.34472275 7.440077782 -2.015091181 0.8518279791 
12.54407978 3.551357269 -0.6560868621 0.9491253495 
12.68200207 4.208154202 -0.6724337339 0.947891295 
23.23181152 8.874365807 -1.251525402 0.905197382 
36.73213959 15.93809319 -2.015038252 0.8518317342 
35.98525238 17.5555687 -2.014946938 0.8518375754 
24.08635139 27.66116905 -1.845816612 0.8633815646 
22.81027031 28.67787361 -1.844055533 0.8635024428 
15.29861259 23.20204735 -1.398608327 0.8946633339 
15.27478027 25.57302666 -1.499044061 0.8875405788 
17.31889534 32.16427612 -1.838386536 0.8638921976 
15.86259937 32.88550568 -1.837420821 0.863958776 
14.37638855 33.54084778 -1.83644402 0.8640255928 
11.32668877 34.64990234 -1.834542751 0.8641564846 
6.604933739 35.79991913 -1.832019567 0.8643299341 
5.003923416 36.04413605 -1.831300259 0.864379406 
1.779296875 36.32152939 -1.830052495 0.8644650578 
0.08619384468 19.37079239 -0.9748359323 0.9253511429 
-0.6539111137 16.3192482 -0.8219165802 0.9366814494 
-4.675400257 36.02902603 -1.828347683 0.8645826578 
-2.993457079 17.07542038 -0.872416079 0.9329244494 
-3.76006341 16.97043419 -0.8747386932 0.9327519536 
-9.686830521 30.55132294 -1.612914085 0.8795338869 
-14.00611305 33.49710464 -1.82715261 0.864664793 
-13.04276848 22.28429222 -1.299406052 0.9017543793 
-13.06138134 20.19790459 -1.210463285 0.9081602097 
-13.11648941 14.02254868 -0.9662767649 0.92598176 
-13.33762169 13.04411125 -0.9388467669 0.9280052781 
-13.08558083 9.758612633 -0.8214812875 0.9367138743 
-14.13221645 9.591382027 -0.8595229983 0.9338821769 
-12.78640079 7.870771408 -0.755607307 0.9416375756 
-18.76935577 7.361830711 -1.014616132 0.9224261045 
-25.15260124 7.363358974 -1.318918109 0.9003554583 
-30.41408157 7.452211857 -1.575848222 0.8821319938 
-36.11019135 5.505371094 -1.838224888 0.8639030457 
-39.30790329 4.213930607 -1.989480734 0.8535658121 
-27.13047791 -3.152983427 -1.374516845 0.8963802457 
-25.49946213 -4.120185375 -1.299892902 0.901719749 
-31.62859726 -6.56611824 -1.625628829 0.8786440492 
-31.30578041 -7.966747761 -1.625665545 0.8786419034 
-34.94235611 -10.5678463 -1.837119579 0.8639792204 
-30.05264091 -13.68053722 -1.661715627 0.8761245608 
-32.53126907 -16.59374428 -1.837798476 0.8639323711 
-30.04474068 -20.78401375 -1.838505626 0.8638837934 
-18.69369125 -14.20153809 -1.181432962 0.9102607965 
-15.31412029 -12.74720192 -1.002724648 0.9232994914 
-13.49169445 -13.43180656 -0.9580702186 0.926586628 
-12.35097122 -13.44199181 -0.9186581373 0.9294974804 
-6.956967831 -13.49019051 -0.7638468146 0.9410203099 
-6.216640472 -13.49680614 -0.747806251 0.9422223568 
-4.818867207 -13.50928688 -0.7218063474 0.9441741109 
-2.934584856 -13.82631302 -0.7113015652 0.9449636936 
-2.298159122 -13.83199215 -0.7056295872 0.9453902841 
-1.049204111 -13.84314919 -0.6986471415 0.9459158182 
-0.401247561 -12.87754631 -0.6483711004 0.9497082829 
2.124658108 -36.68772888 -1.849380016 0.8631361723 
3.756113291 -36.57178116 -1.850138187 0.8630844355 
7.71901083 -32.12043381 -1.662469268 0.8760721087 
6.413840294 -22.27622032 -1.166579366 0.9113373756 
6.463774204 -16.69789505 -0.9010747075 0.930799067 
7.214125633 -13.11693287 -0.7533521056 0.9418066144 
7.985620022 -13.10320282 -0.7722210288 0.9403933287 
9.368083 -13.93624973 -0.845061779 0.9349576235 
10.51251698 -12.97795868 -0.8404942155 0.9352975488 
11.82851982 -13.34240723 -0.8973194957 0.9310772419 
14.15953064 -13.36324692 -0.9798013568 0.9249854088 
20.55194283 -13.42040539 -1.235246897 0.9063706994 
35.27479935 -18.79179192 -2.011369228 0.8520803452 
36.08310318 -17.20744514 -2.011775255 0.8520528674 
28.72170067 -12.15979481 -1.569602728 0.8825704455 
38.07295609 -12.25838566 -2.012863159 0.8519790173 
38.58647156 -10.55422592 -2.013179541 0.8519581556 
39.02368927 -8.828644753 -2.013479948 0.8519374132 
39.38314438 -7.084953308 -2.01375699 0.8519188762 
39.6643486 -5.326718807 -2.014010191 0.8519015908 
39.98951721 -1.780634761 -2.014442921 0.8518718481 
40.03260422 -4.882812391e-06 -2.014621973 0.8518599868 
39.87971497 3.55859375 -2.014902353 0.8518410325 
12.61599541 4.061982155 -0.6669905186 0.948301971 
37.53187943 13.95542717 -2.015112877 0.851826489 
36.14041519 17.23476219 -2.014967203 0.8518362641 
30.31534576 16.14974022 -1.728580594 0.8714744449 
31.0314064 20.26345062 -1.865096688 0.862057209 
22.02071762 15.81999493 -1.364510417 0.8970942497 
18.7400589 16.1721096 -1.245697498 0.9056171775 
17.85767365 16.85339165 -1.235702157 0.9063378572 
18.01468277 18.58472443 -1.302539945 0.9015296698 
24.33625984 27.45104218 -1.846171379 0.8633570075 
15.26592731 22.71005821 -1.377085209 0.896197021 
15.27696228 25.06724739 -1.477303386 0.8890773058 
16.15645409 32.74675369 -1.837622285 0.8639444709 
14.63557625 33.32328415 -1.831589103 0.8643593192 
10.0822897 35.01730347 -1.83381772 0.8642061353 
8.234484673 34.26542282 -1.773486733 0.8683657646 
5.324890137 36.00093079 -1.831439137 0.86436975 
0.4853417873 36.35330582 -1.829626083 0.8644946218 
-1.237856388 16.33222198 -0.8242689371 0.9365061522 
-4.354682446 36.07040787 -1.828407288 0.8645784855 
-3.604472637 16.98240662 -0.8736695051 0.9328314662 
-10.66796875 34.71507645 -1.827640057 0.8646306992 
-9.718471527 23.836586 -1.295434356 0.9020396471 
-12.98997021 28.20215797 -1.562572002 0.8830644488 
-13.01639652 25.23992538 -1.42914331 0.8924916387 
-13.0578661 20.59204483 -1.227071404 0.9069606662 
-13.0745554 18.72159195 -1.149167418 0.9126014709 
-13.08928204 17.07139206 -1.082577109 0.9174506664 
-13.10242176 15.59919357 -1.025199294 0.9216496348 
-13.12501907 13.06675243 -0.9320523143 0.9285087585 
-13.06646442 11.89916515 -0.8893681765 0.9316667914 
-13.07553196 10.88379383 -0.8561471105 0.934133172 
-13.86155701 9.588964462 -0.8482186198 0.9347227216 
-12.81300259 7.27141571 -0.741406858 0.9427024722 
-14.08726025 7.18568325 -0.7958367467 0.9386277199 
-15.79887199 7.191914082 -0.8735741377 0.9328386188 
-18.62075615 7.495449066 -1.010150075 0.9227541089 
-21.12183952 7.428520203 -1.126767993 0.9142295122 
-29.11402702 7.408945084 -1.511848211 0.886636734 
-35.04454422 7.275253773 -1.801205754 0.8664523363 
-36.06061554 5.826625824 -1.838270545 0.8639000654 
-14.77390099 1.053652287 -0.7453779578 0.9424045086 
-14.66966724 0.3917626739 -0.738507092 0.9429199696 
-14.81642056 -0.9242431521 -0.747077167 0.9422769547 
-25.51474953 -3.889995098 -1.298853159 0.9017941952 
-33.52865601 -6.649907112 -1.720181227 0.8720573783 
-31.30121422 -7.669623852 -1.621814847 0.8789108992 
-35.66844177 -10.44185543 -1.870331883 0.8616984487 
-33.98584366 -13.33011246 -1.837172866 0.8639753461 
-31.92287064 -17.74264526 -1.837960362 0.8639212251 
-31.1059761 -19.14757347 -1.838190079 0.8639051318 
-30.22761726 -20.51516151 -1.838449955 0.8638876081 
-13.73179626 -13.42965794 -0.9665930867 0.9259582162 
-10.51057148 -13.45843697 -0.8593581915 0.9338944554 
-9.584125519 -13.46670914 -0.8318148851 0.9359439611 
-8.713540077 -13.47447205 -0.8075276017 0.9377547503 
-7.890766621 -13.48183537 -0.7861326933 0.9393528104 
-7.108959675 -13.48882771 -0.7673221231 0.940760076 
-6.362241268 -13.49550247 -0.7508422732 0.9419947863 
-4.954379559 -13.50806618 -0.7240664363 0.9440041184 
-4.073544979 -12.84762192 -0.6782702208 0.947451055 
-0.5548583865 -13.84757328 -0.6974311471 0.9460073709 
0.05734863132 -12.88454056 -0.6484130621 0.9497050047 
3.430205107 -36.60055923 -1.849978924 0.8630955219 
5.05713129 -36.42754364 -1.850778461 0.8630403876 
7.416633129 -32.11772537 -1.658828259 0.8763247132 
6.436970234 -19.69153214 -1.042569399 0.9203763604 
6.477961063 -15.11336422 -0.8274947405 0.9362657666 
6.492753983 -13.46044445 -0.7520760894 0.9419022202 
7.828286171 -13.10613728 -0.7682569623 0.9406900406 
11.61645985 -13.34051228 -0.8902027011 0.9316046238 
12.71233368 -13.35030746 -0.9277108312 0.928828001 
15.22019768 -13.3727293 -1.019596815 0.9220607281 
16.67619324 -13.38574696 -1.076137543 0.9179208875 
20.15237236 -13.41683102 -1.218360305 0.9075896144 
35.92709732 -17.52716255 -2.011695623 0.8520584106 
36.67835236 -15.91476059 -2.012085915 0.852031827 
37.35684967 -14.27004337 -2.012455702 0.8520067334 
37.96111298 -12.59630585 -2.012797594 0.8519834876 
39.31759644 -7.435019493 -2.013703346 0.8519220948 
39.97122574 -2.136386633 -2.014404058 0.8518747687 
40.03043365 -0.3562573195 -2.014588356 0.8518620133 
39.72951508 4.975888729 -2.014985561 0.8518351316 
22.13975143 3.779785156 -1.130292296 0.9139732122 
12.59109116 3.323793888 -0.6553466916 0.9491811991 
12.54286385 3.915595531 -0.6612554789 0.9487348795 
37.6546669 13.62092209 -2.01512146 0.8518261909 
37.01053238 15.28202248 -2.015067339 0.8518297672 
32.79978561 17.10023117 -1.861492515 0.8623048663 
31.20393562 19.98225021 -1.864708781 0.8620842099 
20.9537487 16.21461105 -1.333336473 0.8993228078 
