# .PCD v0.7 - Point Cloud Data file format
VERSION 0.7
FIELDS x y z intensities
SIZE 4 4 4 4
TYPE F F F F
COUNT 1 1 1 1
WIDTH 917
HEIGHT 1
VIEWPOINT 0 0 0 1 0 0 0
POINTS 917
DATA ascii
3.060239077 -13.81188488 -0.4528207183 0.9449565411 
3.716577053 -13.82943344 -0.458368063 0.9443014264 
5.085673809 -13.8660593 -0.4727442861 0.9426055551 
5.805869102 -13.88531685 -0.4817381203 0.9415462017 
10.17899895 -14.3025732 -0.5619090199 0.9321554303 
11.4956007 -13.44144058 -0.5661256313 0.9316638112 
18.41893196 -13.73599052 -0.7354560494 0.9121467471 
20.24037743 -13.73692608 -0.7829856873 0.9067422748 
22.1827507 -13.65480232 -0.8337782025 0.9010021091 
25.35539818 -14.09245586 -0.9285216928 0.8903920054 
28.40957642 -14.17414474 -1.016246796 0.8806792498 
32.10931015 -14.2730999 -1.124741077 0.8688134551 
59.16838837 -20.21961784 -2.001428366 0.7786143422 
59.74402237 -17.48991203 -1.992582679 0.779475987 
61.81311417 -9.424057007 -2.001414061 0.7786157131 
62.17116928 -6.665063381 -2.001415014 0.7786156535 
62.51755905 -1.112883329 -2.001416683 0.7786154747 
61.23055649 9.893576622 -1.985323787 0.7801836729 
60.59649277 15.42060661 -2.001428366 0.7786143422 
59.85054398 18.10083771 -2.001428366 0.7786144018 
58.98606491 20.74546432 -2.001428366 0.7786143422 
33.17618561 15.10243416 -1.166774988 0.8642593622 
52.95440292 33.24998474 -2.001428366 0.7786143422 
27.9552803 21.23746109 -1.123742223 0.8689224124 
27.85707855 23.18776894 -1.16014719 0.8649758697 
40.35292053 40.17376328 -1.822605133 0.7962189317 
38.48015594 41.87927628 -1.820441365 0.7964343429 
28.07131767 33.42055893 -1.397033334 0.8397327662 
8.904174805 17.26602554 -0.621825695 0.925198555 
11.66332531 54.95147705 -1.798101783 0.7986619473 
6.759975433 55.99420929 -1.805310488 0.7979425192 
4.262070179 56.23441315 -1.805147409 0.7979587913 
-0.3578564227 26.80357361 -0.8580213189 0.8982752562 
-0.7398681641 12.77545357 -0.4096096754 0.950075686 
-1.809892535 9.343139648 -0.3046202064 0.9626293778 
-2.236694336 9.307304382 -0.3063955605 0.9624157548 
-2.683242083 9.319252968 -0.3104144335 0.9619322419 
-9.020298004 20.53805542 -0.7180047631 0.9141392112 
-9.637177467 13.0434227 -0.5191046 0.9371582866 
-10.62539482 11.98528767 -0.5126835704 0.9379101992 
-9.90205574 10.21538067 -0.4553826749 0.9446538091 
-10.20095634 9.627280235 -0.4489687979 0.9454115629 
-11.18653774 9.653647423 -0.4729605019 0.9425800443 
-12.34856415 9.732602119 -0.5032688975 0.9390149117 
-11.03415489 7.927128792 -0.4348832667 0.9470781088 
-12.88242626 7.61708498 -0.4790360928 0.9418642521 
-18.16135216 7.688871861 -0.6312695146 0.9241064191 
-20.16581917 7.498212814 -0.6886552572 0.9174997211 
-23.22695732 7.478417873 -0.7810470462 0.9069619775 
-47.19831467 10.67797375 -1.548946142 0.8239350319 
-57.25218964 7.68860817 -1.849013209 0.7935942411 
-62.27993393 5.557377815 -2.001413107 0.7786157131 
-62.46546173 2.781459808 -2.001413107 0.7786158323 
-62.46546173 -2.781430483 -2.001413107 0.7786158323 
-61.97103882 -8.322319031 -2.001413107 0.7786157727 
-57.29766846 -10.30781746 -1.863459945 0.7921621799 
-53.61739731 -14.66554165 -1.779259443 0.8005458713 
-49.72637177 -16.01046371 -1.672136545 0.8113399148 
-49.56682968 -18.43038559 -1.692692399 0.8092575669 
-26.05052185 -12.42306614 -0.9238023758 0.89091748 
-49.55429077 -26.39877319 -1.79719758 0.7987523079 
-45.25838089 -39.05665588 -1.913499355 0.7872214913 
-43.51994705 -44.89704514 -2.001428366 0.7786143422 
-39.35728073 -48.58739471 -2.001428366 0.7786143422 
-22.77565384 -33.88183212 -1.306761742 0.8492641449 
-8.793354034 -15.98830986 -0.5840576291 0.9295776486 
-7.900033951 -16.01219749 -0.5715138316 0.9310367107 
-7.042622089 -16.03513718 -0.5605839491 0.932309866 
-3.731957912 -12.96167946 -0.4317404032 0.9474505186 
-2.645976543 -13.65926266 -0.4453416467 0.9458405972 
-2.022797823 -13.67593193 -0.4425099194 0.9461755157 
-0.793915987 -13.70879364 -0.4395349026 0.9465275407 
-0.1832421869 -13.72513676 -0.4393612444 0.9465480447 
0.4281640649 -13.74147892 -0.440059185 0.9464654922 
2.930805683 -13.80841732 -0.4518345594 0.9450731277 
4.254199028 -13.84381294 -0.4635720849 0.9436871409 
7.179716587 -13.92207527 -0.5013949275 0.939234972 
7.606156826 -13.26494122 -0.4894431829 0.9406397939 
8.42548275 -13.28687477 -0.5035955906 0.9389767647 
11.48925304 -13.67861748 -0.5717861652 0.9310047626 
18.25492859 -19.86748505 -0.8636153936 0.897647202 
18.29905891 -18.21783638 -0.8265072703 0.9018216133 
21.79853249 -13.68726254 -0.8238826394 0.90211761 
24.80649567 -14.07777309 -0.9129725695 0.8921247125 
27.7533493 -14.15658665 -0.9972399473 0.8827746511 
58.98610687 -20.7451458 -2.001428366 0.778614521 
59.83073425 -15.22577095 -1.976136446 0.7810803652 
62.36901093 -4.448095798 -2.00141573 0.7786155939 
62.40623856 3.892870903 -2.001418829 0.7786152363 
61.21479416 9.332841873 -1.982041001 0.7805039287 
32.92842102 8.068315506 -1.085171342 0.8731225133 
58.21034622 22.83169556 -2.001428366 0.7786143422 
30.83418846 15.38385201 -1.102979302 0.8711806536 
30.56249046 16.98654938 -1.119206786 0.8694148064 
28.40021896 21.17953873 -1.134000778 0.8678081036 
27.84778214 22.76346207 -1.151275277 0.8659358621 
40.71866226 39.82272339 -1.823045969 0.7961750627 
38.86044693 41.54492188 -1.820868611 0.7963918447 
28.13861465 36.03050613 -1.463314176 0.8328024149 
11.12657166 17.20594215 -0.6558611989 0.9212697148 
11.19126415 19.12093163 -0.7091584802 0.9151508808 
9.111616135 17.28874016 -0.6255392432 0.9247689843 
8.211591721 17.41837311 -0.6163879037 0.9258276224 
21.44915771 51.29803467 -1.779735804 0.8004982471 
12.08746529 32.95636749 -1.123601794 0.868937254 
11.28315449 35.5860939 -1.194945812 0.8612205982 
9.576107979 54.6236496 -1.775090575 0.8009631038 
7.258300781 55.93325043 -1.805356383 0.7979379296 
4.762553692 56.19498444 -1.805171132 0.7979564071 
2.257963896 56.34890366 -1.805096984 0.797963798 
-0.8826318383 9.417934418 -0.3027758598 0.9628514051 
-1.288608313 9.28194809 -0.2999522388 0.9631914496 
-1.723364234 9.340825081 -0.304032743 0.962700069 
-2.14872551 9.304955482 -0.3056764007 0.9625022411 
-2.592993021 9.316840172 -0.309553057 0.9620358348 
-9.219878197 28.20482445 -0.9498079419 0.888025403 
-9.313344955 24.71016502 -0.8452515006 0.899710536 
-9.066860199 18.79694748 -0.6680014133 0.9198722243 
-9.581244469 17.79405785 -0.6468816996 0.9223044515 
-9.69789505 16.23620605 -0.6053463817 0.9271066189 
-9.665058136 14.65813923 -0.561999023 0.9321449399 
-9.671894073 13.33718681 -0.5273420811 0.9361928105 
-9.711220741 12.20930672 -0.4993495047 0.9394751787 
-9.893144608 10.38967228 -0.4592082202 0.9442021251 
-12.34386158 9.908198357 -0.5066500902 0.9386180043 
-12.49064922 7.536230087 -0.4669424295 0.9432894588 
-15.43069267 7.527890682 -0.5495556593 0.9335961938 
-17.142519 7.438124657 -0.5981329083 0.9279429913 
-19.69908714 7.524887562 -0.674977541 0.9190702438 
-22.85512161 7.583808422 -0.7707821727 0.9081267118 
-47.18832397 11.11815929 -1.551789522 0.8236405849 
-55.27635193 7.924789906 -1.787409186 0.7997304201 
-62.43821716 3.337348461 -2.001413107 0.7786158323 
-62.48774719 -2.225580931 -2.001413107 0.7786157727 
-62.32688904 -5.003051758 -2.001413107 0.7786157727 
-62.04264069 -7.770629883 -2.001413107 0.7786157727 
-60.2707634 -10.28982925 -1.957098365 0.7829420567 
-56.45342255 -12.24491692 -1.849013209 0.7935943007 
-55.66155624 -14.69355965 -1.842680335 0.7942228913 
-49.67975998 -15.50890064 -1.665859938 0.8119766712 
-49.41178131 -20.40265083 -1.711125731 0.8073945642 
-49.41909409 -23.02962303 -1.745161533 0.8039659858 
-49.63153839 -28.75303078 -1.835973501 0.7948892117 
-45.37283707 -38.45613861 -1.903790951 0.788177669 
-39.78798294 -48.23532486 -2.001428366 0.7786143422 
-8.976830482 -15.98340321 -0.5867733359 0.929262042 
-7.211484432 -16.03062057 -0.5626471043 0.9320693612 
-4.486918926 -12.94148922 -0.4384297132 0.9466583133 
-3.856235266 -12.95834923 -0.4327549636 0.9473302364 
-2.146840811 -13.67262173 -0.4430032372 0.9461171031 
-1.529199243 -13.68913078 -0.4408953786 0.9463665485 
-0.9161962867 -13.70552254 -0.4396739006 0.9465110898 
-0.3053222597 -13.7218647 -0.4393264651 0.946552217 
0.3057372868 -13.73821735 -0.4398497045 0.9464902282 
2.164946318 -13.7879343 -0.4467399418 0.9456752539 
2.801923752 -13.80497074 -0.4508877397 0.9451849461 
4.804868221 -13.85854912 -0.4694976807 0.9429882169 
5.514506817 -13.87754345 -0.4779861271 0.9419879317 
6.251777172 -13.89725113 -0.4877697527 0.94083637 
7.021410942 -13.91784668 -0.4989717007 0.9395195842 
7.459863186 -13.28240681 -0.4876161218 0.9408544302 
11.4827776 -13.92064953 -0.5776100159 0.9303272963 
18.29053497 -18.53628349 -0.8335381746 0.9010291696 
21.46276093 -13.74425507 -0.8157827854 0.9030316472 
30.53840256 -14.23108387 -1.078418136 0.8738600016 
33.88219833 -13.99033642 -1.173338056 0.8635504842 
58.7991066 -21.26955605 -2.001428366 0.7786143422 
59.78472137 -15.78198242 -1.979178309 0.7807834148 
60.69453049 -13.16482925 -1.987921834 0.7799302936 
62.04269409 -7.770327091 -2.001414537 0.7786157131 
62.32697296 -5.002778053 -2.001415253 0.7786155939 
62.48785019 -2.225292921 -2.001416445 0.7786154747 
62.4384079 3.337341309 -2.001418591 0.7786152363 
61.22946167 8.778256416 -1.979908705 0.7807121277 
58.41126251 22.31265831 -2.001428366 0.7786143422 
31.38597679 15.31176281 -1.117796779 0.8695681095 
30.54577255 16.623106 -1.113132 0.8700754642 
30.38285637 18.33155251 -1.135815501 0.867611289 
27.89427376 24.50850105 -1.188531041 0.8619115949 
39.23789978 41.20716858 -1.821298599 0.796348989 
11.48259258 15.83405685 -0.6260656714 0.9247078896 
11.03972149 18.48272514 -0.6891046166 0.9174482822 
8.186972618 19.10056114 -0.6651769876 0.9201971292 
12.4249897 32.96592331 -1.127653837 0.8684971333 
9.345346451 33.57867432 -1.115656137 0.8698009253 
8.483188629 36.7360611 -1.206814408 0.8599435687 
10.06092262 54.53630829 -1.775090575 0.800963521 
7.75589323 55.86801147 -1.805406809 0.7979329228 
-1.204204082 9.279686928 -0.2995202541 0.9632434249 
-1.637123942 9.338515282 -0.3034712076 0.9627676606 
-2.071669817 9.350136757 -0.3065434098 0.9623979926 
-2.503207922 9.314433098 -0.3087207079 0.9621359706 
-2.957138538 9.326577187 -0.3131771684 0.9616000652 
-9.296332359 25.34638596 -0.8641500473 0.8975871801 
-9.493286133 18.01301765 -0.6517434716 0.921743989 
-6.071879864 10.37419891 -0.3847585917 0.9530322552 
-10.54949188 14.82309055 -0.582359314 0.9297749996 
-10.52584457 12.30749035 -0.5183692575 0.9372437596 
-12.33910656 10.08628368 -0.5101197958 0.9382109046 
-10.51404762 7.840898037 -0.4198193252 0.9488636255 
-11.31200695 7.677333832 -0.4375953674 0.9467568398 
-12.64127445 7.781430721 -0.4751440287 0.9423226714 
-15.03701591 7.502270222 -0.5378921628 0.9349586368 
-16.77456474 7.456606388 -0.5875883102 0.9291673303 
-26.25390053 7.685839653 -0.8756195903 0.8963007927 
-52.01878357 7.930707932 -1.684287667 0.8101083636 
-62.51745605 1.112836838 -2.001413107 0.7786157727 
-62.36894989 -4.448071003 -2.001413107 0.7786157727 
-61.72679138 -9.973773956 -2.001413107 0.7786157727 
-49.40645981 -14.94227028 -1.652171731 0.8133676648 
-49.57820511 -17.43657684 -1.682213545 0.8103185296 
-49.63371658 -22.59406662 -1.745568514 0.8039250374 
-49.5024147 -25.25063896 -1.778734446 0.8005983233 
-47.0116539 -29.51868629 -1.776822805 0.8007897139 
-47.50722122 -32.864048 -1.849028468 0.7935928106 
-18.08507729 -13.73918438 -0.7269794941 0.9131140113 
-45.4761467 -37.85361862 -1.893918514 0.7891511321 
-44.87927246 -40.86993408 -1.942924738 0.7843305469 
-40.21577454 -47.87925339 -2.001428366 0.7786142826 
-38.04612732 -49.62076569 -2.001428366 0.7786144018 
-23.32789993 -33.40342712 -1.304121733 0.8495445848 
-9.162089348 -15.9784565 -0.5895622373 0.9289380312 
-8.252753258 -16.00276756 -0.5763296485 0.9304762483 
-7.381655216 -16.02606392 -0.564771235 0.9318218827 
-6.543188095 -16.04848671 -0.5547445416 0.9329907894 
-3.981049776 -12.95501423 -0.433809489 0.9472053647 
-2.271113157 -13.66929626 -0.4435327053 0.9460544586 
-1.652236342 -13.68584442 -0.4412455559 0.9463251233 
-1.03851068 -13.70226002 -0.4398481548 0.9464904666 
-0.4274462759 -13.71859837 -0.4393264651 0.946552217 
2.038867235 -13.78456974 -0.4460249245 0.9457597733 
2.673535109 -13.80153751 -0.4499803185 0.9452921748 
3.983857393 -13.83659172 -0.4608822465 0.9440045357 
6.101933479 -13.89325619 -0.4857044816 0.9410793185 
8.092133522 -13.27793884 -0.4977191091 0.9396669269 
11.47617626 -14.16757298 -0.5835972428 0.9296312928 
18.28186798 -18.86036491 -0.8407606483 0.9002159238 
18.32378578 -17.29331589 -0.8064771891 0.9040829539 
18.36248779 -15.84626389 -0.7763556242 0.907494247 
18.88396835 -13.56656265 -0.7442643642 0.9111427665 
23.76173019 -14.04982853 -0.8835866451 0.8954085112 
26.51152611 -14.12337589 -0.9615005255 0.8867281675 
29.80029488 -14.21134758 -1.056778312 0.8762275577 
33.82176208 -14.31890106 -1.175610304 0.8633051515 
58.60754776 -21.79187012 -2.001428366 0.7786143422 
40.64681625 -13.08699703 -1.366820335 0.8429107666 
59.77124405 -16.34862709 -1.983469248 0.7803646326 
61.53948212 -11.07085705 -2.001413584 0.7786157727 
62.27996063 -5.557390213 -2.001415253 0.7786156535 
62.52747726 0 -2.00141716 0.7786154747 
62.28013611 5.557397366 -2.001421213 0.7786150575 
61.3116188 8.233751297 -1.980116367 0.7806918025 
60.98657227 13.79739761 -2.001428366 0.7786143422 
42.66707993 11.67028999 -1.415880561 0.8377563953 
59.51883698 19.16335297 -2.001428366 0.7786144018 
58.60746002 21.79208183 -2.001428366 0.7786143422 
33.21081924 15.83776665 -1.177722931 0.8630772233 
30.36144066 16.17433739 -1.101126552 0.8713824153 
30.40975189 17.98067665 -1.13079536 0.8681560159 
50.78160858 36.4822998 -2.001428366 0.7786143422 
27.84832954 21.94882584 -1.134965539 0.8677034974 
41.44127274 39.11069489 -1.823935866 0.7960864902 
11.70000935 15.83534622 -0.6302105784 0.9242289066 
11.01859856 18.0798378 -0.6777136326 0.9187558889 
19.5219841 35.49560165 -1.296662927 0.8503372073 
8.53309536 17.29541016 -0.6173138022 0.9257204533 
8.185390472 18.6371727 -0.6515493393 0.9217662811 
12.79741669 33.05976868 -1.134713411 0.8677307963 
9.665453911 33.56966782 -1.118169785 0.8695275784 
8.253129959 55.79844666 -1.805461526 0.7979274988 
0.7528222203 56.38938522 -1.805105805 0.797962904 
-0.578325212 18.56066322 -0.5943892002 0.9283776283 
-1.98402822 9.347792625 -0.3058750927 0.9624783993 
-9.144501686 22.42873955 -0.7752892375 0.9076152444 
-9.190146446 19.95242119 -0.7031393051 0.9158397913 
-9.483232498 18.38876915 -0.6622599363 0.9205328226 
-9.554349899 16.66251945 -0.6148028374 0.9260110855 
-9.635302544 15.19471645 -0.5759043694 0.9305257201 
-10.54220676 15.09549236 -0.5893514752 0.9289625883 
-9.985024452 13.02273369 -0.525265038 0.9364359379 
-9.715551376 9.672426224 -0.438749671 0.9466122985 
-10.58294392 9.637504578 -0.4581567347 0.9443259835 
-12.36311054 7.762734413 -0.4672668278 0.9432512522 
-13.06128407 7.412280083 -0.4807037115 0.9416679144 
-16.63121605 7.570790768 -0.5849038363 0.929479301 
-18.45489693 7.428622723 -0.6367748976 0.9234704971 
-47.16821671 12.00338364 -1.557909489 0.8230107427 
-47.32359695 9.824389458 -1.546831965 0.8241279721 
-49.59739685 8.01389122 -1.608133554 0.8178588152 
-62.36893845 4.448061466 -2.001413107 0.7786158323 
-62.5174942 -1.112846613 -2.001413107 0.7786156535 
-61.81311798 -9.423930168 -2.001413107 0.7786157727 
-56.10639954 -13.74767017 -1.849013209 0.7935943007 
-49.66550064 -14.53959465 -1.65644145 0.8129335046 
-49.69423294 -19.49145889 -1.708623648 0.8076474071 
-49.80541229 -22.13943863 -1.744610906 0.8040213585 
-49.85390091 -24.87321663 -1.78333807 0.800137639 
-45.01091385 -40.26278687 -1.933031678 0.7853013277 
-44.26154709 -43.28748322 -1.981664181 0.7805408239 
-42.71398926 -45.66448593 -2.001428366 0.7786143422 
-40.64038467 -47.51937866 -2.001428366 0.7786142826 
-38.48609924 -49.28030777 -2.001428366 0.7786143422 
-36.25587463 -50.94350815 -2.001428366 0.7786143422 
-19.30702019 -29.85620117 -1.138063908 0.8673674464 
-9.349033356 -15.97345638 -0.5924233794 0.9286057949 
-7.553046703 -16.02147865 -0.5669556856 0.9315674305 
-4.106533051 -12.95165539 -0.4349040091 0.9470757842 
-3.485151291 -12.96828079 -0.4298249781 0.9476773143 
-2.395756721 -13.66596127 -0.4440990984 0.9459875226 
0.06108886749 -13.73166466 -0.4395358264 0.9465274215 
0.6734570265 -13.74805164 -0.4405836463 0.9464034438 
1.913242102 -13.78120041 -0.4453477263 0.9458398819 
2.545717716 -13.79813004 -0.4491126835 0.9453946948 
4.527802467 -13.85114193 -0.4664427042 0.943348527 
5.227592468 -13.86985779 -0.4744413793 0.9424055219 
6.709350586 -13.90949631 -0.4943125844 0.9400670528 
9.417167664 -14.28219223 -0.5475849509 0.9338263869 
10.3757906 -14.30783176 -0.5657204986 0.9317112565 
11.64467239 -13.37296867 -0.567591846 0.9314939976 
18.35498238 -16.12692261 -0.7820736766 0.9068456888 
18.39147758 -14.76251411 -0.7548727393 0.9099350572 
18.52044868 -13.5568409 -0.7346617579 0.9122373462 
32.94649887 -14.29549313 -1.149564624 0.8661211133 
58.41125488 -22.31268501 -2.001428366 0.7786143422 
59.34597397 -19.69247055 -2.001428366 0.7786141038 
59.75767899 -16.91804123 -1.987937689 0.7799287438 
60.11780548 -14.16454029 -1.976976633 0.7809982896 
61.43851471 -11.6181221 -2.001413345 0.7786157727 
61.89453506 -8.873625755 -2.001414061 0.7786157131 
62.2280159 -6.111557484 -2.001415014 0.7786156535 
62.48790741 2.225546837 -2.001418114 0.7786152959 
62.32710648 5.003073692 -2.001420498 0.7786151171 
51.10433578 36.0288353 -2.001428366 0.7786143422 
39.98411179 40.52162552 -1.822166681 0.7962625623 
11.09098625 16.1863327 -0.628062129 0.924477458 
10.97489738 17.65275383 -0.6653387547 0.9201785326 
8.174277306 18.17082977 -0.6377651691 0.9233563542 
20.8637619 52.50457764 -1.808422685 0.7976320386 
11.4519186 33.0304184 -1.118999481 0.8694373965 
8.415522575 33.69588089 -1.111686587 0.8702327013 
8.749770164 55.72460175 -1.805520773 0.7979215384 
6.261386395 56.05085754 -1.805269003 0.7979466319 
3.761303663 56.26953125 -1.805128098 0.7979606986 
-0.4881249964 21.93301773 -0.7022188902 0.9159451723 
-0.718349576 10.74582005 -0.3447264135 0.9578143954 
-1.465595722 9.333930016 -0.3024266064 0.9628934264 
-9.259906769 26.7081089 -0.9048131108 0.8930353522 
-9.242832184 23.26003456 -0.801148653 0.9046854973 
-9.032577515 20.07878304 -0.7047309875 0.9156575799 
-9.347050667 18.52770996 -0.6642407179 0.9203048348 
-10.5347414 15.37455082 -0.5965612531 0.9281255007 
-9.79843235 13.01773453 -0.521525085 0.936874032 
-9.741064072 11.80905247 -0.4899949431 0.9405745864 
-10.63091755 11.77863216 -0.5078725815 0.9384747148 
-12.5213623 9.689354897 -0.5067757964 0.9386032224 
-13.79182053 9.723329544 -0.5401371717 0.9346963167 
-12.20554161 7.816132545 -0.4639225602 0.9436457157 
-13.04967213 7.56004858 -0.4827342033 0.9414288998 
-14.31011677 7.460595608 -0.5165523887 0.937455833 
-20.55674362 7.436029911 -0.6997184753 0.9162315726 
-47.1068306 14.70566845 -1.57958889 0.8207829595 
-56.24985886 14.84882259 -1.862155914 0.7922912836 
-56.88145828 12.33773899 -1.86303246 0.7922044992 
-57.31836319 7.178667068 -1.849013209 0.7935942411 
-62.32691574 5.002797604 -2.001413107 0.7786157727 
-62.48772812 2.225307465 -2.001413107 0.7786158919 
-56.76018906 -10.73345184 -1.849013209 0.7935943007 
-49.48485565 -16.42014122 -1.66886282 0.8116720915 
-49.60962296 -24.20223045 -1.766823292 0.8017914891 
-43.11856842 -45.28266907 -2.001428366 0.7786143422 
-41.06151581 -47.15592194 -2.001428366 0.7786143422 
-38.92320633 -48.93579483 -2.001428366 0.7786144018 
-19.8706398 -30.13603401 -1.155427814 0.865486443 
-9.537919998 -15.96840286 -0.5953612924 0.9282647371 
-7.726938248 -14.35031223 -0.5216882229 0.9368548989 
-7.725863934 -16.01685905 -0.569203198 0.9313057065 
-6.874975204 -16.03961372 -0.5585793853 0.9325435758 
-4.232670784 -12.94829082 -0.4360384941 0.9469413757 
-3.151044846 -13.64575195 -0.4482754469 0.9454936981 
-2.520659208 -13.66261673 -0.4447018206 0.9459162354 
-1.899018526 -13.67924786 -0.4420526028 0.9462295771 
-1.283535123 -13.69571304 -0.4403013587 0.9464368224 
-0.6716992259 -13.71207047 -0.4394303858 0.9465398788 
0.5507665873 -13.74477005 -0.4403039515 0.9464365244 
1.166264653 -13.7612257 -0.4420568645 0.9462291598 
2.418325186 -13.79471684 -0.4482835233 0.9454927444 
3.716577053 -13.82943344 -0.458368063 0.9443014264 
4.390561581 -13.84746552 -0.464984268 0.943520546 
5.085673809 -13.8660593 -0.4727442861 0.9426055551 
6.555439472 -13.90538025 -0.4920729101 0.9403303266 
7.339506626 -13.92634201 -0.50388062 0.9389431477 
11.19101048 -14.32964325 -0.5819734335 0.9298198819 
18.2640686 -19.52570724 -0.8557913303 0.8985257149 
18.38437653 -15.02784157 -0.7600418925 0.9093471766 
18.41893196 -13.73599052 -0.7354560494 0.9121467471 
20.24037743 -13.73692608 -0.7829856873 0.9067422748 
22.1827507 -13.65480232 -0.8337782025 0.9010021091 
25.35539818 -14.09245586 -0.9285216928 0.8903920054 
28.40957642 -14.17414474 -1.016246796 0.8806792498 
58.21033096 -22.8317337 -2.001428366 0.7786143422 
59.93762207 -14.68615246 -1.975270748 0.7811649442 
62.17116928 -6.664928913 -2.001415014 0.7786156535 
62.40613556 -3.892765999 -2.00141573 0.7786155939 
62.51755905 -1.112883329 -2.001416683 0.7786154747 
62.36914825 4.448073864 -2.001419544 0.7786151767 
61.23055649 9.893576622 -1.985323787 0.7801836729 
58.98611069 20.74531746 -2.001428366 0.7786143422 
58.00483322 23.34786606 -2.001428366 0.7786154747 
33.17621994 15.1023674 -1.166775227 0.8642593622 
30.63503838 15.62659836 -1.100786924 0.8714194298 
52.9543457 33.25008774 -2.001428366 0.7786143422 
29.93027496 20.70485306 -1.164916396 0.8644602299 
27.95523071 21.23752975 -1.123740315 0.8689224124 
27.85707855 23.18776894 -1.16014719 0.8649758697 
27.89071465 25.39905167 -1.207451701 0.859875083 
38.48015594 41.87927628 -1.820441365 0.7964343429 
28.07131767 33.42055893 -1.397033334 0.8397327662 
11.19748974 16.03380394 -0.6259844899 0.9247174263 
19.48396683 33.97954559 -1.253754735 0.854911387 
8.169995308 17.73760796 -0.6250875592 0.9248210788 
19.8424778 48.6676445 -1.682291627 0.8103114367 
11.76518536 32.98289871 -1.120891333 0.8692317605 
11.25928211 36.63964844 -1.226908684 0.8577857018 
11.66319275 54.95150375 -1.798101425 0.7986619473 
9.089301109 54.7067337 -1.775090575 0.8009631634 
4.262070179 56.23441315 -1.805147409 0.7979587913 
1.75629878 56.36672592 -1.805095434 0.7979639769 
-0.9640282989 9.386288643 -0.3020223975 0.9629421234 
-1.809892535 9.343139648 -0.3046202064 0.9626293778 
-9.240375519 27.43849945 -0.926733613 0.890591085 
-9.020298004 20.53792953 -0.7180009484 0.9141396284 
-9.789613724 17.79962921 -0.6502267122 0.921918869 
-9.718549728 11.99774361 -0.4942153692 0.9400784373 
-10.62539482 11.98528767 -0.5126835704 0.9379101992 
-10.20095634 9.627280235 -0.4489687979 0.9454115629 
-12.34856415 9.732602119 -0.5032688975 0.9390149117 
-11.03415489 7.927128792 -0.4348832667 0.9470781088 
-12.375844 8.081430435 -0.4731115699 0.9425622225 
-12.8823967 7.61708498 -0.4790350199 0.9418643713 
-14.03359318 7.476044655 -0.508960247 0.938346982 
-18.16142082 7.688857079 -0.6312713623 0.9241062403 
-20.16585922 7.498178482 -0.6886562705 0.9174996614 
-23.22701645 7.478374004 -0.7810482383 0.9069617987 
-56.10936737 15.34702587 -1.861952305 0.7923114896 
-47.19831467 10.67797375 -1.548946142 0.8239350319 
-57.25218964 7.68860817 -1.849013209 0.7935942411 
-62.46546173 -2.781430483 -2.001413107 0.7786158323 
-62.27989578 -5.557367802 -2.001413107 0.7786158323 
-57.2983551 -10.30779743 -1.863481402 0.7921600342 
-53.61745453 -14.66542435 -1.779260159 0.800545752 
-49.55426025 -26.39887238 -1.797197819 0.7987522483 
-49.72473907 -29.40124512 -1.849028468 0.793592751 
-48.36763 -31.58408546 -1.849028468 0.793592751 
-45.25838089 -39.05665588 -1.913499355 0.7872214913 
-41.4796524 -46.78853989 -2.001428366 0.7786143422 
-39.35728073 -48.58739471 -2.001428366 0.7786143422 
-22.77567863 -33.8817215 -1.306759715 0.8492643833 
-8.793300629 -15.98831463 -0.5840566754 0.9295777082 
-2.645976543 -13.65926266 -0.4453416467 0.9458405972 
-2.022797823 -13.67593193 -0.4425099194 0.9461755157 
-0.793915987 -13.70879364 -0.4395349026 0.9465275407 
0.4281640649 -13.74147892 -0.440059185 0.9464654922 
1.662949204 -13.77452087 -0.4441044629 0.945986867 
2.291391611 -13.79132271 -0.4474923611 0.9455862641 
2.930771351 -13.80842209 -0.4518340826 0.9450731277 
3.584047794 -13.82588863 -0.4571751356 0.9444422126 
4.254228592 -13.84382248 -0.463572681 0.9436870813 
4.94481945 -13.8622942 -0.4710972607 0.9427996874 
6.402983189 -13.90128422 -0.4898928702 0.9405866861 
7.179716587 -13.92207527 -0.5013949275 0.939234972 
7.606156826 -13.26494122 -0.4894431829 0.9406397939 
11.48925304 -13.67861748 -0.5717861652 0.9310047626 
18.25492859 -19.86748505 -0.8636153936 0.897647202 
18.29905891 -18.21783638 -0.8265072703 0.9018216133 
18.3771801 -15.29685497 -0.7653437853 0.9087445736 
18.41219902 -13.9877243 -0.7401293516 0.9116139412 
19.85917854 -13.73786354 -0.772937119 0.9078822136 
21.79864502 -13.68727016 -0.8238856792 0.9021172523 
34.75803757 -13.99115658 -1.199308157 0.8607510328 
59.83073425 -15.22577095 -1.976136446 0.7810803652 
61.12356186 -12.68927193 -1.998195887 0.7789291739 
61.72679138 -9.973754883 -2.001413822 0.7786157727 
62.10939407 -7.218024731 -2.001414537 0.7786156535 
62.36901093 -4.448095798 -2.00141573 0.7786155939 
62.40623856 3.892744064 -2.001418829 0.7786152363 
61.21479797 9.332959175 -1.982042551 0.7805038691 
32.92842484 8.068395615 -1.085172057 0.8731224537 
60.00921249 17.56767273 -2.001428366 0.7786143422 
59.16834641 20.21972275 -2.001428366 0.7786143422 
33.59502792 14.93362904 -1.176784992 0.8631783724 
30.56249046 16.98654938 -1.119206786 0.8694148064 
53.24821091 32.77746964 -2.001428366 0.778614223 
28.40021896 21.17953873 -1.134000778 0.8678081036 
27.84778214 22.76346207 -1.151275277 0.8659358621 
28.13862038 36.03068161 -1.463318467 0.8328019977 
11.28406239 15.85534668 -0.6229125857 0.92507267 
11.12651825 17.20595169 -0.6558593512 0.9212697744 
9.111562729 17.28873062 -0.6255373955 0.9247691035 
8.211591721 17.41837311 -0.6163879037 0.9258276224 
21.44915771 51.29803467 -1.779735804 0.8004982471 
9.026885033 33.58908463 -1.113288045 0.8700584769 
2.257963896 56.34890366 -1.805096984 0.797963798 
-0.8826708794 9.417920113 -0.3027754128 0.9628514647 
-1.288608313 9.28194809 -0.2999522388 0.9631914496 
-2.14872551 9.304955482 -0.3056764007 0.9625022411 
-9.219878197 28.20482445 -0.9498079419 0.888025403 
-9.313344955 24.71016502 -0.8452515006 0.899710536 
-9.007538795 21.01498032 -0.7318466306 0.912558496 
-9.665058136 14.65813923 -0.561999023 0.9321449399 
-9.671894073 13.33718681 -0.5273420811 0.9361928105 
-9.711220741 12.20930672 -0.4993495047 0.9394751787 
-9.893144608 10.38967228 -0.4592082202 0.9442021251 
-10.98111343 9.64814949 -0.4678858817 0.9431782365 
-12.34386158 9.908198357 -0.5066500902 0.9386180043 
-13.66899872 7.438695908 -0.4981182814 0.9396198988 
-47.18832397 11.11815929 -1.551789522 0.8236405849 
-57.48953629 5.646147251 -1.849013209 0.7935943007 
-62.43821716 3.337348461 -2.001413107 0.7786158323 
-62.48774719 -2.225580931 -2.001413107 0.7786157727 
-62.32688904 -5.003051758 -2.001413107 0.7786157727 
-62.04264069 -7.770629883 -2.001413107 0.7786157727 
-56.45342255 -12.24491692 -1.849013209 0.7935943007 
-55.66155624 -14.69355965 -1.842680335 0.7942228913 
-49.67975998 -15.50890064 -1.665859938 0.8119766712 
-49.4761467 -17.89713287 -1.684089303 0.81012851 
-49.41178131 -20.40265083 -1.711125731 0.8073945642 
-49.41909409 -23.02962303 -1.745161533 0.8039659858 
-49.7564888 -25.94066811 -1.796087146 0.7988632917 
-49.63153839 -28.75303078 -1.835973501 0.7948892117 
-43.90624237 -44.49651718 -2.000907421 0.7786649466 
-41.89429092 -46.41765976 -2.001428366 0.7786143422 
-8.976830482 -15.98340321 -0.5867733359 0.929262042 
-7.211484432 -16.03062057 -0.5626471043 0.9320693612 
-6.378930569 -16.05288124 -0.55291152 0.9332046509 
-4.486918926 -12.94148922 -0.4384297132 0.9466583133 
-3.375585794 -13.51590347 -0.4459066689 0.9457729459 
-1.529199243 -13.68913078 -0.4408953786 0.9463665485 
0.3057372868 -13.73821735 -0.4398497045 0.9464902282 
1.538364172 -13.77118587 -0.4435381889 0.9460538626 
2.164946318 -13.7879343 -0.4467399418 0.9456752539 
3.45212388 -13.82235813 -0.4560243189 0.9445781112 
4.118652344 -13.84019947 -0.4622052014 0.9438484311 
4.804868221 -13.85854912 -0.4694976807 0.9429882169 
5.514506817 -13.87754345 -0.4779861271 0.9419879317 
7.021410942 -13.91784668 -0.4989717007 0.9395195842 
9.793139458 -14.29226017 -0.5545662045 0.9330115914 
11.48278809 -13.92053223 -0.5776056051 0.9303275943 
12.08041 -13.38462353 -0.5771157742 0.9303845167 
18.29053497 -18.53628349 -0.8335381746 0.9010291696 
18.36989021 -15.56952572 -0.770778954 0.9081273079 
18.40537834 -14.24268532 -0.7449215651 0.9110678434 
24.27563667 -14.06356907 -0.8980056047 0.8937957287 
30.53840256 -14.23108387 -1.078418136 0.8738600016 
59.68712616 -18.63269043 -2.001428366 0.7786143422 
59.78472137 -15.78198242 -1.979178309 0.7807834148 
60.69470596 -13.16458511 -1.987926245 0.7799299359 
62.04269409 -7.770327091 -2.001414537 0.7786157131 
62.48785019 -2.225292921 -2.001416445 0.7786154747 
62.52500916 0.5562793016 -2.001417398 0.7786154151 
61.22946167 8.778256416 -1.979908705 0.7807121277 
60.8613472 14.3400383 -2.001428366 0.7786141038 
59.3459816 19.69219398 -2.001428366 0.7786144018 
58.41117096 22.31290627 -2.001428366 0.7786143422 
34.29860687 14.88216114 -1.196742058 0.8610271811 
31.38566399 15.31177711 -1.117787957 0.8695690632 
30.54577255 16.623106 -1.113132 0.8700754642 
30.382864 18.33171654 -1.135817885 0.867610991 
27.89258575 22.38888931 -1.144842744 0.8666325808 
27.89427376 24.50850105 -1.188531041 0.8619115949 
41.08159256 39.46822739 -1.823489666 0.796130836 
28.63041496 32.87947845 -1.395501852 0.8398935199 
11.03979492 18.4830265 -0.6891133189 0.9174472094 
9.356268883 17.37627411 -0.6316924691 0.9240576029 
8.363730431 17.33943748 -0.6162034273 0.9258489609 
8.186972618 19.10056114 -0.6651769876 0.9201971292 
11.18433571 34.21430588 -1.152179718 0.8658379316 
7.756137371 55.86797714 -1.805406809 0.7979329228 
5.262387753 56.15127945 -1.805199385 0.797953546 
2.759458065 56.32676697 -1.805102944 0.797963202 
0.214428708 48.20045853 -1.542844176 0.8245623708 
-0.6445116997 16.0859127 -0.5153007507 0.9376033545 
-0.8008691072 9.449721336 -0.3035568297 0.9627574086 
-2.071713924 9.350141525 -0.3065434098 0.962397933 
-2.503207922 9.314433098 -0.3087207079 0.9621359706 
-2.957192421 9.326581955 -0.3131774962 0.961599946 
-9.296332359 25.34638596 -0.8641500473 0.8975871801 
-9.408979416 19.95828056 -0.7062678337 0.915481627 
-9.493290901 18.01284599 -0.6517387033 0.9217445254 
-6.071879864 10.37419891 -0.3847585917 0.9530322552 
-9.650395393 14.92311954 -0.5688436627 0.931347549 
-10.54948711 14.82321262 -0.5823623538 0.929774642 
-9.884061813 10.5668211 -0.4631327689 0.9437389374 
-10.77993584 9.642767906 -0.4629530311 0.9437601566 
-12.64127445 7.781430721 -0.4751440287 0.9423226714 
-13.46949673 7.486206055 -0.4932552874 0.9401913285 
-16.77458 7.456528187 -0.587587893 0.9291673899 
-21.81983376 7.456406116 -0.7380761504 0.911847949 
-47.33222198 9.387709618 -1.544558883 0.8243865967 
-52.01878357 7.930707932 -1.684287667 0.8101083636 
-57.43700409 6.157670975 -1.849013209 0.7935943007 
-62.51745605 1.113090754 -2.001413107 0.7786157727 
-62.50508118 -1.669262648 -2.001413107 0.7786157727 
-62.36893845 -4.448295593 -2.001413107 0.7786157727 
-49.40645981 -14.94227028 -1.652171731 0.8133676648 
-49.57801056 -17.43675232 -1.682209611 0.8103189468 
-49.67454529 -19.9954834 -1.713992715 0.8071050644 
-47.50722122 -32.864048 -1.849028468 0.7935928106 
-18.08517456 -13.73914528 -0.726981163 0.9131137729 
-45.4761467 -37.85361862 -1.893918514 0.7891511321 
-44.87934875 -40.86963272 -1.942920446 0.7843310237 
-44.08595276 -43.89026642 -1.991213918 0.7796093225 
-42.30561829 -46.04307175 -2.001428366 0.7786143422 
-40.21577454 -47.87925339 -2.001428366 0.7786142826 
-38.04593277 -49.62095261 -2.001428366 0.7786142826 
-10.1160059 -15.95293903 -0.6046404839 0.9271884561 
-9.162089348 -15.9784565 -0.5895622373 0.9289380312 
-7.381655216 -16.02606392 -0.564771235 0.9318218827 
-6.543105125 -16.04849052 -0.5547433496 0.9329909086 
-3.981049776 -12.95501423 -0.433809489 0.9472053647 
-2.897680521 -13.65253353 -0.4467330873 0.9456760287 
-1.652236342 -13.68584442 -0.4412455559 0.9463251233 
0.1834277362 -13.73493576 -0.4396755993 0.946510911 
3.320859194 -13.81885719 -0.4549151361 0.9447090626 
4.66584444 -13.85482883 -0.467946142 0.9431712031 
6.101860046 -13.89324665 -0.4857035577 0.9410794377 
8.092133522 -13.27793884 -0.4977191091 0.9396669269 
9.603920937 -14.28718758 -0.5510308743 0.9334241152 
10.57534122 -14.31317806 -0.5696325302 0.9312558174 
11.47617626 -14.16769981 -0.5835992098 0.9296309352 
18.2818718 -18.86021042 -0.8407571912 0.9002162814 
18.32378578 -17.29331589 -0.8064771891 0.9040829539 
18.36249161 -15.84612751 -0.7763530016 0.907494545 
18.39847374 -14.50087357 -0.7498344779 0.9105083942 
22.00558281 -14.36964798 -0.8412427306 0.9001615644 
26.51152611 -14.12337589 -0.9615005255 0.8867281675 
29.80061531 -14.21135235 -1.056787729 0.8762265444 
33.82134628 -14.31889629 -1.175598145 0.8633064628 
58.60754776 -21.79187012 -2.001428366 0.7786143422 
40.64676285 -13.08718204 -1.366820335 0.8429107666 
59.77124405 -16.34862709 -1.983469248 0.7803646326 
61.53948212 -11.07085705 -2.001413584 0.7786157727 
62.46556473 -2.781196117 -2.001416206 0.7786155343 
62.52747726 0 -2.00141716 0.7786154747 
62.46560287 2.781703949 -2.001418352 0.7786153555 
61.31156921 8.234005928 -1.980116248 0.7806918621 
59.51883698 19.16335297 -2.001428366 0.7786144018 
33.21077728 15.83759403 -1.177719951 0.8630775809 
27.84832954 21.94882584 -1.134965539 0.8677034974 
41.44127274 39.11069489 -1.823935866 0.7960864902 
29.1281929 32.85625458 -1.405460358 0.838848412 
28.10388565 34.6951561 -1.429169297 0.8363654017 
10.9329052 16.26424789 -0.6272774935 0.9245674014 
8.185390472 18.6371727 -0.6515493393 0.9217662811 
12.79756355 33.05973434 -1.134714365 0.8677307367 
8.552221298 35.58773041 -1.171555042 0.8637441993 
10.54685974 54.44452667 -1.775090575 0.8009631634 
8.253129959 55.79844666 -1.805461526 0.7979274988 
0.7525829673 56.38938522 -1.805105805 0.797962904 
-0.578325212 18.56066322 -0.5943892002 0.9283776283 
-0.7434228063 9.808251381 -0.3148477077 0.9613990784 
-1.120034099 9.277436256 -0.2991140783 0.9632923603 
-1.551235318 9.336220741 -0.3029360771 0.9628320932 
-1.98402822 9.347792625 -0.3058750927 0.9624783993 
-2.865273476 9.324120522 -0.3122257888 0.9617144465 
-9.144340515 22.4286232 -0.7752836347 0.9076158404 
-9.48322773 18.38894081 -0.6622647047 0.9205322862 
-9.635307312 15.19458008 -0.5759008527 0.9305261374 
-9.98511219 13.02273369 -0.525267005 0.9364357591 
-9.715551376 9.672426224 -0.438749671 0.9466122985 
-10.58303642 9.637495041 -0.4581602514 0.9443257451 
-9.530600548 7.933100224 -0.3969146609 0.951584816 
-14.3481884 7.318749905 -0.5155619979 0.9375727773 
-16.63077545 7.570698261 -0.5848895311 0.9294809699 
-47.16822815 12.00316906 -1.557906628 0.8230109215 
-47.32359695 9.824389458 -1.546831965 0.8241279721 
-57.37993622 6.668422699 -1.849013209 0.7935943604 
-62.36897659 4.447797775 -2.001413107 0.7786157727 
-62.51744461 -1.113071322 -2.001413107 0.7786158323 
-62.40605927 -3.892719746 -2.001413107 0.7786158323 
-62.17111588 -6.66519022 -2.001413107 0.7786157727 
-61.81311798 -9.423930168 -2.001413107 0.7786157727 
-56.66241455 -11.23824692 -1.849013209 0.7935943007 
-56.10647964 -13.74743652 -1.849013209 0.7935942411 
-49.66550064 -14.53959465 -1.65644145 0.8129335046 
-49.41663361 -16.88702583 -1.671563029 0.8113980889 
-49.69423294 -19.49145889 -1.708623648 0.8076474071 
-49.85390091 -24.87321663 -1.78333807 0.800137639 
-49.19358826 -30.28156662 -1.849028468 0.793592751 
-46.30751419 -34.53396988 -1.849028468 0.7935928106 
-45.57493591 -37.25442886 -1.884153247 0.7901152372 
-44.26145935 -43.28781509 -1.981669784 0.7805402875 
-42.71398926 -45.66448593 -2.001428366 0.7786143422 
-40.64019775 -47.51954651 -2.001428366 0.778614223 
-38.48630142 -49.280159 -2.001428366 0.7786143422 
-36.25587463 -50.94350815 -2.001428366 0.7786143422 
-19.30721664 -29.85622978 -1.13806808 0.8673669696 
-7.553046703 -16.02147865 -0.5669556856 0.9315674305 
-6.708554745 -16.04405785 -0.5566335917 0.932770431 
-5.89250946 -16.06589317 -0.5477441549 0.9338077307 
-3.485151291 -12.96828079 -0.4298249781 0.9476773143 
-2.395756721 -13.66596127 -0.4440990984 0.9459875226 
-1.160986304 -13.69898415 -0.4400573671 0.9464657307 
-0.5495312214 -13.71533203 -0.4393609464 0.9465481043 
0.06108886749 -13.73166466 -0.4395358264 0.9465274215 
0.6735156178 -13.74805164 -0.4405834973 0.9464033842 
1.289985299 -13.76453114 -0.4425143301 0.9461750388 
2.545659065 -13.79812431 -0.4491122365 0.9453947544 
7.928373814 -13.27355957 -0.4948911965 0.9399992824 
9.417167664 -14.28219223 -0.5475849509 0.9338263869 
10.37588882 -14.30783653 -0.5657234192 0.9317110181 
18.2730484 -19.19015121 -0.8481776714 0.8993815184 
18.31568146 -17.59639168 -0.8129782677 0.9033482671 
22.65217972 -13.66735554 -0.8468183875 0.8995343447 
25.9235096 -14.10765076 -0.9446896911 0.8885939121 
29.09117126 -14.19236755 -1.036070347 0.8784991503 
58.41135025 -22.31242561 -2.001428366 0.7786143422 
59.34597397 -19.69247055 -2.001428366 0.7786141038 
59.7576828 -16.91778374 -1.987935543 0.7799289823 
60.11780548 -14.16454029 -1.976976633 0.7809982896 
61.43855286 -11.61785412 -2.001413345 0.7786158323 
61.89453506 -8.873625755 -2.001414061 0.7786157131 
62.48790741 2.225278378 -2.001418114 0.7786152959 
62.32710648 5.003073692 -2.001420498 0.7786151171 
61.46648407 7.698183537 -1.982827067 0.7804273367 
61.24633789 10.456357 -1.988775015 0.7798471451 
61.10697174 13.25400829 -2.001428366 0.7786143422 
58.79911423 21.26955032 -2.001428366 0.7786143422 
33.21793747 15.47977734 -1.173042178 0.8635824323 
30.57638931 17.7137928 -1.131083488 0.8681247234 
51.10433578 36.0288353 -2.001428366 0.7786143422 
39.98427963 40.52145004 -1.822167039 0.7962625623 
29.71690178 32.92541885 -1.419673085 0.8373590112 
28.09333992 34.05747986 -1.413154125 0.8380420208 
19.50332642 34.72566223 -1.274831414 0.8526614904 
8.712055206 17.26902771 -0.6191154122 0.9255118966 
20.8637619 52.50457764 -1.808422685 0.7976320386 
11.45177174 33.03045273 -1.118998885 0.8694374561 
10.02318859 33.68158722 -1.124825239 0.8688043356 
8.415395737 33.695961 -1.111688018 0.8702325225 
8.749530792 55.72464371 -1.805520773 0.7979215384 
3.761303663 56.26953125 -1.805128098 0.7979606986 
1.254731417 56.38021469 -1.805098534 0.7979636192 
-0.4881249964 21.93301773 -0.7022188902 0.9159451723 
-0.7183398008 10.74628353 -0.3447401226 0.9578126073 
-1.465556622 9.333925247 -0.3024261296 0.962893486 
-1.89680171 9.345463753 -0.3052345216 0.9625554681 
-2.774008751 9.321679115 -0.3113052249 0.9618251324 
-10.16206074 18.09351921 -0.6642407179 0.9203048944 
-9.619779587 15.47307587 -0.5831860304 0.9296789169 
-9.741064072 11.80905247 -0.4899949431 0.9405745864 
-10.38996601 9.632338524 -0.4534976184 0.9448763728 
-11.39659119 9.659257889 -0.4781870842 0.9419642687 
-12.52124023 9.68934536 -0.5067727566 0.93860358 
-13.79182053 9.723329544 -0.5401371717 0.9346963167 
-16.20662498 7.552387714 -0.5723132491 0.9309436679 
-20.55674362 7.436029911 -0.6997184753 0.9162315726 
-47.10683823 14.70543385 -1.579588294 0.8207831979 
-56.8815155 12.33749485 -1.863032699 0.7922044396 
-48.67759323 8.310531616 -1.580651522 0.8206744194 
-62.22801208 -6.111245155 -2.001413107 0.7786157727 
-61.89449692 -8.873618126 -2.001413107 0.7786158323 
-56.76017761 -10.73366642 -1.849013209 0.7935942411 
-56.22655487 -13.24770927 -1.849013209 0.7935943007 
-49.48485565 -16.42014122 -1.66886282 0.8116720915 
-49.46104813 -29.84267998 -1.849028468 0.7935928106 
-48.08470154 -32.01315689 -1.849028468 0.7935928106 
-45.66478729 -36.65433884 -1.874297738 0.7910894156 
-45.14104843 -39.6619072 -1.923389673 0.7862486243 
-36.7076683 -50.61893082 -2.001428366 0.7786143422 
-7.726938248 -14.35031223 -0.5216882229 0.9368548989 
-7.725780964 -16.01685524 -0.5692019463 0.9313058257 
-6.053588867 -16.06158257 -0.5494117737 0.9336130619 
-4.232670784 -12.94829082 -0.4360384941 0.9469413757 
-1.899077058 -13.67924786 -0.4420524538 0.9462295771 
0.5507079959 -13.74477005 -0.4403036535 0.9464365244 
1.166264653 -13.7612257 -0.4420568645 0.9462291598 
1.78797853 -13.77785587 -0.4447079301 0.9459155202 
2.418325186 -13.79471684 -0.4482835233 0.9454927444 
3.060297728 -13.81188965 -0.4528214931 0.9449564815 
4.390625 -13.84747028 -0.4649848938 0.9435204268 
5.805902958 -13.88532162 -0.4817385674 0.9415461421 
6.555439472 -13.90538025 -0.4920729101 0.9403303266 
10.17895508 -14.3025732 -0.5619084239 0.9321555495 
18.2640686 -19.52570724 -0.8557913303 0.8985257149 
20.24055099 -13.73692322 -0.7829902768 0.9067417383 
25.35567856 -14.0924654 -0.928529501 0.8903911114 
28.40957642 -14.17414474 -1.016246796 0.8806792498 
32.109478 -14.27311039 -1.124746203 0.8688129187 
61.33265305 -12.16454029 -2.001413584 0.7786158323 
62.17115021 -6.665180683 -2.001415014 0.7786156535 
62.40613556 -3.892765999 -2.00141573 0.7786155939 
62.51755905 -1.113115191 -2.001416683 0.7786154747 
61.69628906 7.170046329 -1.988102794 0.7799126506 
61.2305603 9.893842697 -1.985325217 0.7801835537 
61.22246933 12.70981693 -2.001428366 0.7786143422 
60.5964241 15.42087841 -2.001428366 0.7786143422 
59.85054398 18.10083771 -2.001428366 0.7786144018 
58.00483322 23.34786606 -2.001428366 0.7786154747 
30.57253647 17.35012436 -1.125186205 0.8687651157 
29.93027496 20.70485306 -1.164916396 0.8644602299 
27.85707855 23.18776894 -1.16014719 0.8649758697 
27.89069939 25.39881134 -1.207445979 0.859875679 
40.35292053 40.17376328 -1.822605133 0.7962189317 
38.47998428 41.87941742 -1.820441246 0.7964344025 
34.52523422 45.0290947 -1.816219568 0.7968548536 
10.95273876 17.27247047 -0.6546528339 0.9214087725 
8.904130936 17.26601982 -0.6218262911 0.9251986146 
8.169995308 17.73760796 -0.6250875592 0.9248210788 
19.84249306 48.66825104 -1.682304859 0.8103095889 
11.25928211 36.63964844 -1.226908684 0.8577857018 
11.66319275 54.95150375 -1.798101425 0.7986619473 
6.759975433 55.99420929 -1.805310488 0.7979425192 
1.75629878 56.36672592 -1.805095434 0.7979639769 
-0.7398681641 12.77545357 -0.4096096754 0.950075686 
-9.240375519 27.43849945 -0.926733613 0.890591085 
-9.329638481 24.10110283 -0.8272259235 0.901740551 
-9.181840897 18.61013222 -0.6642407179 0.9203048348 
-9.789516449 17.79963303 -0.6502249241 0.9219189882 
-9.557778358 15.68282223 -0.5878628492 0.9291354418 
-9.799917221 14.57875443 -0.5622760057 0.9321126342 
-9.637177467 13.0434227 -0.5191046 0.9371582866 
-9.718549728 11.99785137 -0.4942181408 0.9400781393 
-10.62539482 11.98528767 -0.5126835704 0.9379101992 
-10.20095634 9.627280235 -0.4489687979 0.9454115629 
-12.8824749 7.61706543 -0.4790374637 0.9418641329 
-14.03359318 7.476044655 -0.508960247 0.938346982 
-15.53409672 7.407895565 -0.5508679152 0.9334430099 
-20.16585922 7.498178482 -0.6886562705 0.9174996614 
-57.25215149 7.68883276 -1.849013209 0.7935943007 
-62.27993393 5.557377815 -2.001413107 0.7786157131 
-62.46546173 2.781176805 -2.001413107 0.7786158323 
-48.6215744 -4.882812391e-06 -2.001413107 0.8231218457 
-48.1889801 -6.471342564 -2.001413345 0.8231219053 
-47.42308044 -10.72892094 -2.001413107 0.8231218457 
-45.5734787 -16.94555092 -2.001428366 0.8231206536 
-26.05052185 -12.42307568 -1.188010216 0.8908830285 
-42.91244507 -22.86053085 -2.001428366 0.8231210709 
-40.71090317 -26.58415413 -2.001428366 0.823120594 
-39.48792267 -28.36871529 -2.001428366 0.8231211305 
-38.18689728 -30.09721184 -2.001428366 0.8231210709 
-36.8103447 -31.76623535 -2.001428366 0.823120594 
-35.36083603 -33.37221146 -2.001428366 0.8231206536 
-29.79870605 -33.61262131 -1.849028468 0.8354117274 
-9.728666306 -15.96329594 -0.7695136666 0.9278917313 
-8.793354034 -15.98830986 -0.7511003017 0.9295549393 
-1.406284094 -13.69242668 -0.5665885806 0.9463862777 
-0.1832372993 -13.72512627 -0.565020442 0.9465306997 
0.4281738102 -13.74149418 -0.5659179688 0.9464480281 
1.662963867 -13.77451134 -0.5711182952 0.9459693432 
2.291411161 -13.79132271 -0.5754773021 0.9455685616 
2.930795908 -13.80842781 -0.5810589194 0.9450551867 
3.584008694 -13.82588863 -0.5879269242 0.944424212 
4.25419426 -13.84383297 -0.5961538553 0.9436687827 
6.40295887 -13.90128899 -0.6300019622 0.9405674338 
8.425473213 -13.28686523 -0.6476223469 0.9389570355 
9.509618759 -13.61694336 -0.6836732626 0.9356706738 
10.98280239 -14.32406712 -0.742993176 0.9302880764 
18.25493431 -19.86746597 -1.110608935 0.8976147771 
18.33962059 -16.70120621 -1.021040201 0.9054685235 
18.41219902 -13.98768044 -0.9518084526 0.9115858078 
21.72265625 -13.63962173 -1.055825114 0.9024101496 
27.75337029 -14.15659142 -1.28245163 0.8827377558 
31.30727959 -14.25164509 -1.415950894 0.8713510036 
42.375103 -14.90333462 -1.849028468 0.8354121447 
42.99586487 -13.0035181 -1.849018455 0.8354130387 
47.1197052 -11.99106407 -2.001414776 0.8231220841 
47.99909592 -7.755659103 -2.00141573 0.8231216669 
48.2966156 -5.612785339 -2.001416683 0.8231215477 
48.06646347 7.328223705 -2.001428127 0.8231208324 
42.40755844 8.410876274 -1.779627681 0.8410696387 
32.92842484 8.068329811 -1.395534635 0.8730828762 
41.7754631 16.38539124 -1.847149014 0.8355644941 
35.03796768 15.57500076 -1.578345299 0.857696712 
32.00489807 17.78822899 -1.507228255 0.8636495471 
38.04413605 23.4183979 -1.838923812 0.836233139 
36.92440033 25.06019211 -1.836923003 0.8363963366 
28.29867172 21.10382271 -1.453116417 0.8682070971 
28.85215759 33.73592758 -1.827274561 0.8371815681 
27.30639648 34.96484375 -1.82616508 0.837271452 
11.27450657 15.84186459 -0.8003876805 0.9251097441 
10.91900349 16.88496971 -0.8277021646 0.9226552248 
8.085371017 19.33703041 -0.8627508283 0.9195154905 
9.556166649 43.13022232 -1.818433166 0.8379017115 
5.683212757 43.79566956 -1.817879319 0.8379464149 
1.768002868 44.12237167 -1.817674994 0.8379635215 
-0.6951904297 14.19119072 -0.5848553181 0.9447064996 
-1.723339796 9.340825081 -0.3909860253 0.96268785 
-2.148705959 9.304955482 -0.3931008875 0.9624899626 
-9.219878197 28.20490646 -1.221460223 0.8879898787 
-9.388412476 21.90362167 -0.9809521437 0.9090054035 
-9.596401215 19.89478874 -0.9092224836 0.9153689742 
-9.483822823 13.0778265 -0.6649743319 0.9373736382 
-9.666957855 12.15364265 -0.6392359734 0.9397230744 
-10.07175255 7.372480392 -0.5137861371 0.951258719 
-11.30198193 7.524497032 -0.558896184 0.9470942616 
-12.49799252 7.540698051 -0.6008422971 0.943238616 
-19.6037941 7.488491058 -0.8638219833 0.9194196463 
-22.88763046 7.594599247 -0.9926365614 0.9079729319 
-45.06677246 10.61829567 -1.905882239 0.8308051825 
-48.55228043 2.595063448 -2.001413345 0.8231218457 
-47.92794418 -8.181820869 -2.001413345 0.8231227994 
-47.51667404 -10.30645943 -2.001413107 0.8231219053 
-45.57099915 -16.48448753 -1.994797349 0.8236516714 
-44.07153702 -20.53763199 -2.001428366 0.823120594 
-43.11419296 -22.47768974 -2.001428366 0.8231211305 
-42.07160568 -24.37335396 -2.001428366 0.8231210709 
-40.94587326 -26.22081566 -2.001428366 0.823120594 
-38.45334244 -29.75624466 -2.001428366 0.8231206536 
-32.57728958 -36.09450531 -2.001428366 0.8231206536 
-20.97956467 -27.8723278 -1.436000347 0.8696531653 
-9.921361923 -15.95815372 -0.7734909654 0.9275328517 
-8.976845741 -15.98340797 -0.7545909882 0.9292392135 
-4.486908913 -12.94148922 -0.5638204813 0.9466409683 
-2.146826029 -13.67261219 -0.5697021484 0.9460996389 
-0.3053515553 -13.72187424 -0.5649737716 0.9465347528 
1.538344741 -13.77118587 -0.570391655 0.9460363388 
2.164936543 -13.78794384 -0.574509263 0.9456575513 
