# .PCD v0.7 - Point Cloud Data file format
VERSION 0.7
FIELDS x y z intensities
SIZE 4 4 4 4
TYPE F F F F
COUNT 1 1 1 1
WIDTH 924
HEIGHT 1
VIEWPOINT 0 0 0 1 0 0 0
POINTS 924
DATA ascii
5.979948521 7.119479656 -1.85143137 0.9627891183 
4.984916687 7.861152172 -1.853574276 0.9627468586 
4.620539665 8.058107376 -1.849671602 0.9628238082 
3.896928549 8.460493088 -1.854844332 0.962721765 
3.516379356 8.624624252 -1.854663849 0.9627253413 
3.128928185 8.771735191 -1.854497671 0.9627286196 
2.336555243 9.013710976 -1.854209542 0.9627343416 
0.7035741806 9.283034325 -1.853816986 0.9627420306 
0.2899316251 9.304853439 -1.853758216 0.9627432227 
-0.1242724583 9.308320045 -1.85371542 0.9627440572 
-0.5382128954 9.293444633 -1.853688955 0.9627445936 
-1.362070322 9.208806038 -1.853684187 0.9627446532 
-1.770385742 9.139208794 -1.853706121 0.962744236 
-2.175219774 9.051598549 -1.853744268 0.9627434611 
-2.575795889 8.946137428 -1.853798509 0.9627423882 
-3.744143009 8.524882317 -1.854056239 0.9627373219 
-4.834628582 7.932873249 -1.849903107 0.9628192782 
-5.520546913 7.471774578 -1.84990108 0.9628192782 
-5.847460747 7.21880579 -1.849898815 0.9628192782 
-6.162773132 6.95152092 -1.849895597 0.9628193974 
-6.4658885 6.670485497 -1.849891424 0.9628194571 
-6.75620079 6.376252174 -1.849886537 0.9628195167 
-7.102700233 6.129484653 -1.868201733 0.9624586701 
-7.748691082 6.10717535 -1.96461904 0.9605596662 
-8.419272423 5.497756004 -2.002291679 0.9598186016 
-9.42457962 3.504308939 -2.002233982 0.9598199129 
-9.571068764 3.081579447 -2.002220154 0.9598201513 
-10.01473618 0.8936449885 -2.002140284 0.959821701 
-10.04447746 0.4472582936 -2.002122402 0.9598221183 
-10.05435562 7.324218586e-06 -2.002104044 0.9598224163 
-10.0143652 -0.8935961723 -2.002065897 0.9598231912 
-9.964604378 -1.338181138 -2.002046347 0.9598235488 
-9.895112038 -1.780100107 -2.00202632 0.959823966 
-9.806025505 -2.218483925 -2.002005816 0.9598243833 
-9.423197746 -3.503840208 -2.001942873 0.9598255754 
-9.074296951 -4.327404499 -2.001899719 0.9598264098 
-8.872704506 -4.726716042 -2.001878262 0.9598269463 
-8.164380074 -5.865427017 -2.001813173 0.959828198 
-7.895292759 -6.222722054 -2.001791716 0.9598286152 
-7.310820103 -6.899680138 -2.0017488 0.9598294497 
-6.668525219 -7.522008896 -2.001706839 0.9598302245 
-6.327246189 -7.811115742 -2.001686335 0.9598306417 
-4.84405756 -8.807653427 -2.001607656 0.9598321915 
-4.447421551 -9.014340401 -2.001589298 0.9598325491 
-4.042001724 -9.203166008 -2.001571417 0.9598329067 
-3.207985878 -9.525827408 -2.001537085 0.9598335624 
-1.888352036 -9.748269081 -1.977241278 0.9603113532 
-1.44181633 -9.747973442 -1.96221602 0.9606069326 
1.616064429 -9.726696968 -1.963413596 0.9605833888 
2.518117666 -9.714040756 -1.998275876 0.959897697 
2.952341318 -9.607299805 -2.00137949 0.9598367214 
3.37677002 -9.46643734 -2.001374722 0.959836781 
3.794521332 -9.306836128 -2.001370907 0.9598369002 
4.204760551 -9.128818512 -2.001367807 0.9598369598 
4.606681824 -8.93272686 -2.001366138 0.9598369598 
5.754626274 -8.240112305 -2.001366138 0.9598369598 
7.122704983 -7.091088772 -2.001379728 0.9598367214 
8.003230095 -6.080041409 -2.001399517 0.9598363042 
8.265817642 -5.718002796 -2.0014081 0.959836185 
8.51204586 -5.34467268 -2.001417398 0.9598359466 
8.741408348 -4.960759163 -2.00142765 0.9598357677 
8.953478813 -4.567016602 -2.001438618 0.9598355293 
9.324076653 -3.753217697 -2.001463175 0.9598350525 
9.481863022 -3.334758282 -2.001476526 0.9598348141 
9.7408638 -2.47886467 -2.001505613 0.959834218 
9.841571808 -2.043112755 -2.001521349 0.95983392 
9.922795296 -1.603315353 -2.001537323 0.959833622 
9.984389305 -1.160336852 -2.001554251 0.9598332047 
10.04817581 -0.2683447301 -2.001589775 0.9598325491 
10.03244591 0.625805676 -2.001627207 0.9598318338 
9.994777679 1.07146728 -2.001646757 0.9598314166 
9.937301636 1.515068293 -2.001666784 0.959831059 
9.860177994 1.955639601 -2.00168705 0.9598306417 
9.763525009 2.39234376 -2.001707315 0.9598302245 
9.647536278 2.824323654 -2.001728296 0.9598298669 
9.512451172 3.25071764 -2.001749277 0.9598294497 
9.358527184 3.670671225 -2.001770735 0.9598290324 
9.186079025 4.08339119 -2.001792192 0.9598286152 
8.786987305 4.883784294 -2.001835346 0.9598277807 
8.318327904 5.645561218 -2.001878738 0.9598268867 
8.059044838 6.010068417 -2.001900434 0.9598264694 
6.641337872 6.495180607 -1.849801421 0.9628212452 
6.042575359 7.065378189 -1.851276517 0.9627921581 
5.72462368 7.3302145 -1.852036595 0.9627771378 
5.394992352 7.580561161 -1.852759004 0.9627629519 
4.692048073 8.016669273 -1.849668026 0.9628238678 
4.330830097 8.217531204 -1.849685431 0.9628235102 
3.972123861 8.425649643 -1.854882121 0.9627210498 
3.593037128 8.593158722 -1.854698777 0.9627246261 
2.814579964 8.876945496 -1.854375243 0.9627310634 
2.416733265 8.992682457 -1.854235649 0.9627338052 
1.198110342 9.232702255 -1.8539083 0.9627402425 
0.3727416992 9.301945686 -1.853768587 0.9627430439 
-0.04141113162 9.309094429 -1.853722811 0.962743938 
-1.280085444 9.220549583 -1.853681803 0.9627447128 
-1.689001441 9.154575348 -1.853700519 0.9627443552 
-1.873442292 8.112875938 -1.658016801 0.9666107297 
-4.404328346 8.179611206 -1.84990263 0.9628192186 
-5.113905907 7.755783558 -1.849902749 0.9628192186 
-5.453833103 7.520622253 -1.849901557 0.9628192782 
-5.782968521 7.270573616 -1.849899292 0.9628192782 
-6.100649357 7.0061059 -1.849896312 0.9628193974 
-6.991396427 6.142731667 -1.853206992 0.9627540708 
-7.614326 6.111877441 -1.944259644 0.960960269 
-8.113876343 5.939279556 -2.002302408 0.9598184824 
-8.369965553 5.57244873 -2.002293587 0.9598187804 
-8.609550476 5.194577694 -2.002283812 0.9598188996 
-8.832050323 4.806433201 -2.002273321 0.9598190784 
-9.224169731 4.002370358 -2.002249718 0.9598196149 
-9.393036842 3.588063955 -2.002236843 0.9598197937 
-9.674618721 2.738981962 -2.002208471 0.9598203897 
-9.952871323 1.426911592 -2.002160788 0.9598212838 
-10.00640583 0.9827465415 -2.00214386 0.9598216414 
-10.05396938 0.08945067972 -2.002107859 0.9598223567 
-9.976122856 -1.249475121 -2.002050161 0.9598235488 
-9.910575867 -1.691999435 -2.002030373 0.9598239064 
-9.720770836 -2.566086292 -2.001989126 0.9598246813 
-9.454032898 -3.419831514 -2.001947165 0.9598255157 
-9.112470627 -4.246467113 -2.001904249 0.9598263502 
-8.698788643 -5.039460182 -2.001860857 0.9598272443 
-8.465917587 -5.421369553 -2.001839161 0.9598276615 
-8.21627903 -5.79253149 -2.001817465 0.9598281384 
-7.668759823 -6.499723911 -2.001774311 0.9598289728 
-7.060546875 -7.155470848 -2.001731873 0.9598298073 
-6.045156002 -8.031306267 -2.001670122 0.9598309994 
-5.681865215 -8.29218483 -2.001650095 0.959831357 
-5.307321548 -8.536640167 -2.001630545 0.9598317742 
-4.527514458 -8.974399567 -2.001592875 0.9598324895 
-2.866916418 -9.633893967 -2.001523972 0.9598338604 
-2.434477568 -9.747685432 -2.000661612 0.9598508477 
-0.651452601 -9.745722771 -1.944980979 0.9609460831 
0.216772452 -9.740644455 -1.940119267 0.9610418081 
1.087241173 -9.732802391 -1.95013082 0.9608446956 
1.527436495 -9.72779274 -1.960813284 0.9606345296 
1.973224998 -9.722023964 -1.975402355 0.9603475332 
2.426391602 -9.715451241 -1.9940449 0.9599809051 
3.292380333 -9.49612999 -2.001375437 0.959836781 
4.123347282 -9.165885925 -2.001368523 0.9598369002 
4.526987076 -8.973383904 -2.001366377 0.9598369598 
6.395510197 -7.75326395 -2.00137043 0.9598369002 
7.059333324 -7.154184341 -2.001378536 0.9598367214 
7.370578289 -6.833132267 -2.00138402 0.9598366022 
7.667299747 -6.498471737 -2.001390696 0.959836483 
7.94878912 -6.151032448 -2.001397848 0.9598363042 
8.214594841 -5.791349888 -2.001406193 0.959836185 
8.696894646 -5.038361549 -2.001425505 0.9598358274 
8.912487984 -4.646493912 -2.001436472 0.9598355889 
9.110387802 -4.245492935 -2.001447916 0.9598353505 
9.290289879 -3.83602047 -2.001460552 0.9598351717 
9.451788902 -3.419018507 -2.001473904 0.9598348737 
9.594601631 -2.995168447 -2.001487732 0.9598345757 
9.908120155 -1.691577077 -2.001534224 0.959833622 
9.973642349 -1.249113798 -2.001550913 0.959833324 
10.01942158 -0.8042675853 -2.001568317 0.9598329663 
10.04536343 -0.3577319384 -2.001586199 0.9598326683 
10.05142784 0.08943358809 -2.001604557 0.9598323107 
10.00389671 0.982460916 -2.001642942 0.9598315358 
9.877182007 1.867746592 -2.001682758 0.9598307014 
9.540988922 3.165908098 -2.001744986 0.9598295093 
9.034996986 4.407809734 -2.001809597 0.9598282576 
8.607666016 5.193500996 -2.001852751 0.9598273635 
8.112182617 5.938107967 -2.001896143 0.959826529 
7.738483906 6.211557388 -1.975967646 0.9603363872 
6.698354244 6.435292721 -1.84965384 0.9628241658 
6.104719162 7.010717392 -1.851120114 0.9627952576 
5.789179325 7.278381348 -1.851887465 0.962780118 
5.461864948 7.531638145 -1.852617621 0.9627657533 
5.123300552 7.770065784 -1.853309035 0.9627521038 
3.284660578 8.714961052 -1.854562521 0.9627273679 
2.89353013 8.85168457 -1.854405046 0.9627304673 
2.496684551 8.970956802 -1.854262352 0.9627332687 
2.095043898 9.072502136 -1.854134798 0.9627357721 
-0.3726831079 9.30160141 -1.853697658 0.9627444148 
-0.7861205935 9.275725365 -1.85368073 0.9627447128 
-1.198002934 9.231567383 -1.853679895 0.9627447128 
-2.013806105 9.088781357 -1.853727221 0.9627438188 
-2.416130304 8.990448952 -1.853775024 0.9627428651 
-2.813803673 8.874362946 -1.853838801 0.9627416134 
-3.205881357 8.740802765 -1.853918314 0.9627400637 
-3.834482431 8.133688927 -1.790606618 0.9639892578 
-4.331377029 8.218471527 -1.849902272 0.9628192782 
-4.692646503 8.017684937 -1.849903107 0.9628192186 
-5.044694901 7.800978661 -1.849902868 0.9628192186 
-5.38667202 7.568874359 -1.849901795 0.9628192782 
-6.038051605 7.060139179 -1.849896908 0.9628193378 
-6.641621113 6.495505333 -1.849888563 0.9628195167 
-6.923998833 6.193586349 -1.84988308 0.9628196359 
-7.482646465 6.116452694 -1.924458861 0.9613500834 
-8.060673714 6.011271954 -2.002304077 0.959818542 
-8.320082664 5.646701336 -2.002295256 0.9598187208 
-8.788949966 4.884821892 -2.002275467 0.9598190784 
-8.997480392 4.489035606 -2.002264261 0.9598192573 
-9.360722542 3.671540499 -2.002239227 0.9598197937 
-9.64987278 2.824997425 -2.002211332 0.9598203301 
-9.862607002 1.95612061 -2.002180576 0.9598209262 
-9.997275352 1.07177484 -2.002147436 0.9598215818 
-10.03496075 0.625959456 -2.002129793 0.9598219395 
-10.05278778 0.1789868176 -2.002111673 0.9598222971 
-10.05069828 -0.2684106529 -2.002093077 0.9598226547 
-10.02870083 -0.7152661085 -2.002073765 0.959823072 
-9.986879349 -1.160622478 -2.002054214 0.9598234296 
-9.925263405 -1.603752375 -2.002034426 0.9598237872 
-9.843998909 -2.043620586 -2.002013922 0.9598242044 
-9.623212814 -2.910393 -2.001972437 0.9598249793 
-8.513856888 -5.345808029 -2.001843452 0.9598276019 
-8.004873276 -6.081227779 -2.001800299 0.9598283768 
-7.726308346 -6.43125248 -2.001778603 0.9598288536 
-6.801337719 -7.402189732 -2.001715183 0.9598300457 
-6.465282917 -7.69730711 -2.001694679 0.9598305225 
-5.7554636 -8.241301537 -2.001654148 0.9598312974 
-5.383076191 -8.489098549 -2.001634598 0.9598317146 
-3.794843674 -9.307741165 -2.001560688 0.9598331451 
-2.522219181 -9.729758263 -2.001511335 0.9598340988 
-1.176777363 -9.747470856 -1.955091357 0.9607471228 
-0.7387133837 -9.746078491 -1.946288586 0.9609203935 
0.1300903261 -9.741271973 -1.939937234 0.9610453844 
0.5639428496 -9.737841606 -1.942331791 0.9609982967 
0.9997436404 -9.733710289 -1.948455215 0.9608777165 
1.883561969 -9.723237038 -1.972167611 0.960411191 
2.335083008 -9.716828346 -1.98998332 0.9600607753 
2.780883789 -9.658327103 -2.001381636 0.9598366618 
3.207724571 -9.525060654 -2.00137639 0.959836781 
4.446977615 -9.01331234 -2.001366615 0.9598369002 
4.843473911 -8.806591988 -2.001365423 0.9598369598 
5.607028484 -8.341247559 -2.001365662 0.9598369598 
6.326208591 -7.80990696 -2.001369715 0.9598369002 
6.995397568 -7.21668911 -2.001377583 0.959836781 
8.162743568 -5.864199162 -2.001404524 0.959836185 
8.651721001 -5.115539551 -2.001423359 0.9598358274 
8.870737076 -4.725671291 -2.001434088 0.9598356485 
9.07224369 -4.326384068 -2.001445532 0.9598354101 
9.420986176 -3.502971172 -2.001471043 0.9598349333 
9.567539215 -3.08049798 -2.001484871 0.9598346353 
9.695178032 -2.651823759 -2.001499653 0.9598343372 
9.803612709 -2.217983246 -2.001514912 0.9598340392 
9.962097168 -1.337883234 -2.001547575 0.9598334432 
10.01185322 -0.8933691382 -2.001564741 0.9598330259 
10.05180931 2.441406195e-06 -2.001600981 0.9598323703 
10.04195499 0.4471874833 -2.001619577 0.959831953 
10.01221657 0.8934130669 -2.001638889 0.9598315954 
9.422358513 3.503483772 -2.001762152 0.9598291516 
9.257263184 3.919230938 -2.001783609 0.9598287344 
8.872475624 4.726603985 -2.001826763 0.9598278999 
7.877326488 6.20856905 -1.997234344 0.959918201 
6.754953384 6.375080585 -1.84954834 0.962826252 
6.46706295 6.671760082 -1.850236893 0.9628126621 
5.528237343 7.482177734 -1.85247457 0.9627684951 
4.109951019 8.330248833 -1.849695683 0.9628233314 
3.745546818 8.528181076 -1.854770422 0.9627232552 
3.362202168 8.685522079 -1.85459578 0.9627266526 
2.57650876 8.948498726 -1.854289651 0.9627327323 
1.770747066 9.140864372 -1.854043841 0.9627375603 
0.1242333949 9.308442116 -1.853739142 0.9627435803 
-0.2899145484 9.304567337 -1.853702903 0.9627442956 
-1.932778239 9.106320381 -1.853719592 0.962743938 
-2.336035013 9.011530876 -1.853764176 0.9627431035 
-3.127954006 8.768896103 -1.853901148 0.9627404213 
-3.515070677 8.621520996 -1.853993297 0.9627385736 
-4.258007526 8.256715775 -1.849902153 0.9628192782 
-4.621122837 8.059113503 -1.849903107 0.9628192782 
-5.652685642 7.372316837 -1.849900365 0.9628192782 
-5.974999905 7.113581181 -1.849897623 0.9628193378 
-6.285531998 6.840705395 -1.849894047 0.9628194571 
-6.583574295 6.554343224 -1.849889636 0.9628195167 
-6.868618011 6.254948616 -1.849884272 0.9628196359 
-8.006884575 6.082761288 -2.002305746 0.9598184824 
-8.515751839 5.346999168 -2.002287865 0.95981884 
-8.745101929 4.962907791 -2.002277613 0.9598190188 
-9.327710152 3.754680157 -2.00224185 0.9598197341 
-9.844839096 2.043791533 -2.002183676 0.9598208666 
-9.987401962 1.160671353 -2.002150774 0.9598213434 
-10.02898407 0.7152221799 -2.002133369 0.9598219991 
-10.05271435 -0.17898193 -2.002096653 0.9598225951 
-9.764955521 -2.392643929 -2.001997471 0.9598245025 
-9.513446808 -3.251013041 -2.001955509 0.9598253965 
-9.359306335 -3.670979023 -2.00193429 0.9598257542 
-9.186659813 -4.08359623 -2.001912832 0.9598261714 
-8.787118912 -4.883908749 -2.001869678 0.9598270655 
-8.561102867 -5.269860744 -2.001847982 0.9598274827 
-8.058661461 -6.009772778 -2.00180459 0.9598283768 
-7.783149242 -6.362257957 -2.001782894 0.9598290324 
-7.492465496 -6.702087402 -2.001761675 0.9598292112 
-6.866996765 -7.341344833 -2.001719475 0.9598299861 
-6.187197208 -7.922448635 -2.001678228 0.9598308206 
-5.458471775 -8.440847397 -2.001638412 0.9598315954 
-4.686557293 -8.892409325 -2.001600504 0.9598323703 
-3.877583027 -9.273591042 -2.001564264 0.9598330855 
-3.46116209 -9.436825752 -2.001547098 0.9598334432 
-3.03788805 -9.581388474 -2.001530409 0.9598337412 
-2.159831524 -9.748109818 -1.988197684 0.9600958228 
-1.70894289 -9.748234749 -1.970751286 0.9604389668 
-0.8260082603 -9.746408463 -1.9477458 0.9608917236 
0.9123046398 -9.734594345 -1.946929336 0.9609077573 
1.794094205 -9.72442627 -1.969087481 0.9604716897 
2.694767952 -9.682717323 -2.001382589 0.9598366618 
3.122856379 -9.553227425 -2.001377344 0.9598367214 
3.959560394 -9.237832069 -2.001369476 0.9598369002 
5.532592773 -8.390800476 -2.001365423 0.9598369598 
5.900407791 -8.136371613 -2.001366615 0.9598369598 
6.256469727 -7.865878582 -2.001369238 0.9598369002 
6.600222111 -7.57976532 -2.001372337 0.9598368406 
6.930849552 -7.278713226 -2.001376629 0.9598367214 
7.247812271 -6.963178635 -2.001381874 0.9598366618 
7.550387859 -6.633933067 -2.001387835 0.9598365426 
8.366295815 -5.569997311 -2.001411676 0.9598360658 
8.60580349 -5.192375183 -2.001421213 0.959835887 
9.033344269 -4.406994343 -2.001443386 0.9598354697 
9.389432907 -3.586647987 -2.00146842 0.9598349333 
9.539738655 -3.165488243 -2.001482248 0.9598346949 
9.671191216 -2.737971067 -2.001496792 0.9598343968 
10.05139351 -0.08942870796 -2.001597166 0.9598324299 
10.04551983 0.3577392399 -2.001615763 0.9598320723 
9.974164963 1.249186993 -2.001654863 0.9598312974 
9.908813477 1.691696763 -2.001674652 0.9598308802 
9.823862076 2.13078618 -2.001695156 0.9598304629 
9.71944046 2.565742016 -2.001715899 0.9598301053 
9.453134537 3.419514179 -2.00175786 0.9598292708 
9.111991882 4.246242523 -2.001800776 0.9598284364 
8.914155006 4.647463322 -2.001822472 0.9598280191 
8.698708534 5.039418697 -2.001844168 0.9598276019 
8.216567039 5.79273653 -2.00188756 0.9598267078 
7.950812817 6.152599812 -2.001909018 0.9598262906 
6.811398983 6.314711571 -1.849544287 0.9628263116 
5.916862488 7.172997952 -1.851584911 0.9627860785 
5.260043621 7.676508427 -1.853037238 0.9627574086 
4.915090084 7.905766487 -1.853704691 0.9627442956 
4.548676491 8.098917961 -1.849675059 0.9628237486 
3.439399242 8.65541935 -1.854629517 0.9627260566 
3.050668955 8.799086571 -1.8544662 0.9627292752 
2.656061888 8.925346375 -1.854317546 0.9627321959 
2.256201029 9.034032822 -1.854184031 0.9627348185 
1.852021456 9.124857903 -1.854065657 0.962737143 
1.444167495 9.197702408 -1.85396266 0.9627391696 
1.033574224 9.252404213 -1.853875399 0.9627408981 
0.6209130883 9.288864136 -1.853803873 0.9627423286 
-0.1798876971 8.083061218 -1.609964371 0.9675625563 
-0.6208739877 9.288266182 -1.853685379 0.9627446532 
-1.443955064 9.196342468 -1.853687406 0.9627445936 
-1.851672292 9.123122215 -1.853712559 0.9627441168 
-3.049785137 8.796298981 -1.853884578 0.9627407193 
-4.549240589 8.099909782 -1.849902868 0.9628192782 
-5.586816311 7.422365665 -1.849900723 0.9628192782 
-5.911479473 7.16646719 -1.849898219 0.9628192782 
-7.226884842 6.125246525 -1.88644433 0.9620990753 
-7.885888577 6.102360725 -1.98556149 0.9601477385 
-8.218261719 5.793928146 -2.00229907 0.9598186016 
-8.700614929 5.040519714 -2.002279758 0.9598189592 
-9.114081383 4.247219086 -2.002257109 0.9598194361 
-9.293945312 3.837526798 -2.002244473 0.9598196745 
-9.598110199 2.99626708 -2.002217293 0.9598202109 
-9.976650238 1.249494553 -2.002154112 0.9598214626 
-10.0222702 0.8044946194 -2.002136707 0.9598218203 
-10.04805183 0.3578295708 -2.002118826 0.9598221183 
-10.03990173 -0.5366382003 -2.002081633 0.9598228931 
-9.542020798 -3.166242599 -2.001959801 0.9598252773 
-9.222646713 -4.0017066 -2.001917124 0.9598261118 
-8.111777306 -5.937849045 -2.001808882 0.9598284364 
-7.839365005 -6.292692661 -2.001787424 0.9598294497 
-6.932060242 -7.279968262 -2.001723528 0.9598299265 
-6.601318359 -7.581022739 -2.001702785 0.9598303437 
-6.257451057 -7.867116451 -2.001682281 0.9598307014 
-5.533359051 -8.391964912 -2.001642466 0.9598315358 
-5.154494286 -8.629738808 -2.001622915 0.9598318934 
-4.765427113 -8.850378036 -2.00160408 0.9598324299 
-4.366987228 -9.053544998 -2.001585722 0.9598326683 
-3.959953547 -9.238752365 -2.001567841 0.9598329663 
-3.123102903 -9.553972244 -2.001533747 0.9598336816 
-2.250957012 -9.747998238 -1.992184877 0.9600175023 
-0.4774096608 -9.744926453 -1.942818403 0.9609886408 
0.8250781298 -9.73544693 -1.945554256 0.9609348178 
3.460869074 -9.436019897 -2.001373768 0.959836781 
5.457722187 -8.439689636 -2.001365423 0.9598369598 
5.827709675 -8.188586235 -2.001366377 0.9598369598 
6.86580801 -7.340085506 -2.001375675 0.959836781 
7.185512543 -7.02744627 -2.001380682 0.9598366618 
7.491059303 -6.700841904 -2.001386404 0.9598365426 
8.31640625 -5.644201756 -2.001409769 0.9598361254 
8.559262276 -5.268730164 -2.001419306 0.9598359466 
8.78523159 -4.882761002 -2.001429796 0.9598357081 
8.993766785 -4.487187386 -2.001441002 0.9598355293 
9.184545517 -4.082656384 -2.001452923 0.9598352313 
9.5111866 -3.250229359 -2.001479387 0.9598347545 
9.646406174 -2.823981762 -2.001493692 0.9598344564 
9.762565613 -2.392055511 -2.001508713 0.9598341584 
9.859372139 -1.95547843 -2.001524448 0.9598338604 
9.936684608 -1.514929175 -2.001540899 0.9598335624 
9.994325638 -1.071462393 -2.001557827 0.9598332047 
10.0321846 -0.6257836819 -2.00157547 0.9598328471 
10.04828548 0.2683520317 -2.001611948 0.9598321319 
9.923449516 1.603466749 -2.001670599 0.9598309994 
9.74186039 2.479162455 -2.001711607 0.9598301649 
9.483166695 3.335263491 -2.001753569 0.9598293304 
9.32552433 3.75380373 -2.001775026 0.9598289132 
9.149398804 4.16500473 -2.001796484 0.959828496 
8.955173492 4.56788826 -2.001817942 0.9598280787 
8.513930321 5.345856667 -2.001861572 0.9598272443 
8.00526619 6.081537724 -2.001904726 0.9598264098 
6.867341042 6.253788948 -1.849540353 0.9628264308 
6.583776474 6.554555416 -1.84994781 0.9628183842 
5.659601688 7.381467342 -1.852184296 0.9627742767 
4.9848876 7.861169338 -1.853574276 0.9627468586 
4.257519245 8.255764008 -1.849689007 0.9628235102 
3.896928549 8.460493088 -1.854844332 0.962721765 
2.735410213 8.901508331 -1.854346156 0.9627315998 
1.526032686 9.184575081 -1.853982091 0.962738812 
1.115864277 9.242921829 -1.853891611 0.9627406001 
0.7036132812 9.283026695 -1.853816986 0.9627420902 
-0.1243115216 9.308320045 -1.85371542 0.9627440572 
-0.5382128954 9.293444633 -1.853688955 0.9627445936 
-1.770424724 9.139201164 -1.853706121 0.962744236 
-2.175219774 9.051598549 -1.853744268 0.9627434611 
-3.361035109 8.682514191 -1.853954554 0.9627393484 
-3.744106293 8.524894714 -1.854056239 0.9627373219 
-4.119912148 8.350409508 -1.854173422 0.9627350569 
-4.476921082 8.140105247 -1.849902749 0.9628192186 
-4.834628582 7.932873249 -1.849903107 0.9628192782 
-5.520546913 7.471774578 -1.84990108 0.9628192782 
-5.847421646 7.218830585 -1.849898815 0.9628192782 
-6.162773132 6.95152092 -1.849895597 0.9628193974 
-7.10281229 6.129479885 -1.868209481 0.9624583721 
-8.166405678 5.866828442 -2.002300739 0.959818542 
-8.419272423 5.497756004 -2.002291679 0.9598186016 
-8.655439377 5.117736816 -2.002281666 0.9598188996 
-9.075932503 4.328146935 -2.002259493 0.9598193765 
-9.259423256 3.920143843 -2.002247095 0.9598196149 
-9.698608398 2.652765989 -2.002205372 0.9598204494 
-9.585859299 -0.4268383682 -2.002074718 0.9615507126 
-9.557290077 -0.8528198004 -2.00205636 0.9615510702 
-9.509799957 -1.277106881 -2.002037525 0.9615514278 
-9.133070946 -2.940578461 -2.001959085 0.961552918 
-8.835385323 -3.74060297 -2.001918316 0.9615536928 
-8.66015625 -4.129889965 -2.001897573 0.9615540504 
-8.467782974 -4.510993481 -2.001877069 0.9615544677 
-8.258651733 -4.883161545 -2.001856327 0.9615548253 
-8.033173561 -5.245651722 -2.001835823 0.9615552425 
-7.534989834 -5.938742638 -2.001794338 0.9615560174 
-6.677294731 -6.888600826 -2.001733541 0.9615572095 
-6.364194393 -7.178747177 -2.001713514 0.9615575671 
-5.351938248 -7.961713791 -2.001655579 0.96155864 
-4.623034477 -8.405730247 -2.001619101 0.9615592957 
-2.654150248 -9.218274117 -2.001535892 0.961560905 
-2.241359711 -9.327140808 -2.001521111 0.9615612626 
-1.824308991 -9.41754818 -2.001506805 0.9615614414 
-0.9800439477 -9.542289734 -2.001480579 0.9615619779 
-0.5545971394 -9.576386452 -2.00146842 0.9615621567 
0.2987426817 -9.587682724 -2.001446724 0.9615625739 
1.149697185 -9.523083687 -2.001428127 0.9615629315 
1.572175264 -9.462491989 -2.001420021 0.9615630507 
2.406945705 -9.285234451 -2.001406431 0.9615633488 
2.817629337 -9.16894722 -2.001400948 0.9615634084 
3.222697735 -9.034514427 -2.001396418 0.9615635276 
3.621362209 -8.882202148 -2.001392841 0.9615635872 
4.771359921 -8.321140289 -2.001387358 0.9615637064 
5.136791706 -8.100653648 -2.001387358 0.9615637064 
5.4920578 -7.864138126 -2.001388311 0.9615637064 
7.092052937 -6.458464146 -2.00140667 0.9615633488 
7.63807106 -5.802612305 -2.001420259 0.9615630507 
8.123644829 -5.100827694 -2.001437187 0.9615627527 
8.898615837 -3.581970215 -2.001481056 0.9615619779 
9.049199104 -3.182607412 -2.001493692 0.9615617394 
9.296391487 -2.365754366 -2.001521587 0.9615611434 
9.392497063 -1.949887633 -2.001536369 0.961560905 
9.470006943 -1.530151367 -2.001551867 0.961560607 
9.528783798 -1.107382774 -2.001567841 0.9615603089 
9.568688393 -0.6824169755 -2.00158453 0.9615599513 
9.589655876 -0.2560888529 -2.001601934 0.9615596533 
9.48383522 1.445913076 -2.001675129 0.9615582824 
9.410223961 1.866371989 -2.001694441 0.9615579247 
9.207280159 2.695419788 -2.001734018 0.9615571499 
9.078351974 3.102348566 -2.001754045 0.9615567923 
8.931452751 3.503149271 -2.001774311 0.9615564346 
8.766872406 3.897023916 -2.001795053 0.9615560174 
8.385976791 4.660903454 -2.0018363 0.9615552425 
7.938695908 5.387907505 -2.001877546 0.9615544677 
7.428544521 6.072297096 -2.001918793 0.9615536928 
6.056137562 6.474479675 -1.849775553 0.9644229412 
5.460791111 6.992348671 -1.851157308 0.9643968344 
5.146257401 7.231029987 -1.851846218 0.964383781 
4.477897644 7.650751591 -1.84965837 0.9644251466 
3.419838905 8.178913116 -1.84970665 0.9644241929 
3.052651405 8.323002815 -1.849721789 0.9644239545 
1.534628868 8.753896713 -1.854360819 0.9643363357 
1.143642545 8.813076019 -1.854271293 0.9643380046 
0.7504467368 8.854870796 -1.854197025 0.9643393755 
-0.03954589739 8.886030197 -1.854094028 0.9643413424 
-0.4347802699 8.875336647 -1.854065657 0.9643418789 
-0.8291552663 8.847147942 -1.854052544 0.9643421173 
-2.38262701 8.561039925 -1.854154944 0.96434021 
-3.851855278 7.985476017 -1.849880576 0.9644209146 
-4.88044405 7.401750088 -1.849882126 0.9644209146 
-5.204875469 7.177321434 -1.849880934 0.9644209146 
-7.483695984 6.007058144 -2.002289295 0.9615466595 
-7.743476391 5.668185711 -2.002281666 0.9615468383 
-8.42889595 4.587043285 -2.002254248 0.9615473151 
-8.624555588 4.207531452 -2.002243042 0.9615475535 
-8.803134918 3.819684982 -2.002231598 0.9615477324 
-9.107666016 3.022116661 -2.002206087 0.9615482688 
-9.233027458 2.61396718 -2.002192259 0.9615485072 
-9.340106964 2.200642109 -2.002177715 0.9615487456 
-9.428671837 1.782966256 -2.002162695 0.9615490437 
-9.581860542 0.5121411085 -2.002113581 0.9615499973 
-9.595077515 0.08539794385 -2.002096176 0.9615502954 
-9.564511299 -0.7677270174 -2.002059937 0.9615510106 
-9.520810127 -1.192434072 -2.00204134 0.9615513086 
-9.458247185 -1.614758253 -2.002022266 0.9615517259 
-9.376962662 -2.033874512 -2.002002716 0.9615520835 
-9.277118683 -2.448957443 -2.001982927 0.9615524411 
-9.022558212 -3.263742685 -2.001942635 0.961553216 
-8.868349075 -3.66182375 -2.001922369 0.9615536332 
-8.507616997 -4.435471058 -2.001881123 0.9615543485 
-7.84131813 -5.528185844 -2.001819134 0.9615555406 
-7.587563515 -5.871462345 -2.001798391 0.9615559578 
-6.738349438 -6.828913212 -2.001737356 0.9615571499 
-5.422590256 -7.913786411 -2.001659393 0.9615585208 
-5.065141678 -8.147089958 -2.001640797 0.9615588784 
-4.320903301 -8.564880371 -2.001604795 0.9615595937 
-3.542541504 -8.914868355 -2.00157094 0.9615601897 
-3.142399788 -9.063551903 -2.001554728 0.9615605474 
-1.487966299 -9.476459503 -2.001496077 0.9615616798 
-1.064929128 -9.533205032 -2.001483202 0.9615619183 
-0.6398022175 -9.571084023 -2.001470804 0.9615621567 
-0.2134057581 -9.590014458 -2.00145936 0.9615623355 
0.2134008706 -9.589961052 -2.00144887 0.9615625739 
0.6397875547 -9.570932388 -2.001438856 0.9615627527 
1.487905264 -9.476108551 -2.00142169 0.9615630507 
2.324230909 -9.306296349 -2.001407623 0.9615632892 
2.735908031 -9.193671227 -2.00140214 0.9615634084 
3.54217267 -8.914081573 -2.001393557 0.9615635872 
3.935202599 -8.747673035 -2.001390457 0.9615636468 
4.697119236 -8.363271713 -2.001387358 0.9615637064 
5.064496994 -8.146052361 -2.001387358 0.9615637064 
5.421853065 -7.912697792 -2.001388073 0.9615637064 
6.426811218 -7.120688438 -2.001395941 0.9615635276 
7.034294128 -6.521327972 -2.001405478 0.9615633488 
7.317446232 -6.2019701 -2.001411676 0.9615632892 
7.586118221 -5.870351315 -2.001418829 0.9615631104 
8.300067902 -4.808478832 -2.001445055 0.9615626335 
9.156794548 -2.858532667 -2.001504421 0.961561501 
9.374760628 -2.033396006 -2.00153327 0.961560905 
9.45600605 -1.614360332 -2.001548767 0.9615606666 
9.518539429 -1.192141056 -2.001564741 0.9615603089 
9.547387123 0.9376635551 -2.001652479 0.9615586996 
9.426445007 1.782546401 -2.001690626 0.9615579844 
9.23087883 2.613366604 -2.001729965 0.9615572691 
9.105578423 3.021425724 -2.001750231 0.9615569115 
8.962260246 3.423515558 -2.001770496 0.9615564942 
8.801183701 3.818842649 -2.001790762 0.9615561366 
8.622680664 4.206611156 -2.001811504 0.9615557194 
8.427114487 4.586074352 -2.001832008 0.9615553021 
7.986337662 5.317033768 -2.001873493 0.9615544677 
6.476096153 6.221799374 -1.873800874 0.9639692307 
6.113068581 6.41986084 -1.849640608 0.9644254446 
5.522380352 6.942932129 -1.851015329 0.9643995166 
5.210017204 7.184426308 -1.851711392 0.964386344 
4.887019157 7.411708832 -1.85237062 0.9643738866 
4.545807838 7.610588074 -1.849654794 0.9644252062 
4.202795506 7.805341721 -1.849671602 0.9644248486 
3.85145998 7.98463583 -1.849687815 0.9644246101 
3.126562357 8.295495033 -1.849718928 0.9644240141 
2.761972666 8.449257851 -1.854745388 0.9643290639 
1.61248529 8.739985466 -1.854380488 0.964335978 
1.222045898 8.80262661 -1.854287982 0.9643377066 
0.8292260766 8.847905159 -1.854210734 0.9643391371 
0.4347997904 8.87573719 -1.854148507 0.9643403292 
-0.3557812274 8.878876686 -1.854070067 0.9643418193 
-0.7503857017 8.854182243 -1.854053855 0.9643421173 
-1.14351809 8.812041283 -1.854053259 0.9643421173 
-1.421235323 8.107038498 -1.717335224 0.9669275284 
-2.30632329 8.581857681 -1.854143977 0.9643403888 
-2.685888529 8.471037865 -1.854204774 0.9643392563 
-3.052910089 8.323691368 -1.849874735 0.9644210339 
-3.420151234 8.179657936 -1.849877834 0.9644210339 
-3.780629873 8.019428253 -1.849880338 0.9644209743 
-4.133639812 7.84332037 -1.849881887 0.9644209146 
-4.478466511 7.651684284 -1.849882483 0.964420855 
-4.81438446 7.444892406 -1.849882364 0.9644209146 
-5.140790939 7.223361492 -1.849881291 0.9644209146 
-5.457021236 6.987521648 -1.849879384 0.9644209146 
-5.762451172 6.73784399 -1.849876642 0.9644209743 
-6.338466644 6.19898653 -1.849868774 0.9644211531 
-7.692724228 5.73688221 -2.002283335 0.9615467787 
-7.940273285 5.388981819 -2.002275229 0.9615469575 
-8.586776733 4.284118652 -2.002245426 0.9615474939 
-8.768798828 3.897888184 -2.002233982 0.9615477324 
-8.933456421 3.50393796 -2.002221584 0.9615479708 
-9.486088753 1.446257234 -2.002150059 0.9615493417 
-9.540966988 1.022829533 -2.002133846 0.9615495801 
-9.593945503 0.1707885712 -2.002099752 0.9615502357 
-9.591967583 -0.256149888 -2.002082109 0.9615505934 
-9.570976257 -0.6825854182 -2.002063751 0.961550951 
-9.531068802 -1.107648849 -2.002045155 0.961551249 
-8.900605202 -3.582766056 -2.001926422 0.961553514 
-7.639540672 -5.803713322 -2.001802683 0.9615558386 
-7.373730183 -6.137746334 -2.00178194 0.9615561962 
-5.837304592 -7.613171101 -2.001682281 0.9615581632 
-5.137453556 -8.101706505 -2.001644611 0.9615588188 
-4.396962643 -8.526098251 -2.001608372 0.9615595341 
-3.222939491 -9.035246849 -2.001557827 0.9615604877 
-2.817800283 -9.169599533 -2.001542091 0.9615607858 
-2.407097101 -9.285798073 -2.001526833 0.9615610838 
-1.991623521 -9.383610725 -2.001512527 0.9615613818 
-0.7249560356 -9.565021515 -2.001473188 0.9615620971 
-0.2987377942 -9.587756157 -2.001461506 0.9615622759 
0.5545873642 -9.57626152 -2.001440763 0.9615626931 
1.40351069 -9.488984108 -2.00142312 0.9615629911 
1.824226022 -9.417116165 -2.00141573 0.96156317 
3.857199669 -8.78235054 -2.001391172 0.9615636468 
4.244047642 -8.602069855 -2.001388788 0.9615636468 
4.62249279 -8.404750824 -2.001387596 0.9615637064 
4.991804123 -8.190795898 -2.001387358 0.9615637064 
5.70003891 -7.714733601 -2.001389265 0.9615636468 
6.975971699 -6.58367157 -2.001404285 0.9615633488 
7.790266037 -5.596650124 -2.001425028 0.9615629911 
8.031555176 -5.244596958 -2.001433611 0.9615628123 
8.658278465 -4.128996372 -2.001464128 0.9615622759 
8.83343029 -3.739777803 -2.001476049 0.9615620375 
8.991101265 -3.343154192 -2.001488447 0.961561799 
9.252780914 -2.530827522 -2.001515865 0.9615613222 
9.356276512 -2.116745472 -2.00153017 0.9615610242 
9.507534027 -1.276804209 -2.001561403 0.9615604281 
9.554992676 -0.852612257 -2.001577854 0.9615601301 
9.583713531 0.4267480373 -2.001630306 0.9615591168 
9.555334091 0.852658689 -2.001648664 0.9615587592 
9.508029938 1.276870131 -2.0016675 0.9615584612 
9.441911697 1.698581457 -2.001686573 0.961558044 
9.132099152 2.940270901 -2.001745939 0.9615569115 
8.992355347 3.343625307 -2.001766205 0.9615565538 
8.834799767 3.740358829 -2.001786709 0.9615561962 
8.258610725 4.883144379 -2.001848459 0.9615550041 
7.535429478 5.939101219 -2.001910686 0.961553812 
7.192182541 6.206645489 -1.982181191 0.961925447 
6.590065956 6.219458103 -1.890685678 0.9636505246 
5.273366451 7.137246132 -1.851575136 0.964388907 
4.613339901 7.569816589 -1.849651456 0.9644252658 
3.564855814 8.116718292 -1.849700451 0.9644243121 
3.200273275 8.267329216 -1.849715829 0.9644240737 
2.45935297 8.541710854 -1.854635477 0.9643311501 
1.690214753 8.725385666 -1.854400635 0.9643355608 
0.513774395 8.871566772 -1.854159832 0.9643400908 
0.1186230406 8.885407448 -1.854109764 0.9643410444 
-0.2521020472 8.090410233 -1.688885927 0.9674663544 
-1.721586823 8.111198425 -1.730106592 0.9666857123 
-2.229851007 8.601994514 -1.854133606 0.9643405676 
-2.610375881 8.494545937 -1.854191422 0.9643394947 
-3.347229004 8.209779739 -1.849877477 0.9644209743 
-3.70911622 8.052753448 -1.849879861 0.9644209743 
-4.410163403 7.691232681 -1.849882483 0.9644209146 
-4.747971058 7.487441063 -1.849882483 0.964420855 
-5.076313496 7.268815517 -1.84988153 0.9644209146 
-5.394611835 7.035802841 -1.849879861 0.9644209743 
-5.702255726 6.788864613 -1.849877238 0.9644209743 
-7.892011642 5.459431171 -2.002276897 0.9615469575 
-8.127031326 5.10294199 -2.002268076 0.9615470767 
-8.345937729 4.736335278 -2.002258301 0.9615472555 
-8.548315048 4.360383034 -2.002247572 0.9615474343 
-8.733769417 3.975778818 -2.002236366 0.9615476727 
-9.299462318 2.366530657 -2.002183676 0.9615487456 
-9.395468712 1.950505376 -2.002168655 0.9615489841 
-9.472866058 1.530612707 -2.002153158 0.9615492225 
-9.57125473 0.6826098561 -2.002120495 0.9615498781 
-9.592060089 0.2561645508 -2.002103329 0.9615501761 
-9.576708794 -0.5973901153 -2.002067327 0.9615508318 
-9.540551186 -1.022790551 -2.002048969 0.961551249 
-9.485517502 -1.446164489 -2.002029896 0.9615516067 
-9.411708832 -1.866662502 -2.002010584 0.9615519643 
-9.319267273 -2.283464193 -2.001991034 0.9615523219 
-9.208378792 -2.695729971 -2.001971006 0.9615526795 
-8.93215847 -3.503410578 -2.001930475 0.9615534544 
-8.767368317 -3.897258282 -2.001909971 0.9615538716 
-8.585234642 -4.283356667 -2.001889467 0.9615542889 
-8.386113167 -4.660978794 -2.001868963 0.9615546465 
-7.690903187 -5.735505104 -2.001806736 0.961555779 
-7.428071022 -6.071891785 -2.001786232 0.9615561962 
-5.562607288 -7.816037655 -2.001667023 0.9615584612 
-5.209362507 -8.055670738 -2.001648188 0.9615588188 
-4.472682953 -8.486647606 -2.001611948 0.9615594745 
-4.090700626 -8.677124023 -2.001594305 0.9615598321 
-3.700529814 -8.850437164 -2.001577377 0.9615602493 
-3.303229809 -9.006222725 -2.001561165 0.9615604281 
-2.899304152 -9.144174576 -2.001545191 0.9615607262 
-0.3840502799 -9.584726334 -2.00146389 0.9615622163 
0.04269042984 -9.592260361 -2.001452923 0.9615624547 
0.8950659037 -9.550412178 -2.001433372 0.9615628123 
2.158227444 -9.346205711 -2.001410246 0.9615632296 
2.571850538 -9.240912437 -2.001404285 0.9615634084 
3.382995605 -8.975720406 -2.001394987 0.9615635276 
4.547516823 -8.445551872 -2.001387835 0.9615637064 
5.280156136 -8.007951736 -2.001387596 0.9615637064 
5.631156921 -7.765158653 -2.001389027 0.9615636468 
6.614621639 -6.946586609 -2.001398325 0.9615635276 
7.205898285 -6.331223011 -2.001409054 0.9615632892 
7.48042202 -6.004433632 -2.00141573 0.96156317 
7.740143776 -5.665756702 -2.001423359 0.9615630507 
8.425510406 -4.585187912 -2.001451015 0.9615625143 
8.621184349 -4.20587635 -2.001461983 0.9615622759 
8.799795151 -3.818234682 -2.001473665 0.9615620971 
8.960986137 -3.423032045 -2.001486063 0.9615618587 
9.547016144 -0.9376074076 -2.001574516 0.9615601301 
9.592726707 -0.08536621183 -2.001608849 0.9615595341 
9.587116241 0.3414379954 -2.00162673 0.9615591764 
9.519003868 1.192202091 -2.001663685 0.9615584612 
9.375558853 2.033566952 -2.001702309 0.9615577459 
8.696154594 4.052465916 -2.00180316 0.9615558386 
8.507365227 4.435339451 -2.001823902 0.961555481 
7.841569424 5.528383732 -2.001885891 0.9615542889 
7.319321156 6.203581333 -2.001926899 0.9615535736 
6.226083755 6.309762955 -1.84955883 0.9644269943 
5.644201756 6.842475414 -1.850726724 0.9644049406 
5.017467976 7.322526455 -1.852111459 0.9643787742 
4.680520058 7.528459072 -1.849648118 0.9644253254 
2.535317421 8.519609451 -1.85466218 0.9643306136 
2.153679132 8.623358727 -1.854534507 0.9643329978 
1.378535151 8.779641151 -1.854323268 0.9643370509 
0.9865819812 8.831892014 -1.854239821 0.964338541 
0.1977001876 8.884030342 -1.854118586 0.9643409252 
-0.1798681617 8.083053589 -1.686951876 0.9675030708 
-0.9864843488 8.830986023 -1.854051828 0.9643421769 
-1.646081448 8.110156059 -1.726691246 0.9667503834 
-2.534658194 8.517379761 -1.854178548 0.9643397927 
-3.637292385 8.085451126 -1.849879384 0.9644209743 
-4.341564655 7.730190277 -1.849882364 0.964420855 
-4.68114233 7.529399395 -1.849882483 0.964420855 
-5.641611099 6.839333534 -1.849877834 0.9644210339 
-5.940263748 6.581604004 -1.849874735 0.9644210339 
-6.227143288 6.310827732 -1.849870563 0.9644210935 
-6.612568378 6.130402565 -1.881426454 0.9638254046 
-7.843105316 5.52946043 -2.002278566 0.9615469575 
-8.303476334 4.810436726 -2.002260208 0.9615471959 
-9.377763748 2.034045458 -2.002171755 0.9615488648 
-9.564819336 0.7677612305 -2.002123833 0.9615498185 
-9.58942318 0.3415209949 -2.002106667 0.9615501165 
-9.595019341 -0.08538329601 -2.002089262 0.9615505338 
-9.549296379 -0.9378491044 -2.002052546 0.9615511298 
-9.427968979 -1.782844186 -2.002014399 0.9615518451 
-9.232011795 -2.613679171 -2.00197506 0.9615526199 
-9.106513023 -3.021735668 -2.001954794 0.9615530372 
-8.801733017 -3.819069624 -2.001914263 0.9615537524 
-8.214838982 -4.956457615 -2.001852274 0.9615549445 
-7.207197189 -6.332365513 -2.001769781 0.9615564942 
-5.971894264 -7.508107662 -2.001689911 0.9615579844 
-4.548041821 -8.446517944 -2.001615286 0.9615594149 
-4.167761326 -8.640390396 -2.001597881 0.9615597725 
-3.383246899 -8.976484299 -2.001564264 0.9615603685 
-2.158271551 -9.34670639 -2.00151825 0.9615613222 
-1.740422368 -9.433405876 -2.001504183 0.961561501 
-1.319060087 -9.501422882 -2.001490831 0.9615617394 
-0.8950878978 -9.550629616 -2.001477957 0.9615619779 
-0.4693505764 -9.580937386 -2.001466274 0.9615622163 
1.23440671 -9.512475014 -2.001426458 0.9615629315 
2.074970722 -9.365041733 -2.001411438 0.9615632296 
2.489487171 -9.263444901 -2.001405239 0.9615633488 
2.899096727 -9.143510818 -2.001399994 0.961563468 
3.700288057 -8.849618912 -2.001392126 0.9615635872 
4.090285778 -8.676239967 -2.001389503 0.9615636468 
4.47217989 -8.485691071 -2.001388073 0.9615637064 
4.845226765 -8.278347015 -2.001387358 0.9615637064 
5.90396452 -7.559819221 -2.001390696 0.9615636468 
7.426691532 -6.070754051 -2.001414299 0.96156317 
7.68941164 -5.734406471 -2.00142169 0.9615630507 
7.936918736 -5.386708736 -2.001430035 0.9615628719 
9.077189445 -3.101948261 -2.001496315 0.9615616202 
9.206244469 -2.69510746 -2.001510143 0.9615613818 
9.317094803 -2.282932043 -2.001524448 0.9615610838 
9.48326683 -1.445817828 -2.001554966 0.9615605474 
9.538273811 -1.022551298 -2.001571417 0.9615602493 
9.591569901 -0.1707324237 -2.001605272 0.9615595937 
9.589757919 0.2561084032 -2.001622915 0.961559236 
9.568964958 0.682446301 -2.001641273 0.9615588784 
9.529215813 1.10744381 -2.00165987 0.9615585804 
9.393256187 1.950043917 -2.001698494 0.9615578651 
9.297307014 2.365991116 -2.001718044 0.9615574479 
9.182941437 2.777243614 -2.001737833 0.9615570903 
9.050395012 3.183034658 -2.001758337 0.9615567327 
8.546479225 4.359440804 -2.001819611 0.9615555406 
8.344182014 4.735358715 -2.001840353 0.9615551829 
7.890451431 5.458349705 -2.001881599 0.9615544081 
7.639912128 5.804001331 -2.001902342 0.9615539908 
7.374220848 6.138185978 -2.001922846 0.9615536332 
6.824203968 6.21455574 -1.925818324 0.9629877806 
5.998708248 6.52859354 -1.849909186 0.9644203782 
5.704416275 6.791440487 -1.850580454 0.964407742 
5.398752213 7.04119873 -1.851297975 0.9643941522 
4.409633636 7.690321922 -1.849661708 0.964425087 
3.708737612 8.051958084 -1.849694133 0.9644244313 
2.978461742 8.349858284 -1.849724889 0.9644238949 
1.456647873 8.767116547 -1.854341745 0.9643366933 
-0.5137475729 8.871100426 -1.854061723 0.9643419385 
-1.200825214 8.118635178 -1.712387323 0.9670212269 
-1.57084465 8.109110832 -1.723424435 0.966812253 
-2.076384306 8.640221596 -1.854114652 0.9643409848 
-2.458745003 8.539543152 -1.854166508 0.9643399715 
-2.836279154 8.422023773 -1.854233384 0.9643387198 
-3.56520009 8.117499352 -1.849878907 0.9644209743 
-3.922787905 7.950881004 -1.849881053 0.9644209146 
-4.613945007 7.570768833 -1.849882483 0.964420855 
-5.268554688 7.130705357 -1.849880576 0.9644209146 
-5.580532074 6.889274597 -1.84987855 0.9644209743 
-6.170732498 6.365988731 -1.849871516 0.9644210935 
-7.084799767 6.113972187 -1.952586055 0.962483108 
-7.53683567 5.940222263 -2.002288103 0.9615467191 
-7.79358387 5.599054813 -2.002280235 0.9615468979 
-8.034931183 5.246784687 -2.002271652 0.9615470171 
-8.260327339 4.884147644 -2.002262115 0.9615471959 
-8.661650658 4.1305933 -2.002240896 0.9615476131 
-9.359296799 2.117414474 -2.002174854 0.9615488648 
-9.59542942 2.441406195e-06 -2.0020926 0.9615504146 
-9.358466148 -2.117248535 -2.001998901 0.9615521431 
-9.254921913 -2.531428099 -2.001979113 0.9615525603 
-8.993124962 -3.34390378 -2.00193882 0.9615533352 
-8.66015625 -4.129880428 -2.001897573 0.9615541101 
-8.467782974 -4.510993481 -2.001877069 0.9615544677 
-7.791787148 -5.597751141 -2.001815081 0.9615556002 
-7.263261318 -6.267990589 -2.001773834 0.9615564346 
-6.364199162 -7.178742409 -2.001713514 0.9615575671 
-5.700854301 -7.715832233 -2.001674652 0.9615582824 
-5.351926327 -7.961713791 -2.001655579 0.96155864 
-4.244506836 -8.602980614 -2.001601458 0.9615596533 
-3.85758543 -8.783195496 -2.001584053 0.9615599513 
-3.463076115 -8.946029663 -2.001567602 0.9615601897 
-2.241354942 -9.32713604 -2.001521111 0.9615612626 
-1.82430172 -9.417546272 -2.001506805 0.9615614414 
-1.40356195 -9.489315987 -2.001493216 0.9615616798 
-0.9800415039 -9.542294502 -2.001480579 0.9615619779 
-0.5546020269 -9.576378822 -2.00146842 0.9615622163 
-0.1280566305 -9.591520309 -2.001457214 0.9615623951 
0.2987377942 -9.587685585 -2.001446724 0.9615625739 
1.14970696 -9.523083687 -2.001428127 0.9615629315 
1.572187424 -9.462485313 -2.001420021 0.9615630507 
1.99154532 -9.38314724 -2.001412868 0.9615632296 
4.012927055 -8.712304115 -2.00138998 0.9615635872 
4.771364689 -8.32113266 -2.001387358 0.9615637064 
5.8364501 -7.612055302 -2.001390219 0.9615636468 
6.169299126 -7.344907284 -2.001392841 0.9615635872 
6.489929199 -7.06321764 -2.001396656 0.9615635276 
7.092060566 -6.458454609 -2.00140667 0.9615633488 
7.638073444 -5.802597523 -2.001420259 0.9615631104 
7.888664246 -5.457116604 -2.001428366 0.9615629315 
8.123641968 -5.10082531 -2.001437187 0.9615627527 
8.34254837 -4.734431267 -2.001446962 0.9615625739 
8.544934273 -4.358654499 -2.001457453 0.9615623951 
9.049203873 -3.182595253 -2.001493692 0.9615617394 
9.181884766 -2.776928663 -2.001507282 0.9615614414 
9.392495155 -1.949887633 -2.001536369 0.961560905 
9.589655876 -0.256098628 -2.001601934 0.9615596533 
9.574636459 0.5972607136 -2.001637697 0.9615589976 
9.53868103 1.022595167 -2.001656055 0.96155864 
9.410229683 1.866376877 -2.001694441 0.9615578651 
9.207277298 2.695410013 -2.001734018 0.9615571499 
9.078349113 3.102341175 -2.001754045 0.9615567923 
8.76685524 3.897031069 -2.001795053 0.961556077 
8.584917068 4.283200741 -2.001815557 0.9615556598 
8.38597393 4.660903454 -2.0018363 0.9615552425 
7.938695908 5.387907505 -2.001877546 0.9615544677 
7.691249847 5.735778809 -2.001898289 0.9615540504 
7.428556919 6.07228756 -2.001918793 0.9615536928 
6.056128025 6.474492073 -1.849775553 0.9644228816 
5.764177322 6.739872932 -1.850432754 0.9644104838 
5.460791111 6.992343426 -1.851157308 0.9643968344 
4.477902889 7.65075922 -1.84965837 0.9644251466 
3.052646399 8.323004723 -1.849721789 0.9644239545 
2.686620951 8.473383904 -1.854717016 0.9643296003 
2.306872606 8.583886147 -1.854583859 0.9643321037 
1.922622085 8.677455902 -1.854465008 0.9643343687 
1.534628868 8.753896713 -1.854360819 0.9643363357 
0.7504491806 8.854872704 -1.854197025 0.9643393755 
-0.4347631633 8.875339508 -1.854065657 0.9643418789 
-2.382636547 8.561037064 -1.854154944 0.96434021 
-2.761196136 8.446865082 -1.854218841 0.9643390179 
-4.20324707 7.806232929 -1.849882007 0.9644209146 
-5.204870701 7.177321434 -1.849880934 0.9644209146 
-5.518984318 6.938679218 -1.849878907 0.9644209743 
-6.399599552 6.148332596 -1.85167098 0.9643871188 
-7.743485928 5.668171406 -2.002281666 0.9615468383 
-8.216543198 4.957463264 -2.002264261 0.9615471959 
-8.624555588 4.207517147 -2.002243042 0.9615475535 
-8.803134918 3.819684982 -2.002231598 0.9615477324 
-8.964277267 3.424284697 -2.0022192 0.9615480304 
-9.107666016 3.022116661 -2.002206087 0.9615482688 
-9.233027458 2.61396718 -2.002192259 0.9615485072 
-9.340097427 2.200646877 -2.002177715 0.9615487456 
-9.4286623 1.782971144 -2.002162695 0.9615491033 
-9.498549461 1.361784697 -2.002146959 0.9615494609 
-9.458247185 -1.614768028 -2.002022266 0.9615517259 
-9.376962662 -2.033889055 -2.002002716 0.9615520835 
-9.277109146 -2.448967218 -2.001982927 0.9615524411 
-9.022558212 -3.263742685 -2.001942635 0.961553216 
-8.696581841 -4.052663326 -2.001901865 0.9615539908 
-8.507616997 -4.435471058 -2.001881123 0.9615543485 
-8.301796913 -4.809474945 -2.00186038 0.9615547657 
-8.079550743 -5.173952579 -2.001839876 0.9615551829 
-7.587563515 -5.871447563 -2.001798391 0.9615559578 
-7.03554678 -6.522458553 -2.001757622 0.9615567327 
-6.738334656 -6.828927994 -2.001737356 0.9615571499 
-6.427826881 -7.121848106 -2.001717567 0.9615575075 
-5.065131664 -8.147091866 -2.001640797 0.961558938 
-4.697663307 -8.364267349 -2.001622677 0.961559236 
-3.935590744 -8.748537064 -2.001587629 0.9615599513 
-3.542541504 -8.914868355 -2.00157094 0.9615601897 
-3.142399788 -9.063556671 -2.001554728 0.9615605474 
-1.908061504 -9.400954247 -2.001509666 0.9615613818 
-1.487968683 -9.476457596 -2.001496077 0.9615616798 
-1.064946294 -9.533203125 -2.001483202 0.9615619183 
-0.2133862227 -9.590017319 -2.00145936 0.9615623355 
0.2134228498 -9.589961052 -2.00144887 0.9615625739 
1.487917423 -9.476108551 -2.00142169 0.9615630507 
1.907971144 -9.400507927 -2.001414061 0.96156317 
3.935204983 -8.747677803 -2.001390457 0.9615636468 
4.32043457 -8.563964844 -2.00138855 0.9615636468 
4.697109222 -8.363278389 -2.001387358 0.9615637064 
5.064489841 -8.146059036 -2.001387358 0.9615637064 
5.768466473 -7.66370821 -2.001389742 0.9615636468 
6.103669167 -7.399530888 -2.001392365 0.9615635872 
6.426828384 -7.120671272 -2.001395941 0.9615635276 
7.317451 -6.201960087 -2.001411676 0.9615632892 
7.839782715 -5.527099609 -2.001426697 0.9615629315 
8.300067902 -4.808469296 -2.001445055 0.9615626335 
8.505800247 -4.43451643 -2.001455307 0.9615623951 
8.694694519 -4.051782131 -2.001466513 0.9615622163 
9.020514488 -3.263015032 -2.00149107 0.9615617394 
9.156794548 -2.858544827 -2.001504421 0.961561501 
9.374752998 -2.033410549 -2.00153327 0.9615609646 
9.455998421 -1.61438477 -2.001548767 0.9615606666 
9.586984634 -0.3414111137 -2.001598358 0.9615597129 
9.592765808 0.08539061993 -2.001615763 0.9615593553 
