# .PCD v0.7 - Point Cloud Data file format
VERSION 0.7
FIELDS x y z intensities
SIZE 4 4 4 4
TYPE F F F F
COUNT 1 1 1 1
WIDTH 924
HEIGHT 1
VIEWPOINT 0 0 0 1 0 0 0
POINTS 924
DATA ascii
-1.813979506 7.263327599 -1.850060582 0.9696244001 
-2.452570677 7.073786259 -1.850177288 0.9696224928 
-3.071760178 6.828219891 -1.850288749 0.9696207047 
-3.372531652 6.685026646 -1.850342155 0.9696198106 
-3.666703939 6.528549671 -1.85039413 0.9696189761 
-4.232666016 6.177153111 -1.850492358 0.9696174264 
-4.62687254 6.14703846 -1.901299596 0.9687963724 
-5.058744907 6.132699966 -1.964596391 0.9677744508 
-5.430988789 6.017336369 -2.003117085 0.9671530128 
-5.693405628 5.769889832 -2.003160238 0.9671524167 
-5.944536209 5.5110569 -2.003201008 0.9671517015 
-6.183932781 5.241232872 -2.003239155 0.967151165 
-6.411046982 4.961076736 -2.003274679 0.967150569 
-7.014660358 4.063786507 -2.003364563 0.9671491385 
-7.188591003 3.747746468 -2.003388882 0.9671487212 
-7.348264217 3.424328566 -2.003410339 0.9671483636 
-7.623654842 2.757726908 -2.003444195 0.9671478271 
-7.922985554 1.718483806 -2.00347209 0.9671474099 
-8.068229675 -0.7923608422 -2.003429174 0.9671480656 
-8.024914742 -1.150505304 -2.003410578 0.9671483636 
-7.965705395 -1.506359816 -2.00338912 0.9671486616 
-7.890715122 -1.859152794 -2.00336504 0.9671491385 
-7.694025517 -2.553044319 -2.003307819 0.9671500325 
-7.285363674 -3.554235697 -2.003201485 0.9671517611 
-7.119914532 -3.874689817 -2.003160715 0.9671524167 
-6.747062683 -4.491965294 -2.003072023 0.9671538472 
-6.540392876 -4.787565708 -2.003024101 0.9671546221 
-6.088684082 -5.34965086 -2.00292182 0.9671562314 
-5.844560623 -5.61502409 -2.002867699 0.9671570659 
-5.322052956 -6.111911297 -2.002753735 0.9671589732 
-4.460793495 -6.765295029 -2.002570629 0.9671618938 
-3.192067862 -7.447236061 -2.002308846 0.9671661258 
-2.85749507 -7.581613541 -2.002240896 0.9671672583 
-2.172199726 -7.805038929 -2.002103567 0.9671694636 
-1.822822213 -7.893666744 -2.002034426 0.9671705365 
0.32427001 -8.093219757 -2.001618147 0.9671772718 
0.6839770079 -8.070502281 -2.001550198 0.9671784043 
1.042299747 -8.031813622 -2.001482725 0.9671794772 
2.101811409 -7.820864201 -2.00128603 0.9671826363 
2.447585344 -7.719372272 -2.00122261 0.9671836495 
2.788432598 -7.602629185 -2.00116086 0.9671846628 
3.452897787 -7.324267387 -2.001041651 0.9671866298 
3.775214672 -7.163205624 -2.000984669 0.9671875238 
4.089982986 -6.988002777 -2.000929356 0.9671884179 
4.396698952 -6.798947811 -2.00087595 0.9671892524 
4.694638729 -6.596491337 -2.00082469 0.9671900868 
4.983327389 -6.380951881 -2.000775576 0.9671908617 
5.262096882 -6.1528368 -2.000728607 0.9671916366 
5.530480862 -5.912509441 -2.000684261 0.9671923518 
5.787870884 -5.660551548 -2.000642061 0.9671930075 
6.033847332 -5.397348404 -2.000602484 0.9671936631 
6.267875671 -5.123476505 -2.000565529 0.9671942592 
6.698220253 -4.545971394 -2.000499487 0.9671953321 
6.893693924 -4.243474007 -2.000470638 0.9671958089 
7.396916389 -3.288032055 -2.000401497 0.9671969414 
7.535778522 -2.955746889 -2.000384092 0.9671971798 
7.76856184 -2.274247885 -2.000359058 0.967197597 
7.939899921 -1.574780226 -2.000345945 0.9671977758 
8.002084732 -1.219982862 -2.000344038 0.9671978354 
8.048444748 -0.8628491163 -2.00034523 0.9671977758 
8.093324661 -0.1441040039 -2.000356913 0.967197597 
8.091765404 0.2160986215 -2.000367641 0.9671974182 
8.040658951 0.9344457984 -2.000397444 0.9671969414 
7.925947189 1.645427227 -2.000439644 0.9671962857 
7.509840965 3.022929668 -2.000557899 0.9671943784 
7.368061543 3.354099035 -2.000594378 0.9671937823 
6.447050571 4.897763729 -2.000814199 0.9671902657 
6.222934246 5.179870605 -2.000864983 0.9671894312 
5.986540318 5.451674461 -2.000917673 0.9671885967 
5.738237381 5.712763309 -2.000972748 0.9671877027 
5.478559494 5.962555885 -2.001029253 0.9671868086 
5.198151588 6.188703537 -1.997273922 0.9672473669 
4.752533913 6.198432446 -1.930198669 0.968329668 
4.006684303 6.318537235 -1.848920822 0.969642818 
3.130375862 6.796257019 -1.84910202 0.9696398973 
2.825021982 6.92902565 -1.849164128 0.9696388841 
2.198151827 7.153173447 -1.849290252 0.9696368575 
1.226674795 7.382871151 -1.849482536 0.9696336985 
0.2331054658 7.481232643 -1.849675298 0.969630599 
-0.4327782989 7.472858906 -1.849802375 0.9696285129 
-0.7648266554 7.446452618 -1.849865079 0.9696275592 
-1.09531486 7.405317307 -1.849927187 0.9696265459 
-1.423727989 7.349494457 -1.849988341 0.9696255922 
-1.74927485 7.27913332 -1.850048661 0.969624579 
-2.389460325 7.095297813 -1.850165844 0.9696227312 
-2.702831984 6.982187271 -1.850222588 0.9696217775 
-3.010807991 6.855268478 -1.850277781 0.9696208835 
-3.312905312 6.714728832 -1.850331664 0.9696199894 
-3.608395815 6.560907841 -1.850383878 0.9696191549 
-4.177463055 6.214565277 -1.850482941 0.9696175456 
-4.543766975 6.149716854 -1.889549375 0.9689861536 
-4.970058441 6.135703087 -1.951300025 0.9679890275 
-5.641818523 5.820288181 -2.003151894 0.9671525359 
-5.895258427 5.563698769 -2.003192902 0.9671518207 
-6.137053013 5.29602766 -2.003231525 0.9671512246 
-6.366652489 5.017907619 -2.003267527 0.9671506286 
-6.583673954 4.72978735 -2.003301144 0.9671501517 
-6.978205204 4.126032829 -2.003359556 0.9671491981 
-7.154914379 3.811604023 -2.003384352 0.9671487808 
-7.317482948 3.489567757 -2.003406286 0.9671484232 
-7.465524673 3.160661459 -2.00342536 0.9671481252 
-7.979142666 1.435417414 -2.003474951 0.9671473503 
-8.035090446 1.079094172 -2.003475666 0.9671473503 
-8.099172592 0.3605981469 -2.00346756 0.9671474695 
-7.800041199 -2.441406195e-06 -2.003400087 0.9683004618 
-7.730480671 -1.038156748 -2.00335741 0.9683011174 
-7.523259163 -2.057775736 -2.003289223 0.9683021903 
-7.424167156 -2.3903687 -2.003260851 0.9683026075 
-7.182096958 -3.040656567 -2.003196001 0.9683036804 
-6.333464146 -4.550060749 -2.002991199 0.9683068395 
-6.124640942 -4.82717514 -2.002943516 0.9683075547 
-5.903706074 -5.094718933 -2.002893686 0.9683083296 
-5.671081543 -5.35215807 -2.002841949 0.968309164 
-5.42724371 -5.598974705 -2.002788305 0.9683099985 
-4.057384968 -6.657573223 -2.002496481 0.9683145285 
-3.757102013 -6.831264496 -2.002434254 0.9683154821 
-3.449389458 -6.99140358 -2.002370834 0.9683164954 
-2.8141675 -7.269850731 -2.002241373 0.968318522 
-1.48234129 -7.652235985 -2.001976013 0.9683226347 
-1.140437007 -7.710343838 -2.001909018 0.9683237076 
-0.4506005645 -7.78067112 -2.001775265 0.9683257937 
0.2427123934 -7.789411545 -2.001642227 0.9683278203 
0.9340087771 -7.736503601 -2.001511574 0.9683299065 
1.277197242 -7.687050819 -2.001447439 0.9683308601 
1.955239177 -7.542638779 -2.001321793 0.9683328271 
3.259423733 -7.076455116 -2.00108552 0.9683365226 
3.875270844 -6.758386135 -2.000976801 0.9683381915 
4.460385799 -6.386887074 -2.000875473 0.9683397412 
4.739970684 -6.182001591 -2.000827789 0.9683405161 
5.010165691 -5.964890003 -2.000782251 0.9683412313 
5.520261288 -5.495754242 -2.000697851 0.9683425426 
5.759155273 -5.244653225 -2.000659227 0.9683431387 
5.986650467 -4.983176231 -2.000623226 0.9683436751 
6.596335411 -4.141833305 -2.000530243 0.9683451653 
7.088676453 -3.22690177 -2.000462055 0.9683462381 
7.225141525 -2.908356905 -2.000445127 0.9683464766 
7.454948425 -2.254646063 -2.000419378 0.9683468938 
7.625783443 -1.583117604 -2.000405788 0.9683470726 
7.688649654 -1.242331505 -2.000403404 0.9683471322 
7.768654823 -0.5540453792 -2.000407457 0.9683470726 
7.787214279 0.1386206001 -2.000423431 0.9683468342 
7.773383617 0.4848876894 -2.000435829 0.9683466554 
7.699650764 1.17388916 -2.000469446 0.9683461189 
7.475172997 2.188342333 -2.000540972 0.9683449864 
7.251315594 2.844155312 -2.000602484 0.9683440328 
6.970073223 3.477514505 -2.000674009 0.9683429599 
6.808620453 3.784204006 -2.000713587 0.9683423042 
6.633678913 4.083422661 -2.00075531 0.9683416486 
6.244777679 4.657058239 -2.000846148 0.9683402777 
6.03157711 4.930368423 -2.000894308 0.9683395028 
4.79561758 6.140610218 -2.001164913 0.9683352113 
4.40698719 6.192280293 -1.9521209 0.969099164 
3.356484413 6.368735313 -1.849046588 0.9707066417 
2.777326584 6.642280102 -1.849165201 0.9707047939 
2.479187012 6.759469986 -1.849225402 0.9707038403 
2.176118135 6.863286018 -1.849286318 0.9707028866 
1.868723154 6.953522682 -1.849347591 0.9707019329 
1.557602525 7.030004501 -1.849409342 0.9707009792 
0.2883325219 7.195678711 -1.849656582 0.9706971049 
-0.03205078095 7.201621056 -1.849718094 0.9706961513 
-0.3523852527 7.19329834 -1.84977901 0.9706951976 
-0.9903954864 7.133981705 -1.849899411 0.9706932902 
-2.238137245 6.84676981 -1.850129843 0.970689714 
-2.837975979 6.621132851 -1.850238204 0.970688045 
-3.129785061 6.488523006 -1.850290298 0.9706872106 
-3.415424824 6.343039513 -1.850340843 0.9706864357 
-5.121349812 5.881437778 -2.003053904 0.9683058858 
-5.624067307 5.403203011 -2.003136635 0.9683045149 
-5.858935356 5.147770882 -2.003174305 0.968304038 
-6.082248211 4.882141113 -2.003209591 0.968303442 
-6.492307186 4.322365761 -2.003272057 0.9683024287 
-6.678249359 4.02933836 -2.003299475 0.9683020115 
-6.850959301 3.728317738 -2.003324032 0.9683016539 
-7.010099888 3.419904709 -2.00334549 0.9683012962 
-7.286442757 2.783371449 -2.003380537 0.9683007598 
-7.72115469 1.106945753 -2.0034163 0.9683002234 
-7.762741566 0.7623901367 -2.003414631 0.968300283 
-7.622482777 -1.653322697 -2.003319502 0.9683017135 
-7.541291237 -1.990739703 -2.003294468 0.9683021307 
-7.334294319 -2.653049231 -2.003236294 0.9683030248 
-7.06922102 -3.294308901 -2.003167391 0.9683040977 
-6.915549278 -3.605441809 -2.003129244 0.9683046937 
-6.748180866 -3.909430981 -2.003088713 0.9683053493 
-5.948840141 -5.04199934 -2.002903938 0.9683082104 
-5.71851778 -5.301501274 -2.00285244 0.9683089852 
-5.224406719 -5.788461685 -2.002744198 0.9683107138 
-4.688979626 -6.229543209 -2.00262928 0.9683125019 
-4.116503716 -6.621242523 -2.002508879 0.9683143497 
-3.198293447 -7.109567642 -2.002319336 0.9683172703 
-2.87877202 -7.244565487 -2.002254486 0.9683182836 
-2.223347187 -7.471264362 -2.002122879 0.9683203697 
-1.550392985 -7.638796329 -2.001989365 0.9683224559 
-0.5198315382 -7.776408672 -2.001788378 0.9683255553 
-0.1733837873 -7.791574478 -2.001721859 0.9683265686 
0.865124464 -7.744565487 -2.001524687 0.968329668 
1.208745122 -7.698161602 -2.001460314 0.9683306813 
1.549936533 -7.63653326 -2.001396656 0.968331635 
1.888044357 -7.559794903 -2.00133419 0.9683326483 
2.222397327 -7.468095303 -2.001272917 0.968333602 
3.196337938 -7.105224609 -2.001096964 0.9683363438 
3.509140491 -6.955810547 -2.001041174 0.9683371782 
4.113266468 -6.616034985 -2.000935316 0.9683388472 
4.40339613 -6.426357269 -2.000885248 0.968339622 
4.956899166 -6.00926733 -2.000791073 0.9683411121 
5.219199181 -5.782692909 -2.000747442 0.9683417678 
5.71227026 -5.295715332 -2.000666857 0.9683430195 
6.559233189 -4.200383186 -2.000535727 0.968345046 
6.739494324 -3.904399395 -2.000509739 0.9683454633 
6.906437874 -3.600690842 -2.000486374 0.9683458209 
7.059692383 -3.28986311 -2.00046587 0.9683461785 
7.324038029 -2.649340868 -2.000433207 0.9683466554 
7.434589863 -2.320903301 -2.000421524 0.9683468342 
7.530444145 -1.987880826 -2.000412464 0.9683469534 
7.727995396 -0.9678906202 -2.000403643 0.9683471322 
7.763412952 -0.6231665015 -2.000406504 0.9683470726 
7.77737999 0.4156933427 -2.000433207 0.9683466554 
7.709787369 1.10531497 -2.000465631 0.9683461189 
7.653059006 1.447194815 -2.000486135 0.9683458209 
7.494333267 2.121718645 -2.000535488 0.968345046 
7.392631531 2.453024864 -2.000564337 0.9683446288 
7.276313305 2.779496908 -2.000595808 0.968344152 
7.145580769 3.100478411 -2.000629902 0.9683436155 
7.000727177 3.415339231 -2.00066638 0.9683430195 
6.841997147 3.723439932 -2.000705481 0.9683424234 
6.66973114 4.024199009 -2.000746965 0.9683417678 
6.48425293 4.317011833 -2.000790596 0.9683411121 
6.285949707 4.601288795 -2.000836611 0.9683403969 
6.075192928 4.876469612 -2.000884771 0.968339622 
5.852397442 5.142016411 -2.000934601 0.9683388472 
5.116344929 5.875693321 -2.001096249 0.9683363438 
4.489291668 6.190556526 -1.964096665 0.9689126015 
3.709543467 6.210534573 -1.858027816 0.9705664515 
3.127766132 6.484316349 -1.849093556 0.9707059264 
2.836308479 6.617253304 -1.849153042 0.9707049727 
2.539223671 6.737092018 -1.849213243 0.9707040191 
2.237097025 6.843605995 -1.849274039 0.9707030654 
0.9901830554 7.132519245 -1.849520683 0.9706992507 
0.6719482541 7.169748306 -1.849582434 0.9706982374 
0.03204345703 7.201569557 -1.849705815 0.9706963897 
-1.243705988 7.094391823 -1.849946737 0.970692575 
-1.558107853 7.032268047 -1.85000515 0.9706916809 
-1.869445801 6.956208229 -1.85006249 0.9706907868 
-2.177099466 6.866374493 -1.850118876 0.9706898928 
-2.480458975 6.762927055 -1.85017395 0.9706890583 
-2.778930664 6.646086216 -1.850227594 0.9706882238 
-3.639099121 6.2175951 -1.850380063 0.9706858397 
-4.37127924 6.14209938 -1.936302423 0.9693456888 
-4.786010742 6.128322601 -1.997161388 0.9683976173 
-5.068876743 5.926750183 -2.003045082 0.9683057666 
-5.327517033 5.695541859 -2.003088236 0.9683053493 
-5.575715065 5.45302248 -2.003128767 0.9683046937 
-6.038547039 4.936047077 -2.003202677 0.9683035612 
-6.453557014 4.379963398 -2.003266335 0.9683025479 
-7.380929947 2.5222826 -2.003391266 0.968300581 
-7.575969219 1.856306076 -2.003409624 0.968300283 
-7.755656719 0.8314330578 -2.003415108 0.9683002234 
-7.798820496 0.1388305575 -2.003403664 0.9683004022 
-7.780207157 -0.5548803806 -2.003380775 0.9683007598 
-7.636906624 -1.585427165 -2.00332427 0.9683016539 
-7.55873251 -1.923566818 -2.003299713 0.9683020115 
-7.357638836 -2.587687969 -2.003242493 0.9683029056 
-7.098293304 -3.231281757 -2.003174782 0.9683039784 
-6.782736778 -3.849235773 -2.003096819 0.9683051705 
-6.413498402 -4.43665266 -2.003009796 0.9683065414 
-5.765505314 -5.250427246 -2.002862692 0.9683088064 
-5.526091099 -5.501552582 -2.002810001 0.9683096409 
-4.744269848 -6.187604904 -2.002641201 0.9683122635 
-4.175295353 -6.584389687 -2.002521276 0.9683141112 
-3.878139496 -6.76339817 -2.002459288 0.9683151245 
-3.573325157 -6.928988934 -2.002396345 0.9683161378 
-1.618320227 -7.624745846 -2.002002716 0.9683222175 
-1.277504802 -7.688930511 -2.00193572 0.9683232903 
-0.9341747761 -7.737895489 -2.001868963 0.9683243036 
-0.5890234113 -7.771530628 -2.001801968 0.9683253169 
0.4505639672 -7.779999733 -2.001602888 0.968328476 
1.820705533 -7.576342583 -2.001346588 0.9683324099 
2.155856848 -7.487614632 -2.001285076 0.9683334231 
3.447118998 -6.986804008 -2.001052141 0.9683369994 
3.754406691 -6.826359749 -2.00099802 0.9683378935 
4.054247856 -6.65241909 -2.000945568 0.9683386683 
4.346045017 -6.465317249 -2.000895023 0.9683395028 
4.62923336 -6.265444279 -2.000846624 0.9683402181 
4.903249264 -6.053178787 -2.000800133 0.9683409333 
5.167555809 -5.828938007 -2.000756025 0.968341589 
5.421620846 -5.593176365 -2.000714064 0.9683423042 
5.664938927 -5.346364498 -2.000674486 0.9683429003 
5.897050858 -5.08897686 -2.000637293 0.9683434963 
6.521606445 -4.258603573 -2.000541449 0.9683449864 
6.704504013 -3.964233398 -2.000514746 0.9683454037 
6.874123573 -3.662019014 -2.000490904 0.9683457613 
7.030156136 -3.352565765 -2.000469685 0.9683460593 
7.172260761 -3.036501408 -2.000451565 0.9683463573 
7.300173283 -2.714423656 -2.000436068 0.9683466554 
7.665322304 -1.378981948 -2.000404119 0.9683471322 
7.71907711 -1.036630869 -2.000403404 0.9683471322 
7.757553577 -0.6922216415 -2.000405788 0.9683470726 
7.780688286 -0.3464575112 -2.000411034 0.968347013 
7.780764103 0.3464575112 -2.000430584 0.968346715 
7.757714748 0.6922485232 -2.000444651 0.9683464766 
7.665624619 1.379030704 -2.000481844 0.9683458805 
7.596782207 1.718676686 -2.000504494 0.9683455229 
7.512895107 2.054939032 -2.000530005 0.9683451653 
7.172873497 3.036745548 -2.000622749 0.9683437347 
7.030822754 3.352883339 -2.000658751 0.9683431387 
6.874838829 3.662395 -2.000697374 0.9683425426 
6.705246449 3.964672804 -2.000738382 0.9683419466 
6.522389889 4.259111404 -2.000781775 0.9683412313 
6.326618671 4.545136452 -2.000827074 0.9683405161 
5.897895336 5.089706898 -2.000924587 0.968339026 
5.168395996 5.829899788 -2.001085043 0.9683365226 
3.469257832 6.307905197 -1.849023342 0.9707069993 
3.185327053 6.456188679 -1.849081874 0.9707061052 
1.992155671 6.919067383 -1.849323034 0.9707023501 
1.369401813 7.06922102 -1.849446416 0.9707003832 
0.7357202172 7.163442135 -1.849570155 0.9706984162 
-0.2242993116 7.198342323 -1.849754691 0.9706955552 
-0.5443041921 7.18147707 -1.849815488 0.9706946015 
-1.180507779 7.10513401 -1.849934936 0.9706927538 
-1.807458401 6.972528934 -1.850051045 0.9706909657 
-2.420158625 6.784701824 -1.850162864 0.9706891775 
-3.013774395 6.543122292 -1.850269556 0.9706875682 
-3.58359623 6.249704361 -1.850370288 0.9706859589 
-3.904138088 6.156750202 -1.872465014 0.9703412056 
-5.276594162 5.742697716 -2.003079891 0.9683054686 
-5.766349792 5.251203537 -2.003159523 0.9683042169 
-6.414299011 4.437199593 -2.003260374 0.9683026671 
-7.098937988 3.231569767 -2.00335741 0.9683011174 
-7.235729694 2.912614584 -2.003374338 0.9683008194 
-7.358224869 2.587863684 -2.003388643 0.9683005214 
-7.559143066 1.923654795 -2.003408194 0.9683003426 
-7.637258053 1.585490704 -2.003413916 0.9683002234 
-7.797277451 0.2082299739 -2.003405333 0.9683004022 
-7.798771858 -0.1388403326 -2.003396034 0.968300581 
-7.650734901 -1.51741457 -2.003328562 0.9683015943 
-7.485402584 -2.191330433 -2.003278255 0.9683023691 
-7.260783672 -2.847863674 -2.003216743 0.9683033824 
-7.12678957 -3.167985678 -2.003181934 0.9683038592 
-6.641335487 -4.08813715 -2.003063202 0.968305707 
-6.452765942 -4.379426003 -2.003018856 0.9683063626 
-6.251423359 -4.662014008 -2.002972364 0.9683071375 
-6.037692547 -4.935368538 -2.002923727 0.9683079123 
-5.812033653 -5.198933125 -2.002873182 0.9683086276 
-5.0679245 -5.925776005 -2.002710342 0.9683111906 
-4.799179554 -6.145173073 -2.002652884 0.9683120847 
-4.233752251 -6.547006607 -2.002533436 0.9683139324 
-3.634880304 -6.896962643 -2.002408981 0.9683158994 
-2.355993509 -7.43061018 -2.002149343 0.9683199525 
-2.023056507 -7.527800083 -2.002082825 0.9683209658 
-1.686132789 -7.610090256 -2.002016306 0.9683220387 
-0.6581713557 -7.766025066 -2.001815319 0.9683251381 
-0.3120336831 -7.787358284 -2.001748562 0.9683261514 
0.03468750045 -7.793271542 -2.001682043 0.9683272243 
0.7271581888 -7.758835316 -2.001550436 0.9683292508 
1.071547866 -7.718552113 -2.001485825 0.9683303237 
1.413793921 -7.663005352 -2.001421928 0.9683312774 
2.089140654 -7.50655508 -2.001297235 0.9683332443 
2.747900248 -7.29073 -2.001177311 0.9683350325 
3.69352293 -6.859538555 -2.001008749 0.9683377147 
3.99489975 -6.688278675 -2.00095582 0.9683384895 
4.288354397 -6.503781796 -2.000905037 0.968339324 
4.573303223 -6.306425571 -2.000856161 0.9683400989 
4.849206448 -6.096611023 -2.000809193 0.9683407545 
5.115498066 -5.874716759 -2.000764608 0.9683415294 
5.617157936 -5.396586895 -2.000682116 0.9683427811 
5.851552486 -5.141274452 -2.000644684 0.9683433771 
6.074352741 -4.875798225 -2.000609636 0.9683439136 
6.285124302 -4.600693226 -2.000576973 0.96834445 
6.668969631 -4.023754597 -2.000519753 0.9683452845 
7.493881702 -2.121596575 -2.000415802 0.9683469534 
7.580805302 -1.7861377 -2.000408649 0.9683470726 
7.788117409 -0.06931152195 -2.000417471 0.9683468938 
7.783535004 0.2771997154 -2.0004282 0.968346715 
7.763549805 0.6231713891 -2.00044179 0.9683465362 
7.677575588 1.310747027 -2.000477552 0.9683459401 
7.530869007 1.988000393 -2.000524759 0.9683452249 
7.435080528 2.321057081 -2.000552416 0.9683448076 
7.324582577 2.649536133 -2.000582933 0.9683443308 
6.74024868 3.904816866 -2.000730038 0.9683420062 
5.713124752 5.296504021 -2.000965595 0.9683383703 
5.472006798 5.545549393 -2.001018763 0.9683375359 
3.856498957 6.203039646 -1.876028538 0.9702855945 
3.525234222 6.276745319 -1.849011779 0.9707071781 
3.242634296 6.427548885 -1.849070072 0.970706284 
2.953598499 6.565637112 -1.849129081 0.9707053304 
2.658696175 6.690742016 -1.849189162 0.9707044363 
2.358518124 6.802607059 -1.849249721 0.9707034826 
1.744692326 6.985778809 -1.849372268 0.9707015157 
1.432243586 7.056708813 -1.849434018 0.970700562 
1.116958022 7.113669395 -1.849495769 0.9706996083 
0.799433589 7.156559944 -1.849557757 0.9706986547 
0.4803100526 7.185270786 -1.849619508 0.970697701 
0.1602148414 7.199768066 -1.849681258 0.9706967473 
-0.1602246016 7.200006962 -1.849742532 0.9706957936 
-0.4803588688 7.185986042 -1.849803448 0.97069484 
-0.7995678782 7.157741547 -1.849863529 0.9706938863 
-1.432680607 7.058794022 -1.849981785 0.9706920385 
-1.745324612 6.988293171 -1.850039601 0.9706911445 
-2.359672785 6.805930138 -1.850151896 0.9706893563 
-2.955407619 6.569648266 -1.850259185 0.9706876874 
-3.527812481 6.281320572 -1.850360513 0.9706861377 
-3.830280781 6.160839558 -1.863270164 0.970484674 
-4.617094517 6.134020805 -1.971921086 0.9687906504 
-4.962533951 6.015978813 -2.003027201 0.9683060646 
-5.719382286 5.302292347 -2.003151894 0.9683042765 
-5.949692249 5.04271698 -2.00318861 0.96830374 
-6.168239594 4.773132324 -2.003222704 0.9683032036 
-6.91626215 3.60580802 -2.003332853 0.968301475 
-7.069885254 3.294606924 -2.003353596 0.968301177 
-7.541740417 1.990847111 -2.003407001 0.968300283 
-7.622844219 1.653405666 -2.003412962 0.9683002234 
-7.688859463 1.312668443 -2.003415823 0.9683001637 
-7.775085449 0.6240942478 -2.003412962 0.9683002234 
-7.762585163 -0.7623705864 -2.003371477 0.968300879 
-7.663957119 -1.449260235 -2.00333333 0.968301475 
-7.591808796 -1.788732886 -2.003309727 0.9683018923 
-7.504631042 -2.12464118 -2.003283739 0.9683022499 
-7.154728889 -3.104435921 -2.003189087 0.9683037996 
-6.677477837 -4.028889179 -2.003071785 0.9683055878 
-6.081408501 -4.881467342 -2.002933741 0.9683077335 
-5.858100414 -5.147031307 -2.002883673 0.9683085084 
-5.377165318 -5.647026062 -2.002777338 0.9683101773 
-5.120497704 -5.880478382 -2.002721786 0.9683110118 
-4.85369873 -6.10226059 -2.002664328 0.9683119059 
-4.577311993 -6.311938286 -2.002605677 0.9683128595 
-3.997956514 -6.693386078 -2.002484083 0.9683147073 
-3.696140051 -6.86438942 -2.002421618 0.968315661 
-3.387011528 -7.021779537 -2.00235796 0.9683167338 
-2.749330997 -7.294560432 -2.002228498 0.9683187008 
-2.422045946 -7.409404278 -2.002162695 0.9683197141 
-2.08997798 -7.509560585 -2.002096176 0.9683207273 
-1.75380373 -7.594838619 -2.002029419 0.9683218002 
-0.3813403249 -7.784323692 -2.001761675 0.9683259726 
-0.03468505666 -7.793320179 -2.001695156 0.9683269858 
1.002824664 -7.727836609 -2.001498699 0.9683300853 
2.354929209 -7.427265644 -2.001248837 0.9683339596 
3.00557375 -7.188137054 -2.001130819 0.9683358073 
3.322260618 -7.047121525 -2.001074553 0.9683367014 
4.230331898 -6.541718483 -2.000915051 0.9683391452 
5.063024998 -5.920043945 -2.00077343 0.9683413506 
5.568928242 -5.446381569 -2.000689983 0.9683426619 
5.805578709 -5.193163872 -2.000652075 0.9683432579 
6.807888031 -3.783803701 -2.000499964 0.9683456421 
7.11710453 -3.163669348 -2.000458479 0.9683462977 
7.250734806 -2.84392333 -2.00044179 0.9683465362 
7.639567852 -1.515190363 -2.000405073 0.9683470726 
7.744003773 -0.8301953077 -2.000404358 0.9683470726 
7.787182331 -0.1386181563 -2.000415802 0.9683469534 
7.768771648 0.5540527105 -2.00043869 0.9683465958 
7.62612772 1.583190918 -2.000495195 0.9683457017 
7.548242092 1.920881271 -2.000519514 0.9683452845 
7.45542717 2.25477767 -2.000546694 0.9683448672 
7.347848892 2.584243059 -2.000576496 0.96834445 
7.225739479 2.90859127 -2.000609159 0.9683439136 
7.089318752 3.227192402 -2.000644207 0.9683433771 
6.774694443 3.844662905 -2.000721693 0.968342185 
5.760002136 5.245422363 -2.000955343 0.9683385491 
3.932587862 6.201635838 -1.886115432 0.9701282382 
3.580929995 6.245082855 -1.849000216 0.9707073569 
2.418942928 6.781298637 -1.849237442 0.970703721 
1.806779742 6.969929218 -1.84935987 0.9707017541 
1.180222154 7.103403091 -1.84948349 0.9706997871 
0.544230938 7.180661678 -1.849607348 0.9706978798 
-0.09614745528 7.201098442 -1.849730372 0.9706959724 
-1.683056593 7.003508091 -1.850028157 0.9706913233 
-2.298999071 6.826621056 -1.850140929 0.9706895351 
-3.471750498 6.312428951 -1.850350738 0.9706863165 
-3.759575129 6.168991566 -1.855538487 0.970605433 
-4.13385725 6.149670124 -1.903205395 0.9698616862 
-4.908696175 6.059880257 -2.003018379 0.9683064222 
-5.428073406 5.5998559 -2.003104687 0.9683051109 
-5.904541016 5.095451355 -2.003181458 0.9683038592 
-6.125480652 4.827829361 -2.003216267 0.9683033228 
-6.883889198 3.667204618 -2.003328562 0.9683015347 
-7.040275574 3.357385159 -2.003349543 0.9683012366 
-7.182722092 3.040915489 -2.003367901 0.9683009386 
-7.31093502 2.718420267 -2.003383398 0.9683007002 
-7.523693562 2.057893038 -2.003405333 0.9683004022 
-7.607819557 1.721164465 -2.003412008 0.968300283 
-7.676867485 1.381047368 -2.003415585 0.9683002234 
-7.730700493 1.038181186 -2.003416061 0.9683002234 
-7.769220829 0.6932641268 -2.003413916 0.968300283 
-7.792346001 0.3469702005 -2.003408432 0.9683003426 
-7.800041199 -2.441406195e-06 -2.003400087 0.9683004618 
-7.792272568 -0.3469750881 -2.003388882 0.9683006406 
-7.76907444 -0.6932592392 -2.003374577 0.9683008194 
-7.730480671 -1.038156748 -2.00335741 0.9683011174 
-7.676564693 -1.381013155 -2.003337622 0.9683014154 
-7.607438564 -1.721101046 -2.003314734 0.9683018327 
-7.310373306 -2.718210459 -2.003229856 0.968303144 
-7.039601803 -3.357072592 -2.00316 0.9683042169 
-6.529738426 -4.263923168 -2.003036976 0.9683061242 
-5.90369606 -5.094718933 -2.002893686 0.9683083296 
-5.671081543 -5.35215807 -2.002841949 0.968309164 
-5.42724371 -5.598979473 -2.002788305 0.9683099389 
-4.633332253 -6.270990849 -2.002617598 0.9683126211 
-4.057384968 -6.657577991 -2.002496481 0.9683145285 
-3.757097006 -6.831262112 -2.002434254 0.9683154821 
-3.134872913 -7.137695312 -2.0023067 0.9683175087 
-2.156740665 -7.490707874 -2.002109528 0.9683205485 
-0.7962890267 -7.753180981 -2.001842022 0.9683247209 
-0.4506005645 -7.78067112 -2.001775265 0.9683257937 
0.2427050769 -7.789409161 -2.001642466 0.9683278799 
1.955236793 -7.542644024 -2.001321793 0.9683328271 
2.61771965 -7.33856678 -2.001200914 0.9683347344 
2.94148922 -7.214650631 -2.001142502 0.9683356285 
3.57089591 -6.924264908 -2.001030445 0.968337357 
3.87527585 -6.758378983 -2.000976801 0.9683381915 
4.171969891 -6.579133034 -2.000925064 0.968339026 
4.460388184 -6.386874676 -2.000875473 0.9683398008 
5.270429611 -5.735993385 -2.000738859 0.968341887 
5.520253658 -5.495756626 -2.000697851 0.9683425426 
5.759162426 -5.244648457 -2.000659227 0.9683431387 
5.986652851 -4.983171463 -2.000623226 0.9683437347 
6.202290058 -4.711850643 -2.000589609 0.9683442116 
6.773967266 -3.844252825 -2.000504971 0.9683455229 
6.938180923 -3.539074659 -2.000482082 0.9683459401 
7.088674068 -3.226899385 -2.000462055 0.9683462381 
7.225153446 -2.908337355 -2.000444889 0.9683464766 
7.347316742 -2.58404541 -2.000430822 0.968346715 
7.454950809 -2.254641056 -2.000419378 0.9683468938 
7.547819614 -1.920773864 -2.000411272 0.9683470726 
7.625781059 -1.583112717 -2.000405788 0.9683471322 
7.688649654 -1.242331505 -2.000403404 0.9683471322 
7.768651962 -0.5540502667 -2.000407457 0.9683470726 
7.639890194 1.515256286 -2.000490427 0.9683457613 
7.25131321 2.84416008 -2.000602484 0.9683440328 
6.970070839 3.477526665 -2.000674009 0.9683429003 
6.633678913 4.083422661 -2.00075531 0.9683416486 
6.031579494 4.930368423 -2.000894308 0.9683395028 
5.063874245 5.921032429 -2.001107454 0.968336165 
4.795610428 6.140607834 -2.001164913 0.9683352709 
3.639167309 6.217726707 -1.850418925 0.9706852436 
3.356484413 6.368735313 -1.849046588 0.9707066417 
3.069943666 6.511952877 -1.849105477 0.970705688 
2.777319193 6.642277718 -1.849165201 0.9707047939 
1.243386149 7.092568398 -1.849471092 0.9707000256 
0.9266821146 7.141093731 -1.849533081 0.9706990719 
0.6081249714 7.175490379 -1.849594831 0.9706980586 
0.2883374095 7.195676327 -1.849656582 0.9706971049 
-0.3523754776 7.193307877 -1.84977901 0.9706951976 
-1.931298733 6.939338207 -1.850073814 0.970690608 
-2.238144398 6.846765041 -1.850129962 0.970689714 
-2.540566444 6.74062252 -1.850184798 0.9706888795 
-2.83798337 6.621132851 -1.850238204 0.970688045 
-4.056462288 6.152082443 -1.892705441 0.9700254798 
-4.452236176 6.139465332 -1.947884917 0.969165206 
-4.854536057 6.10330534 -2.003009081 0.9683065414 
-5.378036976 5.647934437 -2.003096342 0.9683051109 
-5.858962059 5.147766113 -2.003174305 0.9683039784 
-6.082267761 4.882116795 -2.003209591 0.968303442 
-6.293512821 4.606803894 -2.003242254 0.9683029652 
-7.286447525 2.78336668 -2.003380537 0.9683007598 
-7.505109787 2.124768019 -2.003403664 0.968300283 
-7.592189789 1.788820744 -2.003410816 0.968300283 
-7.72115469 1.106955528 -2.0034163 0.9683002234 
-7.788918495 0.4163305461 -2.003409624 0.9683004618 
-7.774943829 -0.624108851 -2.003377676 0.9683008194 
-7.739416122 -0.969343245 -2.003361225 0.9683010578 
-7.334299088 -2.653054237 -2.003236294 0.9683030248 
-7.208898544 -2.976638079 -2.003203154 0.9683035612 
-6.373732567 -4.493522644 -2.003000498 0.9683067203 
-6.167395115 -4.772492409 -2.002953053 0.9683074355 
-5.948847294 -5.041994572 -2.002903938 0.9683081508 
-5.718515396 -5.301491737 -2.00285244 0.9683089852 
-5.476872444 -5.550502777 -2.002799273 0.9683098197 
-4.688984394 -6.229547977 -2.00262928 0.9683124423 
-4.1165061 -6.621249676 -2.002508879 0.96831429 
-2.223347187 -7.471264362 -2.002122879 0.9683203697 
-1.888730407 -7.562516689 -2.002056122 0.968321383 
-1.550402761 -7.638791561 -2.001989365 0.9683224559 
-1.20902586 -7.699941158 -2.001922369 0.9683234692 
-0.5198437572 -7.776408672 -2.001788378 0.9683255553 
-0.1733666956 -7.791576862 -2.001721859 0.9683265686 
0.1733959913 -7.791310787 -2.001655579 0.9683276415 
1.208747506 -7.698161602 -2.001460314 0.9683306813 
1.549941421 -7.636528015 -2.001396656 0.9683316946 
1.888046861 -7.559787273 -2.00133419 0.9683326483 
2.552324057 -7.361618519 -2.001212835 0.968334496 
3.509138107 -6.955812931 -2.001041174 0.9683371782 
3.814982891 -6.792646408 -2.000987291 0.9683380127 
4.113259315 -6.616042137 -2.000935316 0.9683388472 
5.219206333 -5.782680511 -2.000747442 0.9683417678 
5.712280273 -5.295705318 -2.000666857 0.9683430195 
5.942094803 -5.036262035 -2.000630379 0.9683436155 
6.160134315 -4.766877174 -2.000596046 0.968344152 
6.365981102 -4.488068581 -2.000564575 0.9683446288 
6.739499569 -3.904392004 -2.000509739 0.9683454633 
6.906437874 -3.600690842 -2.000486374 0.9683458209 
7.324035645 -2.649345636 -2.000433445 0.9683466554 
7.611393929 -1.650937438 -2.000406504 0.9683470726 
7.677285194 -1.310722589 -2.000403643 0.9683471322 
7.763415337 -0.6231445074 -2.000406504 0.9683470726 
7.777387619 0.4157031178 -2.000433207 0.9683466554 
7.751247406 0.7612621784 -2.000447989 0.968346417 
7.7097826 1.105319858 -2.000465631 0.9683461785 
7.653054237 1.44720459 -2.000486135 0.9683458805 
7.581193447 1.786225557 -2.000509501 0.9683454633 
7.392631531 2.453024864 -2.000564337 0.9683446288 
7.276313305 2.779496908 -2.000595808 0.968344152 
7.145586014 3.100463867 -2.000629902 0.9683436155 
7.000730038 3.415329456 -2.00066638 0.9683430195 
6.842001915 3.723434925 -2.000705481 0.9683424234 
6.285937309 4.601301193 -2.000836611 0.9683403969 
5.116330624 5.87569809 -2.001096249 0.9683363438 
4.087199688 6.198696136 -1.907044768 0.9698017836 
3.127766132 6.484316349 -1.849093556 0.9707059264 
2.539230824 6.737084866 -1.849213243 0.9707040787 
1.620107412 7.015808105 -1.849396944 0.970701158 
1.306428194 7.081169128 -1.849458694 0.970700264 
0.9901733398 7.132519245 -1.849520683 0.9706992507 
0.3523412943 7.192780495 -1.849644303 0.9706972837 
0.03203613311 7.201577187 -1.849705815 0.9706963301 
-0.6082006693 7.17639637 -1.849827528 0.9706944227 
-0.9268603325 7.142463207 -1.84988749 0.9706935287 
-2.177097082 6.866376877 -1.850118876 0.9706898928 
-2.480453968 6.76292944 -1.85017395 0.9706890583 
-2.778911114 6.646093369 -1.850227594 0.9706882238 
-3.071894407 6.516083717 -1.850279927 0.9706873894 
-3.358808517 6.373156548 -1.85033071 0.9706866145 
-3.639084339 6.217599869 -1.850380063 0.9706858397 
-3.979943752 6.15444088 -1.882463694 0.9701851606 
-4.371294022 6.142096996 -1.936305046 0.9693456888 
-4.786037445 6.128317833 -1.997165203 0.9683975577 
-6.038547039 4.936047077 -2.003202677 0.9683035612 
-6.252248287 4.662634373 -2.003235817 0.9683029652 
-6.642101765 4.088605881 -2.00329423 0.9683020711 
-6.817492485 3.789138079 -2.003319263 0.9683017135 
-6.979372501 3.482150793 -2.003341436 0.9683013558 
-7.127433777 3.168273926 -2.003360987 0.9683010578 
-7.261374474 2.848112822 -2.003377438 0.9683008194 
-7.485861778 2.191486835 -2.003401995 0.9683004022 
-7.575969219 1.856296301 -2.003409624 0.9683003426 
-7.65106678 1.517448664 -2.003414392 0.9683002234 
-7.711003304 1.17560792 -2.0034163 0.9683002234 
-7.755656719 0.8314233422 -2.003415108 0.9683002234 
-7.784943581 0.4856030047 -2.003410816 0.9683003426 
-7.798815727 0.1388256848 -2.003403664 0.9683004022 
-7.797243595 -0.2082348615 -2.00339365 0.9683005214 
-7.780207157 -0.5548803806 -2.003380775 0.9683007598 
-7.558742523 -1.923557043 -2.003299713 0.9683020115 
-7.465588093 -2.257858753 -2.003272295 0.9683024287 
-6.947375298 -3.543786526 -2.003137112 0.9683045745 
-6.782726765 -3.849245548 -2.003096819 0.9683052301 
-6.604645729 -4.147067547 -2.00305438 0.9683058858 
-6.413498402 -4.436662674 -2.003009796 0.9683065414 
-5.526088715 -5.501559734 -2.002810001 0.9683096409 
-5.014958382 -5.970612526 -2.002699137 0.9683113694 
-4.464206219 -6.392326355 -2.002581835 0.9683132172 
-3.573332548 -6.928991318 -2.002396345 0.9683160782 
-3.261459827 -7.080863953 -2.002332449 0.9683170915 
-2.94316411 -7.218693733 -2.002267599 0.9683181047 
-2.619020939 -7.342250824 -2.002202034 0.968319118 
-2.289746046 -7.451235294 -2.00213623 0.9683201313 
-1.955954552 -7.545463562 -2.002069712 0.9683212042 
-1.277490258 -7.688932896 -2.00193572 0.9683232903 
0.1040356457 -7.792607307 -2.001668692 0.9683274031 
0.4505639672 -7.779999733 -2.001602888 0.968328476 
1.140183091 -7.70867157 -2.00147295 0.9683304429 
2.155849457 -7.487621784 -2.001285076 0.9683334231 
3.447128773 -6.98679924 -2.001052141 0.9683369994 
3.75441885 -6.826359749 -2.00099802 0.9683378339 
4.054255486 -6.652411938 -2.000945568 0.9683386683 
4.629235744 -6.265434265 -2.000846624 0.9683402181 
4.903254509 -6.053173542 -2.000800133 0.9683409333 
5.167555809 -5.828938007 -2.000756025 0.968341589 
5.421620846 -5.593176365 -2.000714064 0.9683423042 
6.117480278 -4.821533203 -2.000602722 0.9683440328 
6.32579565 -4.544567585 -2.000570774 0.9683445096 
6.521604061 -4.258610725 -2.000541449 0.9683449864 
6.704496861 -3.964243174 -2.000514746 0.9683454037 
6.874118328 -3.662019014 -2.000490904 0.9683457613 
7.300180435 -2.714404345 -2.000436068 0.9683466554 
7.413659573 -2.386970043 -2.00042367 0.9683467746 
7.596410751 -1.718586445 -2.000407457 0.9683470726 
7.665324688 -1.378967285 -2.000404119 0.9683471322 
7.757553577 -0.6922216415 -2.000405788 0.9683470726 
7.780688286 -0.3464575112 -2.000411034 0.968347013 
7.780764103 0.3464575112 -2.000430584 0.968346715 
7.512900352 2.05492425 -2.000530005 0.9683451653 
7.030815125 3.352895498 -2.000658751 0.9683431387 
6.874834061 3.662404776 -2.000697374 0.9683425426 
6.705246449 3.964677572 -2.000738382 0.968341887 
6.522387505 4.259113789 -2.000781775 0.9683412313 
6.326618671 4.545138836 -2.000827074 0.9683405161 
5.897895336 5.089706898 -2.000924587 0.968339026 
5.665798187 5.347165585 -2.000976324 0.9683381915 
5.168403149 5.829897404 -2.001085043 0.9683365226 
4.572612286 6.188788891 -1.976369858 0.9687213898 
4.165798187 6.19715786 -1.917906046 0.9696325064 
2.599055052 6.714186668 -1.849201202 0.9707041979 
2.297888041 6.823378563 -1.84926188 0.9707033038 
1.682448745 7.001073837 -1.849384546 0.9707013369 
1.053613305 7.123383522 -1.849508286 0.9706994295 
0.7357202172 7.163442135 -1.849570155 0.9706984162 
0.4163500965 7.189311504 -1.849631906 0.9706975222 
0.09613525122 7.200956821 -1.849693537 0.9706965089 
-0.2242895514 7.198339462 -1.849754691 0.9706956148 
-1.180502892 7.105136395 -1.849934936 0.9706927538 
-2.420175791 6.78469944 -1.850162864 0.9706891775 
-2.719658136 6.670517445 -1.850216985 0.970688343 
-3.58359623 6.249704361 -1.850370288 0.9706859589 
-3.904138088 6.156750202 -1.872465014 0.9703412056 
-5.015822411 5.971608639 -2.003036261 0.9683061242 
-5.766349792 5.251203537 -2.003159523 0.9683042169 
-6.210471153 4.718083382 -2.00322938 0.9683030844 
-6.414289474 4.437219143 -2.003260374 0.9683026671 
-7.098947525 3.231554985 -2.00335741 0.9683011174 
-7.358224869 2.587863684 -2.003388643 0.9683005214 
-7.637258053 1.585490704 -2.003413916 0.9683002234 
-7.700226784 1.244196773 -2.003416061 0.9683002234 
-7.798771858 -0.1388207972 -2.003396034 0.968300581 
-7.755480766 -0.8314135671 -2.003368139 0.9683009386 
-7.710744381 -1.175573707 -2.003349781 0.9683012366 
-7.575578213 -1.856232882 -2.003304958 0.9683018923 
-7.380397797 -2.522116661 -2.003248692 0.968302846 
-7.260788441 -2.847878456 -2.003216743 0.9683033228 
-7.12678957 -3.167985678 -2.003181934 0.9683038592 
-6.037692547 -4.935368538 -2.002923727 0.9683079123 
-5.574865818 -5.452177525 -2.00282073 0.9683095217 
-5.326674461 -5.694619179 -2.002766371 0.9683102965 
-4.520922661 -6.352399826 -2.002593756 0.9683129787 
-3.938193321 -6.728664398 -2.002471685 0.9683148861 
-3.634860754 -6.896967411 -2.002408981 0.9683158994 
-3.324360371 -7.051606178 -2.002345324 0.9683169127 
-3.007285118 -7.192270279 -2.002280712 0.9683179259 
-2.023056507 -7.527800083 -2.002082825 0.9683209658 
-0.6581713557 -7.766025066 -2.001815319 0.9683251381 
-0.3120483458 -7.787363052 -2.001748562 0.9683261514 
0.3812939227 -7.78375721 -2.001616001 0.9683282375 
0.7271777391 -7.758832932 -2.001550436 0.9683292508 
1.071562529 -7.718554497 -2.001485825 0.9683302641 
2.747900248 -7.29073 -2.001177311 0.9683350325 
3.384821653 -7.017241001 -2.001063347 0.9683368802 
4.288354397 -6.503781796 -2.000905037 0.968339324 
4.573303223 -6.306425571 -2.000856161 0.9683400989 
4.849206448 -6.096611023 -2.000809193 0.9683407545 
5.115483284 -5.874731541 -2.000764608 0.9683414698 
5.617148399 -5.396601677 -2.000682116 0.9683427811 
5.8515625 -5.141254902 -2.000644684 0.9683433771 
6.285134315 -4.600678444 -2.000576973 0.96834445 
7.275744438 -2.779284716 -2.000438929 0.9683465362 
7.493881702 -2.121596575 -2.000415802 0.9683469534 
7.652746201 -1.447143555 -2.000404358 0.9683471322 
7.777294636 -0.4157031178 -2.000409842 0.968347013 
7.783530235 0.2772192359 -2.0004282 0.968346715 
7.530869007 1.988000393 -2.000524759 0.9683452249 
7.435080528 2.321057081 -2.000552416 0.9683448076 
7.199587345 2.972785473 -2.000615835 0.968343854 
7.060346603 3.290165901 -2.000651598 0.9683432579 
6.74024868 3.904816866 -2.000730038 0.9683420062 
5.942934513 5.036982536 -2.000914335 0.9683391452 
5.713149071 5.296494007 -2.000965595 0.9683383703 
5.220041275 5.783639908 -2.001073599 0.9683367014 
4.95772934 6.010297775 -2.001130342 0.9683358073 
4.656928539 6.186964989 -1.988942623 0.9685255885 
4.245258808 6.195576191 -1.929029703 0.9694590569 
2.953598499 6.565637112 -1.849129081 0.9707053304 
2.358518124 6.802607059 -1.849249721 0.9707034826 
1.432263136 7.056711197 -1.849434018 0.970700562 
0.4802929461 7.18527317 -1.849619746 0.970697701 
-0.4803759754 7.185986042 -1.849803448 0.97069484 
-0.7995898128 7.157739162 -1.849863529 0.9706938863 
-2.054521322 6.90394783 -1.850096345 0.9706902504 
-2.660163403 6.694418907 -1.850206256 0.9706885219 
-2.955407619 6.569648266 -1.850259185 0.9706876874 
-4.212106705 6.147204399 -1.913966656 0.9696938396 
-4.962536335 6.015969276 -2.003027201 0.9683061242 
-5.477748871 5.551340103 -2.003112793 0.9683049321 
-6.168239594 4.773132324 -2.003222704 0.9683032036 
-6.374553204 4.49409914 -2.003254414 0.9683027267 
-6.568254471 4.20614481 -2.003283262 0.9683022499 
-6.748942852 3.909846067 -2.003309488 0.9683018923 
-6.91626215 3.60580802 -2.003332853 0.968301475 
-7.069885254 3.294606924 -2.003353596 0.968301177 
-7.209514141 2.976882219 -2.003371239 0.968300879 
-7.688849926 1.312683105 -2.003415823 0.9683002234 
-7.795124531 0.2776000798 -2.003407001 0.9683003426 
-7.762585163 -0.7623705864 -2.003371477 0.968300879 
-7.663957119 -1.449260235 -2.00333333 0.968301475 
-7.504631042 -2.12464118 -2.003283739 0.9683022499 
-7.285871506 -2.783146858 -2.003223181 0.9683032036 
-7.009426117 -3.419577599 -2.00315237 0.9683043361 
-6.850236893 -3.727922201 -2.00311327 0.9683049321 
-6.677482605 -4.028874397 -2.003071785 0.9683055878 
-6.491516113 -4.321833611 -2.003027916 0.9683062434 
-6.081408501 -4.881476879 -2.002933741 0.9683077335 
-5.623188496 -5.402394772 -2.002831459 0.9683092833 
-5.377160549 -5.647033691 -2.002777338 0.9683101177 
-4.577311993 -6.311938286 -2.002605677 0.9683128595 
-4.291884899 -6.509113789 -2.002545595 0.9683137536 
-3.997956514 -6.693386078 -2.002484083 0.9683147073 
-3.387011528 -7.021779537 -2.00235796 0.9683167338 
-3.071208477 -7.165268421 -2.002293587 0.9683176875 
-1.071748018 -7.720139027 -2.001895666 0.9683238864 
-0.3813208044 -7.784321308 -2.001761675 0.9683259726 
-0.03467040882 -7.793320179 -2.001695156 0.9683269858 
1.002824664 -7.727836609 -2.001498699 0.9683300853 
1.345546842 -7.675336838 -2.001434803 0.968331039 
1.685585856 -7.607644081 -2.001371622 0.9683320522 
2.022272825 -7.524897099 -2.001309395 0.9683330059 
2.682912588 -7.31494379 -2.001188993 0.9683348536 
3.005561352 -7.188144207 -2.001130819 0.9683358073 
5.568928242 -5.446381569 -2.000689983 0.9683426619 
5.805578709 -5.193163872 -2.000652075 0.9683432579 
6.030744553 -4.929679871 -2.000616312 0.9683437943 
6.243955135 -4.656462193 -2.00058341 0.9683443308 
6.444814205 -4.374028206 -2.000552893 0.9683448076 
6.807888031 -3.783803701 -2.000499964 0.9683456421 
7.117099285 -3.16368413 -2.000458479 0.9683462977 
7.370004654 -2.518574238 -2.0004282 0.9683467746 
7.564626217 -1.853520513 -2.000409842 0.968347013 
7.699401855 -1.173840284 -2.000403166 0.9683471322 
7.744003773 -0.8301757574 -2.000404358 0.9683471322 
7.787182331 -0.1386181563 -2.000415802 0.9683469534 
7.785680771 0.2079223543 -2.000425816 0.9683467746 
7.768771648 0.5540527105 -2.00043869 0.9683465958 
7.548242092 1.920881271 -2.000519514 0.9683452845 
7.347853661 2.584228516 -2.000576496 0.96834445 
7.089330673 3.227172852 -2.000644207 0.9683433771 
6.938874245 3.539443254 -2.000681639 0.9683427811 
6.597092152 4.142323971 -2.000764132 0.9683415294 
6.406447411 4.431789398 -2.000808716 0.9683408141 
5.987487793 4.983886719 -2.00090456 0.968339324 
4.325659275 6.19395256 -1.94043529 0.9692812562 
3.932587862 6.201635838 -1.886115432 0.9701282382 
3.58093977 6.245078087 -1.849000216 0.9707073569 
2.718132257 6.666765213 -1.849177003 0.9707046151 
2.418925762 6.78130579 -1.849237442 0.9707036614 
0.8630859256 7.149106503 -1.84954536 0.9706988931 
0.2242724597 7.198009968 -1.84966898 0.9706969261 
-0.4163915813 7.189926624 -1.849791169 0.9706950188 
-0.7358349562 7.164523602 -1.849851608 0.9706940651 
-2.298984289 6.82662344 -1.850140929 0.9706895351 
-2.89682126 6.595646858 -1.850248694 0.9706878662 
-3.471767426 6.312426567 -1.850350738 0.9706862569 
-4.908696175 6.059880257 -2.003018379 0.9683064222 
-5.671947956 5.352956295 -2.003144264 0.9683044553 
-5.904541016 5.095451355 -2.003181458 0.9683038592 
-6.530529499 4.264431 -2.003277779 0.9683023691 
-6.71385479 3.969758272 -2.003304482 0.9683019519 
-6.883879185 3.66722393 -2.003328562 0.9683015347 
-7.040280819 3.357375383 -2.003349543 0.9683012366 
-7.182717323 3.040905714 -2.003367901 0.9683009982 
-7.424631119 2.390500546 -2.003395796 0.9683007002 
-7.676867485 1.381047368 -2.003415585 0.9683002234 
-7.769220829 0.6932641268 -2.003413916 0.968300283 
-7.76907444 -0.6932592392 -2.003374577 0.9683008194 
-7.424162388 -2.390383244 -2.003260851 0.9683026075 
-7.18209219 -3.040671349 -2.003196001 0.9683036804 
-7.039592266 -3.357087374 -2.00316 0.9683042169 
-6.883156776 -3.666843176 -2.003121376 0.9683048129 
-6.713093281 -3.969328642 -2.00308013 0.968305409 
-6.529738426 -4.263923168 -2.003036976 0.9683061242 
-6.333468914 -4.550060749 -2.002991199 0.9683067799 
-5.90369606 -5.094718933 -2.002893686 0.9683083296 
-5.671081543 -5.35215807 -2.002841949 0.968309164 
-5.42724371 -5.598979473 -2.002788305 0.9683099389 
-4.90785408 -6.058847427 -2.00267601 0.968311727 
-4.349679947 -6.47068119 -2.002557516 0.9683135748 
-4.057392597 -6.657570839 -2.002496481 0.9683145285 
-3.757084846 -6.83126688 -2.002434254 0.9683155417 
-3.449377298 -6.991415977 -2.002370834 0.9683164954 
-3.13485837 -7.137702465 -2.0023067 0.9683175087 
-2.48790288 -7.387599945 -2.002175808 0.9683195353 
-2.156740665 -7.490707874 -2.002109528 0.9683205485 
-1.821330547 -7.578979492 -2.002043009 0.9683216214 
-1.140432119 -7.710346699 -2.001909018 0.9683237076 
-0.4506005645 -7.78067112 -2.001775265 0.9683257937 
-0.1040356457 -7.792753696 -2.001708508 0.968326807 
0.2427050769 -7.789409161 -2.001642466 0.9683278799 
0.5889477134 -7.770644188 -2.001576662 0.9683288932 
0.9340038896 -7.736505985 -2.001511574 0.9683299065 
1.617817402 -7.622389793 -2.00138402 0.9683318734 
1.955253839 -7.542638779 -2.001321793 0.9683328271 
2.941503763 -7.214645863 -2.001142502 0.9683356285 
3.25942874 -7.076452255 -2.00108552 0.9683365226 
4.171969891 -6.579133034 -2.000925064 0.968339026 
4.460388184 -6.386874676 -2.000875473 0.9683398008 
4.739970684 -6.182001591 -2.000827789 0.9683405161 
5.010163307 -5.964890003 -2.000782251 0.9683412313 
5.520253658 -5.495756626 -2.000697851 0.9683425426 
5.986642838 -4.983188152 -2.000623226 0.9683436751 
6.202280045 -4.711870193 -2.000589609 0.9683442116 
7.454950809 -2.254641056 -2.000419378 0.9683468938 
7.625781059 -1.583112717 -2.000405788 0.9683471322 
7.688649654 -1.242331505 -2.000403404 0.9683471322 
7.736303329 -0.8990795612 -2.000404119 0.9683471322 
7.785636902 -0.2079247981 -2.000414133 0.9683469534 
7.787211895 0.1386157125 -2.000423431 0.9683468342 
7.773386002 0.4848852456 -2.000435829 0.9683466554 
7.25131321 2.84416008 -2.000602484 0.9683440328 
6.970070839 3.477526665 -2.000674009 0.9683429003 
6.808615685 3.784209013 -2.000713587 0.9683423042 
6.633678913 4.083422661 -2.00075531 0.9683416486 
6.445615292 4.37457037 -2.000799656 0.9683409333 
6.244777679 4.657058239 -2.000846148 0.9683402777 
5.063889027 5.921022892 -2.001107454 0.968336165 
4.406970024 6.192282677 -1.95211792 0.9690992236 
3.639150381 6.217724323 -1.850416541 0.9706852436 
3.356474638 6.368735313 -1.849046588 0.9707066417 
3.069943666 6.511952877 -1.849105477 0.970705688 
2.176115751 6.863286018 -1.849286318 0.9707028866 
1.557602525 7.030004501 -1.849409342 0.9707009792 
0.6081249714 7.175490379 -1.849594831 0.9706980586 
0.2883374095 7.195676327 -1.849656582 0.9706971049 
-0.3523754776 7.193307877 -1.84977901 0.9706951976 
-0.9904101491 7.133979321 -1.849899411 0.9706932902 
-1.620654225 7.018161297 -1.850016594 0.9706915021 
-1.931298733 6.939338207 -1.850073814 0.970690608 
-2.238144398 6.846765041 -1.850129962 0.970689714 
-3.694301605 6.184989929 -1.850389719 0.9706857204 
-5.624060154 5.403193474 -2.003136635 0.9683045745 
-5.858962059 5.147766113 -2.003174305 0.9683039784 
-6.678254128 4.029328346 -2.003299475 0.9683020115 
-7.15536356 3.104714394 -2.003364563 0.9683009982 
-7.403107643 2.456506252 -2.003393412 0.9683005214 
-7.505109787 2.124768019 -2.003403664 0.968300283 
-7.664269924 1.449323654 -2.003415108 0.9683002234 
-7.762746334 0.7623950243 -2.003414631 0.9683002234 
-7.795060635 -0.2776293755 -2.003391266 0.968300581 
-7.739416122 -0.969343245 -2.003361225 0.9683010578 
-7.688566685 -1.312644005 -2.003341675 0.9683013558 
-7.445168495 -2.324211359 -2.003266811 0.9683025479 
-7.208898544 -2.976638079 -2.003203154 0.9683035612 
