# .PCD v0.7 - Point Cloud Data file format
VERSION 0.7
FIELDS x y z intensities
SIZE 4 4 4 4
TYPE F F F F
COUNT 1 1 1 1
WIDTH 925
HEIGHT 1
VIEWPOINT 0 0 0 1 0 0 0
POINTS 925
DATA ascii
9.198226929 -4.088757038 -2.004435301 0.9597766399 
9.371259689 -3.675644398 -2.004491329 0.9597755075 
9.777766228 -2.395807981 -2.004625559 0.9597728848 
9.952306747 -1.517331481 -2.004687071 0.9597716928 
10.01006317 -1.073120117 -2.004708767 0.9597712159 
10.0479784 -0.6267675757 -2.004724741 0.9597709179 
10.06595898 -0.1791772395 -2.004734993 0.9597707391 
10.04206276 0.7161840796 -2.004737377 0.9597706795 
10.00021935 1.162177682 -2.004729748 0.9597708583 
9.85718441 2.046355009 -2.004696608 0.9597715139 
7.716721058 2.713977098 -1.628882766 0.9671877027 
7.565053463 3.045180559 -1.62388134 0.9672868252 
7.524826527 3.425449133 -1.64635551 0.9668416381 
8.754382133 4.968151569 -2.004399776 0.9597772956 
8.524443626 5.352482796 -2.004335642 0.9597786069 
8.277619362 5.72618866 -2.004266262 0.9597799182 
8.014416695 6.088508129 -2.004191875 0.9597814083 
7.463684082 6.212646484 -1.933735013 0.9611674547 
6.590312481 6.561064243 -1.85178411 0.9627821445 
5.663642406 7.386667252 -1.853495479 0.9627484083 
3.898544788 8.464055061 -1.855625391 0.962706387 
3.130048752 8.774814606 -1.8551507 0.962715745 
2.337245941 9.016296387 -1.854740858 0.9627237916 
1.526332974 9.186501503 -1.85436964 0.962731123 
0.703632772 9.283827782 -1.853975534 0.9627389312 
-0.1242724583 9.307787895 -1.853609443 0.9627461433 
-0.5381396413 9.292253494 -1.853451371 0.9627492428 
-0.9508910775 9.258418083 -1.853310466 0.9627520442 
-1.769790053 9.136135101 -1.853080988 0.9627565145 
-3.13293457 8.093341827 -1.728146315 0.9652233124 
-3.741630793 8.519208908 -1.852821469 0.9627617002 
-4.106650352 8.323574066 -1.848211884 0.9628525972 
-4.472590446 8.132175446 -1.848101139 0.962854743 
-5.514233112 7.463234901 -1.847784281 0.9628610015 
-5.84045887 7.210165977 -1.847684622 0.9628629684 
-6.457509518 6.661848068 -1.847495198 0.9628667235 
-6.747136116 6.367704868 -1.847406149 0.9628684521 
-8.154462814 5.858305454 -1.999382257 0.9598760009 
-8.406674385 5.48953104 -1.999303222 0.959877491 
-8.642216682 5.109951019 -1.999229193 0.9598789811 
-8.860673904 4.7202878 -1.999160171 0.959880352 
-9.244580269 3.91383791 -1.999037385 0.9598827362 
-9.409276962 3.49865222 -1.998983979 0.9598837495 
-9.790605545 2.214999914 -1.998856902 0.9598862529 
-9.997929573 0.89213866 -1.998781204 0.959887743 
-10.03755856 0 -1.998759985 0.9598881602 
-10.02759743 -0.4465087652 -1.998758197 0.9598882198 
-9.997841835 -0.8921239972 -1.998762369 0.9598881006 
-9.682274818 -2.648320198 -1.998837352 0.9598866701 
-9.408920288 -3.498505831 -1.998909593 0.9598852992 
-9.061171532 -4.321127892 -1.999004126 0.9598833919 
-8.406171799 -5.489228249 -1.999186516 0.9598798156 
-7.601633072 -6.559987545 -1.999414325 0.9598753452 
-7.302621841 -6.89193821 -1.999499679 0.9598736167 
-6.989123344 -7.210278034 -1.999589443 0.9598718882 
-6.321225643 -7.803681374 -1.999781728 0.9598681331 
-5.227138519 -8.5769701 -2.000098944 0.9598618746 
-2.780065775 -9.655610085 -2.000814676 0.9598478079 
-2.338173866 -9.729892731 -1.992658973 0.960008204 
-1.885097623 -9.731376648 -1.973815918 0.9603787065 
-1.439472675 -9.732145309 -1.959029317 0.9606696367 
-0.9995532036 -9.732213974 -1.948153853 0.9608836174 
-0.1299023479 -9.730287552 -1.937749863 0.961088419 
0.7371435165 -9.725622177 -1.942202687 0.9610008001 
1.173752427 -9.722250938 -1.950031519 0.9608466625 
2.061616182 -9.713274002 -1.977274418 0.9603106976 
2.516454935 -9.707619667 -1.996954918 0.9599236846 
4.61050272 -8.940109253 -2.003019571 0.9598044157 
5.003911018 -8.72668457 -2.003139019 0.9598021507 
5.760387897 -8.248361588 -2.003368855 0.9597975612 
6.121935844 -7.98439455 -2.003479242 0.9597954154 
7.131276608 -7.09962368 -2.00378871 0.9597893357 
8.013895988 -6.088107586 -2.004061937 0.9597839713 
8.277113914 -5.725834846 -2.004144192 0.959782362 
8.753920555 -4.96788311 -2.004293919 0.9597793818 
8.966547966 -4.573710918 -2.004361391 0.9597780704 
9.161413193 -4.170449257 -2.00442338 0.9597768188 
9.63572216 -2.914177179 -2.004577875 0.9597738385 
9.856969833 -2.046306133 -2.004652977 0.9597723484 
10.00010014 -1.162165523 -2.004704952 0.9597713351 
10.06396008 -0.2687622011 -2.004733324 0.9597707391 
10.065979 0.1792016625 -2.004738808 0.9597706199 
10.01018333 1.073146939 -2.004731655 0.9597707391 
9.87502861 1.958559513 -2.004701138 0.9597713947 
9.778012276 2.395876408 -2.004676819 0.9597718716 
7.580747128 2.973381281 -1.62150538 0.9673338532 
7.528022289 3.346349955 -1.640472889 0.9669581056 
8.79831028 4.890082836 -2.004411936 0.9597770572 
8.57179451 5.276454926 -2.004348755 0.9597783089 
8.328314781 5.652338505 -2.004280567 0.9597796202 
8.068334579 6.016994476 -2.004207134 0.9597811103 
7.596469402 6.209547997 -1.953738689 0.9607737064 
6.963571548 6.229043007 -1.860469341 0.9626110196 
6.354296684 6.793259144 -1.852272391 0.9627724886 
6.047705173 7.071403503 -1.852850556 0.9627611041 
5.728835106 7.335568905 -1.853391647 0.9627504349 
4.705580711 8.039757729 -1.854997158 0.9627187848 
4.344394207 8.243231773 -1.855472088 0.9627094269 
3.973823071 8.429257393 -1.855676174 0.9627054334 
2.417441368 8.995317459 -1.854778647 0.9627230763 
2.014707088 9.093047142 -1.854595542 0.9627267122 
1.198315382 9.234282494 -1.854226232 0.962733984 
0.7862597704 9.277397156 -1.854015589 0.9627381563 
-0.04141113162 9.308693886 -1.853642941 0.9627454877 
-0.4554150403 9.296831131 -1.85348165 0.9627486467 
-1.279760718 9.218200684 -1.853210211 0.9627540112 
-1.688452125 9.15160656 -1.853100896 0.9627562165 
-2.093774319 9.066996574 -1.853009105 0.9627579451 
-2.494931698 8.964526176 -1.852935314 0.9627594352 
-3.665673733 8.552172661 -1.852823138 0.9627616405 
-4.400087833 8.1717453 -1.848123074 0.9628543258 
-5.108381271 7.747419357 -1.84790802 0.9628586173 
-5.776103497 7.261940956 -1.847704291 0.9628626108 
-6.0931077 6.997443676 -1.847607255 0.9628645182 
-6.690244198 6.42756319 -1.847423673 0.962868154 
-7.649948597 6.140480995 -1.953358293 0.9607812166 
-8.10210228 5.930678368 -1.999398589 0.9598755836 
-8.357567787 5.564174652 -1.9993186 0.9598771334 
-8.81837368 4.798989296 -1.999173522 0.959880054 
-9.022836685 4.401816368 -1.999108553 0.9598813057 
-9.527650833 3.161479473 -1.998945236 0.9598845243 
-9.658642769 2.734467745 -1.998901725 0.9598854184 
-9.770526886 2.302060604 -1.998863935 0.9598861933 
-9.86310482 1.865126967 -1.998831749 0.9598867893 
-9.989608765 0.9810985923 -1.998784542 0.9598876834 
-10.03720665 0.08934570104 -1.998760939 0.9598879814 
-9.959794998 -1.247426748 -1.99876976 0.9598879218 
-9.439638138 -3.414623976 -1.998901367 0.9598854184 
-8.686820984 -5.032534122 -1.999107957 0.9598813653 
-8.454638481 -5.414150238 -1.999172926 0.959880054 
-7.940546513 -6.144599438 -1.999317884 0.9598772526 
-7.363617897 -6.826596737 -1.999482274 0.9598739743 
-7.052934647 -7.147751331 -1.999571204 0.9598722458 
-6.39033699 -7.747055531 -1.99976182 0.9598684907 
-6.039709568 -8.024057388 -1.999863029 0.9598665237 
-5.677087307 -8.285212517 -1.999968052 0.9598644376 
-4.918385983 -8.757966042 -2.000188589 0.9598608613 
-3.710029125 -9.336374283 -2.000541687 0.9598531127 
-2.865866661 -9.630355835 -2.000789642 0.9598482847 
-2.429948568 -9.729506493 -1.996931434 0.9599241614 
-1.52810061 -9.732043266 -1.961671352 0.9606176615 
0.2165185511 -9.728752136 -1.937751174 0.961088419 
1.08614254 -9.722980499 -1.948164225 0.9608834386 
1.526059508 -9.719020844 -1.95904386 0.9606693387 
1.971662521 -9.714306831 -1.973834991 0.9603783488 
2.868305683 -9.638568878 -2.002494335 0.9598147869 
3.714086771 -9.346674919 -2.002748728 0.9598097801 
4.126437664 -9.172785759 -2.002873421 0.9598073363 
4.53067112 -8.980695724 -2.002995491 0.9598048925 
5.311564922 -8.543471336 -2.003232479 0.959800303 
6.402494907 -7.761784554 -2.003565073 0.9597937465 
6.741806507 -7.469657898 -2.003669024 0.9597917199 
7.677135944 -6.506803989 -2.003957272 0.9597859979 
8.225764275 -5.799221039 -2.004127979 0.95978266 
8.925436974 -4.653293133 -2.004348278 0.9597783089 
9.609359741 -2.999816895 -2.004569292 0.9597740173 
9.733495712 -2.569448233 -2.004610777 0.9597731829 
10.06115723 -0.3582885563 -2.004731655 0.9597707987 
10.06717491 0.08961425722 -2.004738331 0.9597706199 
10.05322266 0.5373412967 -2.004738808 0.9597706199 
9.965593338 1.428732872 -2.004722357 0.9597709775 
9.892089844 1.870610356 -2.004705191 0.9597713351 
7.642655849 4.159157753 -1.732632279 0.9651346803 
8.378358841 5.578014851 -2.004294634 0.9597793818 
8.121613503 5.945012093 -2.004222155 0.9597808123 
7.080891132 6.221427917 -1.876938701 0.9622862339 
6.414086819 6.736001015 -1.852152467 0.9627748728 
5.465312481 7.536459923 -1.853797317 0.9627424479 
4.417358398 8.203835487 -1.855380654 0.962711215 
4.048813343 8.39379406 -1.855727792 0.9627043605 
2.497465849 8.973628044 -1.85481751 0.9627223611 
1.689628839 9.158234596 -1.85444212 0.9627297521 
0.8687841892 9.270241737 -1.854056478 0.9627373219 
0.04141113162 9.308872223 -1.853677273 0.9627447724 
-0.372695297 9.300665855 -1.853512526 0.9627480507 
-0.7859863043 9.274138451 -1.853364825 0.9627509713 
-1.606943369 9.166374207 -1.853121281 0.9627557993 
-2.013005257 9.08535862 -1.853026032 0.962757647 
-2.41505599 8.986442566 -1.852948666 0.9627591372 
-2.964921713 8.083835602 -1.714574218 0.9654916525 
-4.327231407 8.21068573 -1.848145127 0.9628539085 
-4.687919617 8.009589195 -1.848035812 0.9628560543 
-5.039343357 7.792658329 -1.847929001 0.9628580809 
-5.380659103 7.560358524 -1.847824931 0.962860167 
-5.711323261 7.313117504 -1.84772408 0.9628622532 
-6.914531231 6.185122013 -1.847354412 0.962869525 
-8.048976898 6.002607346 -1.99941504 0.959875524 
-8.550028801 5.263046741 -1.99925828 0.9598783851 
-8.9833498 4.481992245 -1.99912107 0.9598810673 
-9.923130035 1.512861252 -1.998810053 0.9598872066 
-10.01812935 0.6249071956 -1.998772383 0.9598879814 
-10.03597164 0.1786474586 -1.998762369 0.9598881602 
-9.970482826 -1.158720732 -1.998767495 0.959888041 
-9.828203201 -2.040336847 -1.998800516 0.9598873854 
-9.727831841 -2.47554183 -1.998825669 0.9598869085 
-8.73120594 -4.955019474 -1.999095559 0.9598816037 
-8.502416611 -5.338676453 -1.999159455 0.959880352 
-8.256806374 -5.711801529 -1.999228477 0.9598789811 
-7.994853497 -6.073669434 -1.999302626 0.959877491 
-7.71706295 -6.423552036 -1.999381423 0.9598759413 
-6.794333458 -7.394506454 -1.999645472 0.9598707557 
-6.458976746 -7.689789772 -1.999741912 0.9598689079 
-5.37885952 -8.482384682 -2.000054836 0.959862709 
-4.99648428 -8.713742256 -2.000165701 0.9598605633 
-4.604194164 -8.927887917 -2.000280142 0.9598582983 
-4.202741623 -9.124394417 -2.000397444 0.9598559737 
-3.375500441 -9.462975502 -2.000639677 0.959851265 
-2.951391459 -9.604354858 -2.00076437 0.9598488212 
-2.065327168 -9.730871201 -1.980855823 0.9602402449 
-1.616926193 -9.731916428 -1.964467406 0.9605626464 
-1.174941421 -9.732265472 -1.95204246 0.9608071446 
-0.3031958044 -9.730895996 -1.938638091 0.9610709548 
0.5633081198 -9.726777077 -1.940124869 0.9610416889 
0.9986742735 -9.72368145 -1.946446896 0.9609172344 
1.437661052 -9.719870567 -1.956558347 0.9607182145 
1.881982327 -9.715314865 -1.970557094 0.9604428411 
5.235290527 -8.590297699 -2.003209114 0.9598007202 
5.612551212 -8.349389076 -2.003324032 0.9597984552 
5.978732586 -8.091898918 -2.003435373 0.9597963095 
6.333115101 -7.818366528 -2.003543854 0.9597941637 
7.003666878 -7.22528553 -2.003749609 0.959790051 
7.618840218 -6.574819088 -2.00393939 0.9597864151 
8.173749924 -5.872162819 -2.004111767 0.9597830176 
8.663986206 -5.122834206 -2.004265547 0.9597799778 
8.883598328 -4.732522011 -2.004334927 0.9597786069 
9.269648552 -3.924426079 -2.004458189 0.9597761631 
9.435299873 -3.508288383 -2.004512072 0.9597751498 
9.710217476 -2.655935049 -2.004602671 0.9597733021 
9.818927765 -2.221401215 -2.004639864 0.9597725868 
9.908176422 -1.782451153 -2.004670858 0.9597719908 
10.02760696 -0.8947802782 -2.004715919 0.9597711563 
10.05755329 -0.4478417933 -2.004729509 0.9597708583 
10.06757069 1.220703052e-05 -2.004737377 0.9597706795 
10.05760765 0.4478466809 -2.004739285 0.9597706199 
10.02771187 0.8947899938 -2.004734993 0.9597707391 
9.977939606 1.339970708 -2.004724979 0.9597708583 
9.908366203 1.782485366 -2.004709005 0.9597712159 
9.819159508 2.221457481 -2.004687071 0.9597716928 
9.710494995 2.656015635 -2.004659414 0.9597721696 
8.051884651 2.59249258 -1.684416175 0.9660882354 
7.609674931 2.829514027 -1.616664052 0.9674298167 
7.536440372 3.190688372 -1.629672647 0.9671720862 
8.664460182 5.12312746 -2.004374743 0.9597777724 
8.427709579 5.503298283 -2.004308462 0.9597790837 
8.174264908 5.87252903 -2.004236937 0.9597805142 
7.870339394 6.20305872 -1.99546051 0.9599530101 
7.206017971 6.218584061 -1.895359635 0.9619233012 
6.473371506 6.67820549 -1.852031112 0.962777257 
6.171853065 6.961774826 -1.852623701 0.9627656341 
5.857821941 7.231603622 -1.853179693 0.9627546072 
5.194926739 7.728110313 -1.854257464 0.9627333879 
4.489955902 8.163808823 -1.855287552 0.9627130032 
4.123349667 8.357465744 -1.855735183 0.9627042413 
2.973225117 8.828725815 -1.855063438 0.9627174735 
2.577263117 8.951242447 -1.854856849 0.9627215266 
2.176303625 9.056105614 -1.854666829 0.9627252817 
0.9512939453 9.262348175 -1.854097962 0.9627364874 
0.5382665992 9.294489861 -1.853897095 0.9627404809 
0.1242700145 9.308312416 -1.85371232 0.9627441168 
-0.7034130692 9.280907631 -1.853392959 0.9627504349 
-2.335029364 9.007646561 -1.852962732 0.9627588391 
-3.512895346 8.616086006 -1.852828622 0.9627615213 
-4.254052639 8.248959541 -1.848167419 0.9628534913 
-4.616533279 8.051088333 -1.848057508 0.9628555775 
-4.969807148 7.83728981 -1.847950101 0.9628577232 
-5.646064281 7.363744736 -1.847744107 0.962861836 
-6.574929237 6.545744419 -1.847459078 0.9628673792 
-8.25730896 5.712158203 -1.999350071 0.9598765969 
-8.502929688 5.338950157 -1.999273062 0.959878087 
-9.136967659 4.159296989 -1.999072075 0.959882021 
-9.469970703 3.330576181 -1.99896419 0.9598841667 
-9.608534813 2.905956984 -1.998918414 0.9598850608 
-9.82841301 2.040380716 -1.998843789 0.9598865509 
-9.909301758 1.601137638 -1.99881506 0.9598870873 
-10.01219749 0.7140527368 -1.998775125 0.9598878622 
-10.03594685 -0.178642571 -1.998758554 0.9598882198 
-9.980395317 -1.069931626 -1.998765469 0.959888041 
-9.845947266 -1.952807546 -1.998796225 0.959887445 
-9.749443054 -2.38888669 -1.998820186 0.9598870277 
-9.633662224 -2.820258617 -1.998850107 0.9598864317 
-9.49885273 -3.246059418 -1.998885632 0.9598857164 
-9.345233917 -3.665458918 -1.998926759 0.9598849416 
-8.30735302 -5.638056278 -1.999214292 0.9598789215 
-8.048435211 -6.002202034 -1.999287367 0.9598781466 
-7.483818054 -6.694353104 -1.999447942 0.95987463 
-5.454050064 -8.434096336 -2.000032663 0.9598631859 
-5.073754787 -8.668847084 -2.00014329 0.9598609805 
-4.28369379 -9.086540222 -2.00037384 0.9598564506 
-3.875483274 -9.268637657 -2.000493288 0.959854126 
-1.262927175 -9.732255936 -1.954217196 0.9607643485 
-0.8247924447 -9.732043266 -1.94487381 0.9609482288 
-0.389934063 -9.731146812 -1.939304352 0.9610578418 
2.242512226 -9.711111069 -1.984647989 0.9601656795 
3.962434053 -9.244541168 -2.00282383 0.95980829 
5.906403542 -8.144709587 -2.003413439 0.9597967267 
8.121123314 -5.944606781 -2.004095316 0.9597833157 
8.618000031 -5.199677467 -2.004251003 0.9597802758 
9.234296799 -4.006762505 -2.004446983 0.9597764015 
9.891889572 -1.870571256 -2.004665136 0.95977211 
9.965446472 -1.428703547 -2.004691839 0.9597715735 
10.06119347 0.3583374023 -2.004739285 0.9597706199 
10.03527546 0.8055419922 -2.004736185 0.9597707391 
9.923859596 1.694265127 -2.004712582 0.9597711563 
9.733761787 2.569514036 -2.004665375 0.95977211 
7.524159908 3.506306171 -1.652970672 0.9667106867 
8.709770203 5.045832634 -2.004387379 0.959777534 
8.476418495 5.428095818 -2.004322052 0.9597788453 
8.226284027 5.799582481 -2.004251719 0.9597802162 
7.95984602 6.159535885 -2.004176378 0.9597817063 
7.333605766 6.21566391 -1.91428709 0.961550355 
6.818405628 6.321154594 -1.851438761 0.9627889395 
6.532094479 6.619902134 -1.851908326 0.9627797008 
6.233166218 6.906159401 -1.852508068 0.9627678394 
5.92158699 7.178789139 -1.85307157 0.962756753 
4.917705059 7.90997076 -1.854690671 0.9627248049 
4.562206745 8.123103142 -1.855192542 0.9627149105 
4.197382927 8.320048332 -1.855649233 0.9627059102 
3.822968721 8.49819088 -1.855575085 0.9627073407 
2.65689683 8.928139687 -1.854896784 0.9627207518 
2.256870031 9.036552429 -1.854703426 0.9627245665 
1.033723116 9.253727913 -1.854140162 0.9627356529 
-0.6208227277 9.286952972 -1.853421926 0.9627498388 
-1.033249497 9.249445915 -1.853284359 0.9627525806 
-2.654052734 8.918581009 -1.852910876 0.962759912 
-3.81729722 8.485578537 -1.852820516 0.9627616405 
-4.18050766 8.286599159 -1.848189712 0.9628530145 
-5.245322227 7.655109882 -1.847866297 0.9628594518 
-6.516493797 6.604037762 -1.847477078 0.9628670812 
-7.259785175 6.153054237 -1.895007253 0.9619300365 
-7.923630238 6.131513596 -1.995057225 0.9599609971 
-8.455126762 5.414467812 -1.999288082 0.959877789 
-9.099638939 4.240483284 -1.999083996 0.9598817825 
-9.58231926 2.991381884 -1.998927116 0.959884882 
-9.809892654 2.127792835 -1.998850346 0.9598864317 
-9.894681931 1.689282179 -1.998820424 0.9598870277 
-10.00545406 0.8031103611 -1.998777986 0.9598878622 
-10.02323246 -0.5357421637 -1.998758554 0.9598882198 
-9.936035156 -1.424492121 -1.998775005 0.9598878622 
-9.658369064 -2.734384775 -1.998843551 0.9598864913 
-9.527323723 -3.161367178 -1.998878002 0.9598858953 
-8.817929268 -4.798745155 -1.999071479 0.9598820806 
-8.595995903 -5.186410904 -1.999133229 0.9598808289 
-7.543010235 -6.627446175 -1.999431014 0.9598749876 
-7.241034985 -6.95672369 -1.999517322 0.9598733187 
-6.251581669 -7.859728813 -1.999801874 0.9598676562 
-5.896059513 -8.130444527 -1.999904633 0.9598656893 
-5.528850079 -8.385122299 -2.000011206 0.9598636031 
-5.150663853 -8.623239517 -2.000120878 0.9598614573 
-3.121821165 -9.550061226 -2.000714302 0.9598497748 
-2.694082022 -9.68009758 -2.000840187 0.9598472714 
-1.795410156 -9.731586456 -1.970538616 0.9604431987 
-0.9120776057 -9.732140541 -1.946437836 0.9609174132 
-0.4766967595 -9.731389046 -1.940119386 0.9610418081 
0.3898095489 -9.727824211 -1.93864131 0.9610708952 
1.261528254 -9.721481323 -1.952053428 0.9608069062 
3.463115215 -9.442145348 -2.002673388 0.9598112702 
3.879943848 -9.279335976 -2.002798796 0.9598087668 
4.689897537 -8.898842812 -2.00304389 0.9598039985 
5.081454754 -8.681903839 -2.003162384 0.9598016739 
5.462936878 -8.447753906 -2.003278494 0.9597994089 
5.833644867 -8.196845055 -2.003391266 0.9597971439 
6.192834377 -7.92966795 -2.003500938 0.9597949982 
6.539792538 -7.646742821 -2.003607035 0.959792912 
6.873820782 -7.348642349 -2.003709555 0.9597908854 
7.500483036 -6.709262371 -2.003902674 0.9597870708 
7.791860104 -6.369255066 -2.003992796 0.9597853422 
8.327807426 -5.651994705 -2.004159927 0.959782064 
9.371254921 -3.675663948 -2.004491329 0.9597755075 
9.525724411 -3.255249023 -2.004541636 0.9597745538 
9.777775764 -2.395781279 -2.004625559 0.9597728848 
9.874834061 -1.958488703 -2.004659176 0.9597722292 
9.952316284 -1.517309546 -2.004687071 0.9597716331 
10.01006603 -1.073105454 -2.004708767 0.9597712159 
10.06595898 -0.1791772395 -2.004734993 0.9597707391 
10.06398678 0.26877442 -2.004739285 0.9597706199 
10.04206276 0.7161840796 -2.004737377 0.9597706795 
9.85718441 2.046355009 -2.004696608 0.9597715139 
8.403349876 2.541469574 -1.748198509 0.9648270011 
7.565055847 3.045166016 -1.623881221 0.9672868252 
7.564846039 3.858747482 -1.691029787 0.9659574032 
8.754372597 4.968166351 -2.004399776 0.9597772956 
8.277619362 5.726203442 -2.004266262 0.9597799182 
8.014396667 6.088525295 -2.004191875 0.9597814083 
6.874433517 6.260297775 -1.851454735 0.9627885818 
5.984894753 7.125370979 -1.852961898 0.9627588987 
4.987641335 7.865437031 -1.854585052 0.962726891 
4.27106905 8.281965256 -1.855561495 0.9627076387 
3.898564339 8.464045525 -1.855625391 0.962706387 
2.73628664 8.904345512 -1.854937434 0.9627199173 
2.337231398 9.016298294 -1.854740739 0.9627237916 
1.52631104 9.186501503 -1.85436964 0.9627311826 
1.116039991 9.244377136 -1.854182839 0.9627348185 
0.703632772 9.283827782 -1.853975534 0.9627389312 
0.2899243236 9.304980278 -1.853784084 0.9627426863 
-0.1242724583 9.307787895 -1.853609443 0.9627461433 
-0.9508910775 9.258418083 -1.853310466 0.9627520442 
-1.769790053 9.136135101 -1.853080988 0.9627565145 
-2.174340725 9.047926903 -1.852993011 0.9627583027 
-2.574572802 8.941908836 -1.852922797 0.9627596736 
-4.106669903 8.323561668 -1.848211884 0.9628525972 
-5.177092075 7.70156002 -1.847887039 0.9628589749 
-6.155087948 6.942858696 -1.847588181 0.9628648758 
-6.747136116 6.367704868 -1.847406149 0.9628684521 
-7.785329342 6.1360569 -1.973907828 0.9603769183 
-8.40666008 5.489550591 -1.999303222 0.959877491 
-8.642207146 5.10997057 -1.999229193 0.9598789811 
-8.860669136 4.720297813 -1.999160171 0.959880352 
-9.555365562 3.076533079 -1.998936057 0.9598847628 
-9.879296303 1.777255774 -1.998825908 0.9598868489 
-9.997929573 0.89213866 -1.998781204 0.959887743 
-9.997841835 -0.8921239972 -1.998762369 0.9598881006 
-9.879106522 -1.777216792 -1.998788118 0.9598876238 
-9.790370941 -2.214941263 -1.998809934 0.9598872066 
-9.682285309 -2.648286104 -1.998837352 0.9598866701 
-9.555038452 -3.076464891 -1.998870611 0.9598860145 
-9.061166763 -4.321147442 -1.999004126 0.9598833919 
-8.860219955 -4.720068455 -1.999059677 0.959882319 
-8.641737938 -5.109692097 -1.999120474 0.9598811269 
-8.406171799 -5.489228249 -1.999186516 0.9598798156 
-7.885612488 -6.215090275 -1.99933362 0.959876895 
-7.601633072 -6.559987545 -1.999414325 0.9598753452 
-5.968134403 -8.077566147 -1.99988389 0.9598661065 
-5.603208065 -8.335488319 -1.999989629 0.9598640203 
-5.22715807 -8.576965332 -2.000098705 0.959861815 
-4.84066391 -8.801513672 -2.000211239 0.9598596692 
-3.62678957 -9.369147301 -2.000566006 0.9598526955 
-3.206625938 -9.521784782 -2.000689268 0.9598502517 
-2.780065775 -9.655610085 -2.000814676 0.9598478079 
-2.338173866 -9.729892731 -1.992658973 0.960008204 
-1.439472675 -9.732145309 -1.959029317 0.9606696367 
-0.9995532036 -9.732213974 -1.948153853 0.9608836174 
-0.5635888577 -9.731584549 -1.941083431 0.9610228539 
-0.1299023479 -9.730287552 -1.937749863 0.961088419 
0.7371166945 -9.725631714 -1.94220221 0.9610007405 
1.173727989 -9.72224617 -1.9500314 0.9608466625 
1.614643574 -9.71813488 -1.961685896 0.9606173635 
3.378923178 -9.472468376 -2.002647877 0.9598117471 
3.79718256 -9.313368797 -2.002773762 0.9598093033 
4.61050272 -8.940109253 -2.003019571 0.9598044157 
7.131276608 -7.09962368 -2.00378871 0.9597893357 
8.013876915 -6.08812952 -2.004061937 0.9597839713 
8.277121544 -5.725820065 -2.004144192 0.959782362 
8.523971558 -5.352155685 -2.004221439 0.9597808123 
9.161420822 -4.170422077 -2.00442338 0.9597768784 
9.63572216 -2.914177179 -2.004577875 0.9597738385 
9.938388824 -1.605832458 -2.004681826 0.9597717524 
10.01018524 1.07311523 -2.004731655 0.9597707987 
9.875026703 1.958583951 -2.004701138 0.9597713947 
7.80172348 2.666100979 -1.641751051 0.9669328332 
7.552340984 3.76802969 -1.680670261 0.9661623836 
8.328314781 5.652338505 -2.004280567 0.9597796202 
7.596469402 6.209547997 -1.953738689 0.9607737064 
6.963571548 6.229043007 -1.860469341 0.9626110196 
6.647997856 6.501698971 -1.851658583 0.9627846479 
6.354311466 6.793244362 -1.852272391 0.9627724886 
6.047721863 7.071391582 -1.852850556 0.9627611041 
5.728813171 7.33558321 -1.853391647 0.9627504349 
5.057128906 7.820297718 -1.854477644 0.9627290368 
4.344375134 8.243244171 -1.855472088 0.9627094269 
3.973823071 8.429257393 -1.855676174 0.9627054334 
3.208090782 8.746823311 -1.855195284 0.9627148509 
2.815497875 8.879836082 -1.8549788 0.9627191424 
2.014707088 9.093047142 -1.854595542 0.9627267122 
0.7862597704 9.277397156 -1.854015589 0.9627381563 
0.3727490008 9.302219391 -1.853821158 0.962741971 
-0.04141113162 9.308693886 -1.853642941 0.9627454877 
-1.279760718 9.218200684 -1.853210211 0.9627540112 
-1.688452125 9.15160656 -1.853100896 0.9627562165 
-2.093774319 9.066996574 -1.853009105 0.9627579451 
-2.494931698 8.964526176 -1.852935314 0.9627594352 
-2.89115715 8.844408989 -1.852879763 0.9627605081 
-3.049902201 8.091997147 -1.721995473 0.9653449059 
-4.400087833 8.1717453 -1.848123074 0.9628543258 
-4.758974552 7.967458248 -1.848014235 0.9628564715 
-5.108381271 7.747419357 -1.84790802 0.9628586173 
-5.447649002 7.51210165 -1.847804546 0.9628605843 
-6.0931077 6.997443676 -1.847607255 0.9628645182 
-6.398017406 6.719138145 -1.847513556 0.9628663659 
-6.690275669 6.427531719 -1.847423673 0.962868154 
-7.014821529 6.163322449 -1.859417081 0.9626316428 
-7.649948597 6.140480995 -1.953358293 0.9607812166 
-8.357567787 5.564174652 -1.9993186 0.9598771334 
-9.022836685 4.401816368 -1.999108553 0.9598813057 
-9.209433556 3.995981455 -1.99904871 0.9598824978 
-9.527650833 3.161479473 -1.998945236 0.9598845243 
-9.658642769 2.734467745 -1.998901725 0.9598854184 
-9.86310482 1.865126967 -1.998831749 0.9598867893 
-10.02329063 0.5357519388 -1.998769999 0.9598879814 
-10.03706074 0.08932617307 -1.998761058 0.9598885179 
-10.00537109 -0.8031445146 -1.998760939 0.9598881602 
-9.705429077 -2.562041044 -1.998831391 0.9598867893 
-9.582011223 -2.9912889 -1.998863459 0.9598861337 
-9.278613091 -3.83123517 -1.998944759 0.9598845243 
-8.901830673 -4.640986443 -1.999048114 0.9598825574 
-8.454638481 -5.414150238 -1.999172926 0.959880054 
-8.205722809 -5.785078049 -1.999243021 0.9598786831 
-7.659665585 -6.492006779 -1.999397635 0.9598756433 
-6.728300571 -7.454760551 -1.999664426 0.959870398 
-6.039709568 -8.024057388 -1.999863029 0.9598665237 
-5.677087307 -8.285212517 -1.999968052 0.9598644376 
-4.918385983 -8.757966042 -2.000188589 0.9598608613 
-3.710029125 -9.336374283 -2.000541687 0.9598531127 
-2.429948568 -9.729506493 -1.996931434 0.9599241614 
-1.52810061 -9.732043266 -1.961671352 0.9606176615 
-1.087182641 -9.732255936 -1.950022697 0.9608468413 
-0.6505151391 -9.731767654 -1.94219625 0.9610009193 
0.2165185511 -9.728752136 -1.937751174 0.961088419 
0.6501855254 -9.726213455 -1.941089153 0.9610227346 
1.08614254 -9.722980499 -1.948164225 0.9608834386 
1.971662521 -9.714306831 -1.973834991 0.9603783488 
5.686672211 -8.29921627 -2.003346443 0.959798038 
6.05055666 -8.03848362 -2.003457546 0.9597958326 
6.402526855 -7.761757851 -2.003565073 0.9597937465 
7.067768574 -7.162722111 -2.003769159 0.9597896934 
7.379716396 -6.841594219 -2.003865242 0.9597878456 
7.677135944 -6.506803989 -2.003957272 0.9597859979 
8.225764275 -5.799221039 -2.004127979 0.95978266 
9.123879433 -4.251774788 -2.004411459 0.9597771168 
9.304265022 -3.8417871 -2.004469633 0.9597759843 
9.609375 -2.999772787 -2.004569292 0.9597740173 
9.733495712 -2.569448233 -2.004610777 0.9597731829 
9.989340782 -1.251088858 -2.004700661 0.9597713947 
10.03519249 -0.805532217 -2.004719257 0.9597710371 
10.06115723 -0.3582885563 -2.004731655 0.9597707987 
9.892096519 1.870561481 -2.004705191 0.9597713351 
7.94340086 2.635786057 -1.666561842 0.9664415717 
7.594841003 2.901206017 -1.618932724 0.9673848152 
8.378358841 5.578014851 -2.004294634 0.9597793818 
7.732001781 6.20634985 -1.974310875 0.9603689909 
5.793557167 7.283888817 -1.853286505 0.9627524614 
4.417358398 8.203835487 -1.855380654 0.962711215 
3.670920372 8.564414024 -1.855476379 0.9627093673 
2.894487143 8.854616165 -1.855020881 0.962718308 
2.497426748 8.973637581 -1.85481751 0.9627223611 
2.095605373 9.074929237 -1.854630947 0.962725997 
1.689628839 9.158234596 -1.85444212 0.9627297521 
0.4555468559 9.29872036 -1.853858709 0.9627411962 
-0.3726513684 9.300668716 -1.853512526 0.9627480507 
-2.41505599 8.986442566 -1.852948666 0.9627591372 
-2.964921713 8.083835602 -1.714574218 0.9654916525 
-3.589443207 8.58446312 -1.852825403 0.9627615809 
-4.687919617 8.009589195 -1.848035812 0.9628560543 
-5.711323261 7.313117504 -1.84772408 0.9628622532 
-6.030642033 7.051476955 -1.847626328 0.9628641009 
-6.338049412 6.775859356 -1.847532034 0.9628660083 
-6.914531231 6.185122013 -1.847354412 0.962869525 
-8.307831764 5.638354301 -1.999334216 0.9598767161 
-8.550028801 5.263046741 -1.99925828 0.9598783851 
-9.345610619 3.665610313 -1.999004722 0.9598833323 
-9.633955002 2.820346594 -1.998910069 0.9598852396 
-9.749668121 2.388911009 -1.998870969 0.9598861337 
-9.846132278 1.952851534 -1.998837709 0.9598867297 
-9.980503082 1.069980502 -1.998788238 0.9598876238 
-9.828203201 -2.040336847 -1.998800516 0.9598873854 
-9.727807045 -2.475585938 -1.998825669 0.9598869085 
-9.469614029 -3.330492973 -1.99889338 0.9598855972 
-9.312299728 -3.748471498 -1.998935699 0.9598847628 
-9.13654232 -4.159145355 -1.998983622 0.9598838091 
-8.942739487 -4.561542988 -1.999036789 0.9598827362 
-8.73120594 -4.955019474 -1.999095559 0.9598816037 
-8.502441406 -5.338647366 -1.999159455 0.959880352 
-7.71706295 -6.423552036 -1.999381423 0.9598759413 
-7.42402792 -6.760722637 -1.999464989 0.959874332 
-7.116208553 -7.084621429 -1.999553084 0.9598726034 
-6.458976746 -7.689789772 -1.999741912 0.9598689079 
-6.110798359 -7.969929218 -1.999842525 0.9598668814 
-5.37882328 -8.482404709 -2.000054836 0.959862709 
-4.99648428 -8.713742256 -2.000165701 0.9598605633 
-4.604145527 -8.927909851 -2.000280142 0.9598582983 
-3.792914867 -9.302897453 -2.000517368 0.9598535299 
-3.375541925 -9.462964058 -2.000639677 0.9598512053 
-2.521437883 -9.726742744 -2.00089097 0.9598463178 
-2.065327168 -9.730871201 -1.980855823 0.9602402449 
-1.616970181 -9.731916428 -1.964468837 0.9605626464 
-0.737641573 -9.731918335 -1.943460703 0.9609760642 
-0.3031958044 -9.730895996 -1.938638091 0.9610709548 
0.9987158179 -9.723684311 -1.946447849 0.9609172344 
1.437661052 -9.719870567 -1.956558347 0.9607182145 
1.882019043 -9.715314865 -1.970558763 0.9604427814 
2.333439827 -9.709975243 -1.988580942 0.9600883722 
3.20968008 -9.530874252 -2.002597094 0.9598127604 
3.630739689 -9.379238129 -2.002723694 0.959810257 
4.044579983 -9.20904541 -2.002848625 0.9598077536 
4.45053196 -9.020537376 -2.002971411 0.959805429 
4.84765625 -8.814174652 -2.003091574 0.9598030448 
5.235290527 -8.590297699 -2.003209114 0.9598007202 
5.612509727 -8.349409103 -2.003324032 0.9597984552 
6.333080769 -7.81839323 -2.003543854 0.9597941637 
7.618869305 -6.574794769 -2.00393939 0.9597863555 
8.427211761 -5.502968788 -2.00419116 0.9597814083 
8.664006233 -5.12280035 -2.004265547 0.9597799778 
8.883598328 -4.732522011 -2.004334927 0.9597786069 
9.085632324 -4.332758904 -2.0043993 0.9597773552 
9.269633293 -3.924465179 -2.004458189 0.9597761631 
9.908176422 -1.782451153 -2.004670858 0.9597719908 
9.977780342 -1.339985371 -2.004696369 0.9597715139 
10.05756283 -0.4477929473 -2.004729509 0.9597708583 
10.02771187 0.8947899938 -2.004734993 0.9597707391 
9.977927208 1.34001708 -2.004724979 0.9597709179 
9.908366203 1.782485366 -2.004709005 0.9597712159 
9.819152832 2.221498966 -2.004687071 0.9597716331 
9.710494995 2.656015635 -2.004659414 0.9597721696 
7.617604733 4.058103085 -1.718697906 0.9654101133 
8.427709579 5.503298283 -2.004308462 0.9597790837 
8.174289703 5.872495174 -2.004236937 0.9597805142 
7.870339394 6.20305872 -1.99546051 0.9599530101 
6.768535137 6.387761116 -1.853227139 0.9627532959 
6.473337173 6.678229809 -1.852031231 0.962777257 
5.857792854 7.231630802 -1.853179932 0.9627546072 
5.531879902 7.487109184 -1.853698134 0.9627444148 
4.847407341 7.953855038 -1.854794621 0.9627227783 
4.489955902 8.163808823 -1.855287552 0.9627130032 
3.363451958 8.688752174 -1.855286479 0.9627130628 
1.362521887 9.211870193 -1.854299903 0.9627324939 
0.9512499571 9.262346268 -1.854097962 0.962736547 
0.5382665992 9.294489861 -1.853897095 0.9627404809 
0.1242285147 9.308307648 -1.85371232 0.9627441168 
-0.2898974419 9.30378437 -1.853544116 0.962747395 
-0.7034569979 9.28091526 -1.853392959 0.9627503753 
-1.115488291 9.239769936 -1.853258967 0.9627530575 
-2.335029364 9.007646561 -1.852962732 0.9627588391 
-2.733273983 8.894557953 -1.85289979 0.9627601504 
-3.126186371 8.763947487 -1.852855086 0.9627610445 
-3.512861252 8.616106033 -1.852828622 0.9627615213 
-5.313210487 7.608036995 -1.847845554 0.9628598094 
-5.64609623 7.363722801 -1.847744107 0.962861836 
-6.277580261 6.832048416 -1.847550631 0.962865591 
-6.574929237 6.545744419 -1.847459078 0.9628673792 
-6.859296799 6.246459961 -1.847371459 0.9628691673 
-8.25730896 5.712158203 -1.999350071 0.9598765969 
-8.502929688 5.338950157 -1.999273062 0.959878087 
-8.731669426 4.955287933 -1.999201059 0.9598795176 
-9.136942863 4.159335613 -1.999072075 0.9598820806 
-9.312675476 3.748627901 -1.99901545 0.9598831534 
-9.469950676 3.33062005 -1.99896419 0.9598841667 
-9.608534813 2.905956984 -1.998918414 0.9598850608 
-9.728095055 2.475571156 -1.998878241 0.9598858356 
-9.82841301 2.040380716 -1.998843789 0.9598865509 
-9.909316063 1.601098537 -1.99881506 0.9598870873 
-10.01219749 0.7140087485 -1.998775125 0.9598878622 
-10.03399372 0.267968744 -1.9987638 0.9598881006 
-9.980390549 -1.069970727 -1.998765469 0.959888041 
-9.922968864 -1.512832046 -1.998777866 0.9598878622 
-9.749443054 -2.388847589 -1.998820186 0.9598870277 
-9.498857498 -3.246015549 -1.998885632 0.9598857164 
-9.173163414 -4.07759285 -1.998973489 0.9598840475 
-8.982914925 -4.481777191 -1.999025822 0.9598829746 
-8.774892807 -4.877114296 -1.9990834 0.9598818421 
-8.54955101 -5.262748718 -1.999146223 0.9598805904 
-8.307265282 -5.638085842 -1.999214292 0.9598791599 
-8.048435211 -6.002202034 -1.999287367 0.9598781466 
-7.77384758 -6.354587078 -1.99936533 0.9598762989 
-7.483818054 -6.694353104 -1.999447942 0.95987463 
-7.178891659 -7.020961761 -1.999534965 0.959872961 
-6.527067661 -7.631950378 -1.999722362 0.9598692656 
-6.181462288 -7.915112019 -1.999822021 0.9598672986 
-5.454093933 -8.434074402 -2.000032663 0.9598631859 
-5.073754787 -8.668847084 -2.00014329 0.9598609805 
-4.683425426 -8.886445045 -2.000257015 0.9598587751 
-4.28369379 -9.086540222 -2.00037384 0.9598564506 
-2.607839346 -9.703805923 -2.000865459 0.9598467946 
-1.706061959 -9.731762886 -1.96742332 0.9605044723 
-1.262888193 -9.732255936 -1.954216123 0.9607643485 
0.4765429497 -9.727318764 -1.93930769 0.9610577226 
0.9113500714 -9.724360466 -1.944881439 0.96094805 
1.349514127 -9.720693588 -1.954229236 0.9607640505 
1.792587876 -9.716286659 -1.967440009 0.9605041146 
2.242512226 -9.711111069 -1.984647989 0.9601656795 
3.124719143 -9.558927536 -2.002571344 0.9598132372 
3.962434053 -9.244541168 -2.00282383 0.95980829 
4.370051384 -9.059660912 -2.002946854 0.9598059058 
5.537946701 -8.398918152 -2.003301144 0.9597989321 
5.90643549 -8.144684792 -2.003413439 0.9597967267 
6.263205528 -7.874340534 -2.003522396 0.9597945809 
6.607666016 -7.588303089 -2.003627777 0.9597924948 
7.256674767 -6.971684456 -2.003827572 0.9597886205 
7.848315239 -6.299706936 -2.004010439 0.9597849846 
8.121095657 -5.944638729 -2.004095316 0.9597833157 
8.617978096 -5.199716568 -2.004251003 0.9597802758 
9.554362297 -3.17034173 -2.004550934 0.959774375 
9.686159134 -2.742209435 -2.004594803 0.9597734809 
9.798732758 -2.308706045 -2.004632711 0.959772706 
9.891899109 -1.870524883 -2.004665136 0.95977211 
9.965446472 -1.428703547 -2.004691839 0.9597715735 
10.05316353 -0.5373339653 -2.004727364 0.9597708583 
10.06119633 0.3582958877 -2.004739285 0.9597706199 
10.03527546 0.8055419922 -2.004736185 0.9597707391 
9.838568687 2.133964777 -2.004692078 0.9597715735 
8.142562866 2.541887045 -1.698583364 0.9658079743 
7.546696663 3.116152287 -1.625831723 0.9672481418 
7.524159908 3.506306171 -1.652970672 0.9667106867 
7.592998028 3.958664417 -1.705131531 0.9656783938 
8.709770203 5.045832634 -2.004387379 0.959777534 
8.4763937 5.428134441 -2.004322052 0.9597788453 
8.226284027 5.799582481 -2.004251719 0.9597802162 
7.333605766 6.21566391 -1.91428709 0.961550355 
6.532126427 6.619887352 -1.851908326 0.9627796412 
5.597973347 7.437194824 -1.853597522 0.9627463818 
4.562245846 8.123078346 -1.855192542 0.9627149105 
4.197382927 8.320048332 -1.855649233 0.9627059102 
2.65689683 8.928139687 -1.854896784 0.9627207518 
1.852475524 9.127077103 -1.85451746 0.9627282619 
1.033723116 9.253727913 -1.854140162 0.9627356529 
0.6209570169 9.289524078 -1.853935957 0.962739706 
0.2071240246 9.307011604 -1.853747964 0.9627434015 
-0.2071142495 9.306154251 -1.853576422 0.962746799 
-0.6207885742 9.286955833 -1.853421926 0.9627498388 
-1.033249497 9.249445915 -1.853284359 0.9627525806 
-1.443547368 9.193742752 -1.853164315 0.9627549052 
-1.851020455 9.119921684 -1.853061914 0.9627569318 
-2.254736185 9.028146744 -1.852977395 0.9627586007 
-3.048107862 8.791455269 -1.852862477 0.9627608657 
-3.216598988 8.094701767 -1.734481454 0.965098083 
-4.18050766 8.286599159 -1.848189712 0.9628530145 
-4.899924278 7.881308556 -1.847971439 0.962857306 
-6.216547489 6.887751102 -1.847569346 0.9628652334 
-6.516493797 6.604037762 -1.847477078 0.9628670812 
-6.803454399 6.307353497 -1.847388744 0.9628688097 
-7.923569202 6.131513596 -1.99504745 0.9599611759 
-8.455112457 5.41449213 -1.999288082 0.959877789 
-8.687309265 5.032797813 -1.999215007 0.9598792195 
-8.902289391 4.641181469 -1.999146938 0.9598805904 
-9.279008865 3.831357241 -1.999026299 0.959882915 
-9.439994812 3.414755821 -1.998973966 0.9598839283 
-9.582333565 2.991337776 -1.998927116 0.959884882 
-9.705698013 2.562114239 -1.99888587 0.9598857164 
-9.894681931 1.689282179 -1.998820424 0.9598870277 
-10.03122044 0.3572363257 -1.998765707 0.959888041 
-9.936035156 -1.424492121 -1.998775005 0.9598878622 
-9.862905502 -1.865131736 -1.998792052 0.9598875642 
-9.658353806 -2.734423876 -1.998843551 0.9598865509 
-9.377441406 -3.58215332 -1.998918056 0.9598851204 
-9.022382736 -4.401650429 -1.999014854 0.959883213 
-8.59597683 -5.186445236 -1.999133229 0.9598808289 
-8.357050896 -5.563837528 -1.999200225 0.9598795772 
-7.543010235 -6.627446175 -1.999431014 0.9598749876 
-6.92472887 -7.272272587 -1.999607921 0.9598715305 
-6.251581669 -7.859728813 -1.999801874 0.9598676562 
-5.896027565 -8.130473137 -1.999904633 0.9598656893 
-5.528850079 -8.385122299 -2.000011206 0.9598636031 
-5.150622368 -8.62326622 -2.000120878 0.9598613977 
-4.762243748 -8.844326019 -2.000234127 0.9598591924 
-4.364318848 -9.047964096 -2.000350237 0.9598568678 
-3.957795382 -9.233674049 -2.000469208 0.9598545432 
-3.543293476 -9.401176453 -2.000590563 0.959852159 
-3.121821165 -9.550061226 -2.000714302 0.9598497748 
-2.694045305 -9.680105209 -2.000840187 0.9598472714 
-1.795410156 -9.731586456 -1.970538616 0.9604431987 
-1.351118088 -9.732209206 -1.956545472 0.9607185125 
-0.04328857362 -9.729948044 -1.937528372 0.9610927701 
0.389768064 -9.727828979 -1.938640952 0.9610708952 
0.8241943121 -9.725009918 -1.943466902 0.9609758854 
1.261574626 -9.721488953 -1.952054739 0.9608068466 
2.608532667 -9.706386566 -2.00139761 0.9598363638 
3.87998271 -9.279315948 -2.002798796 0.9598087668 
4.289140701 -9.098114967 -2.002922535 0.9598063827 
5.83360815 -8.196874619 -2.003391266 0.9597971439 
6.539758205 -7.646767616 -2.003607035 0.959792912 
7.791886806 -6.369225979 -2.003992796 0.9597853422 
8.067814827 -6.016596317 -2.004078865 0.9597836733 
8.327832222 -5.651957989 -2.004159927 0.959782064 
8.571312904 -5.276147366 -2.004236221 0.9597805142 
8.797861099 -4.889775276 -2.004307747 0.9597791433 
9.198237419 -4.088735104 -2.004435301 0.9597766399 
9.371254921 -3.675663948 -2.004491329 0.9597755075 
9.777775764 -2.395781279 -2.004625559 0.9597728848 
9.874818802 -1.958537579 -2.004659176 0.9597722292 
9.952316284 -1.517309546 -2.004687071 0.9597716331 
10.0479784 -0.6267675757 -2.004724741 0.9597709179 
9.85718441 2.046355009 -2.004696608 0.9597715139 
9.756269455 2.482834339 -2.004671335 0.9597719908 
8.754372597 4.968166351 -2.004399776 0.9597772956 
8.52445507 5.352473259 -2.004335642 0.9597785473 
8.014426231 6.088486195 -2.004191875 0.9597814083 
7.463684082 6.212646484 -1.933735013 0.9611674547 
6.874455452 6.260271072 -1.851454735 0.9627886415 
6.590312481 6.561064243 -1.85178411 0.9627821445 
5.984894753 7.125370979 -1.852961898 0.9627588987 
4.987607479 7.865456581 -1.854585052 0.962726891 
3.898564339 8.464045525 -1.855625391 0.962706387 
1.526350021 9.186498642 -1.85436964 0.962731123 
1.116039991 9.244377136 -1.854182839 0.9627348185 
0.2899243236 9.304980278 -1.853784084 0.9627426863 
-0.950932622 9.258407593 -1.853310466 0.9627520442 
-2.174340725 9.047926903 -1.852993011 0.9627583027 
-3.741611242 8.519218445 -1.852821469 0.9627617002 
-4.106669903 8.323561668 -1.848211884 0.9628525972 
-4.829648495 7.924685001 -1.847992659 0.9628568888 
-5.177048206 7.701584339 -1.847887039 0.9628589749 
-5.514233112 7.463234901 -1.847784281 0.9628610015 
-5.840422153 7.210183144 -1.847684622 0.9628629684 
-6.457536697 6.66181612 -1.847495198 0.9628667235 
-8.860669136 4.720297813 -1.999160171 0.959880352 
-9.244569778 3.913862228 -1.999037385 0.9598827362 
-9.555356026 3.07657218 -1.998936057 0.9598847032 
-9.68256855 2.648374081 -1.998893738 0.9598855376 
-9.879296303 1.777255774 -1.998825908 0.9598868489 
-9.997929573 0.89213866 -1.998781204 0.959887743 
-9.570619583 -0.4261572063 -1.998894334 0.9616106153 
-9.494935989 -1.275112271 -1.998907685 0.9616103768 
-9.428886414 -1.696245074 -1.998922825 0.9616100788 
-9.344179153 -2.114008665 -1.998943567 0.9616097212 
-9.241015434 -2.527621984 -1.998969793 0.9616091847 
-9.119574547 -2.936230421 -1.999001622 0.9616086483 
-8.980097771 -3.339062452 -1.999038815 0.961607933 
-8.822875977 -3.735302687 -1.999081254 0.9616070986 
-8.456377029 -4.504921913 -1.999182105 0.9616052508 
-8.247851372 -4.876777172 -1.999240041 0.9616041183 
-8.023005486 -5.239003658 -1.999303102 0.9616029263 
-7.782277584 -5.590900898 -1.999370813 0.9616016746 
-7.526154518 -5.931769848 -1.999443412 0.961600244 
-7.255107403 -6.260937214 -1.99952054 0.9615988135 
-6.358046532 -7.171796799 -1.999777436 0.9615939856 
-5.695995808 -7.70925045 -1.999968648 0.9615904093 
-4.988771915 -8.185839653 -2.000173807 0.961586535 
-4.619943619 -8.400104523 -2.000281096 0.9615845084 
-4.24193573 -8.597783089 -2.000391483 0.9615824223 
-3.855502844 -8.77845192 -2.000504494 0.9615803361 
-3.461384296 -8.941799164 -2.000619888 0.9615781307 
-2.65326643 -9.215139389 -2.000857115 0.9615736604 
-2.240847111 -9.324611664 -2.000978708 0.9615713954 
-0.5545971394 -9.576422691 -2.001477242 0.9615620375 
1.572722077 -9.465756416 -2.002110958 0.9615500569 
2.819147825 -9.173915863 -2.002484798 0.9615430236 
4.775385857 -8.328156471 -2.003075123 0.9615319371 
5.497292519 -7.871640682 -2.003294706 0.9615277648 
6.497077465 -7.070991039 -2.003600597 0.9615220428 
6.805517197 -6.775295258 -2.00369525 0.9615202546 
7.10049057 -6.466149807 -2.003786325 0.9615185261 
7.381420612 -6.14415741 -2.003873348 0.9615169168 
7.898932934 -5.464225769 -2.004034281 0.9615138173 
8.353927612 -4.740876198 -2.004177332 0.9615111947 
8.911400795 -3.587119102 -2.004355431 0.9615077972 
9.310171127 -2.369267464 -2.004487038 0.9615052938 
9.406498909 -1.952795386 -2.004520178 0.9615046978 
9.583046913 -0.6834472418 -2.004585981 0.9615034461 
9.604001045 -0.2564794719 -2.00459671 0.9615032673 
9.588815689 0.5981298685 -2.004601479 0.9615031481 
9.497616768 1.448015094 -2.004583359 0.9615035057 
9.42372036 1.869052649 -2.004565954 0.9615038633 
9.331145287 2.286376953 -2.004542828 0.9615042806 
7.812389851 2.669731379 -1.722611666 0.966827631 
7.602436543 2.981867552 -1.703904867 0.967181921 
7.556909084 3.359177113 -1.725515127 0.9667726755 
8.430781364 4.206298828 -1.965870976 0.9622327089 
8.396257401 4.666615963 -2.004290104 0.9615090489 
8.180119514 5.035346508 -2.004229784 0.9615101218 
7.699687481 5.74206543 -2.004094601 0.9615126848 
7.436362267 6.078676701 -2.004019976 0.9615140557 
5.769021034 6.745542049 -1.851990461 0.9643810987 
5.149418831 7.23548317 -1.852985978 0.9643622637 
4.823710918 7.45930624 -1.853466034 0.9643532634 
3.42997551 8.203144073 -1.855187774 0.9643207192 
3.062197208 8.349040031 -1.855507135 0.9643146396 
2.307602406 8.586584091 -1.855167747 0.9643210769 
1.923166513 8.679914474 -1.854991317 0.9643244147 
1.534995079 8.755971909 -1.85480082 0.964327991 
0.7505175471 8.855764389 -1.854383945 0.9643358588 
-0.434741199 8.874423981 -1.853873968 0.9643455148 
-1.221606374 8.799433708 -1.853614926 0.9643504024 
-1.611733317 8.735883713 -1.85351038 0.9643523693 
-1.998652339 8.655126572 -1.853422761 0.9643540382 
-2.381596565 8.557343483 -1.853352427 0.9643552899 
-3.848530293 7.978588581 -1.848285079 0.9644510746 
-5.199225903 7.169538498 -1.847874761 0.9644588232 
-5.815292835 6.678373814 -1.84768641 0.9644623399 
-6.106315613 6.41276598 -1.847597003 0.9644640684 
-6.420080185 6.167985916 -1.857593656 0.9642752409 
-6.994433403 6.145427227 -1.942674875 0.962669909 
-9.413613319 1.780126929 -1.998964548 0.9616092443 
-9.4833498 1.35958004 -1.998939157 0.9616097808 
-9.534350395 0.9363769293 -1.998919487 0.9616101384 
-9.566503525 0.511318326 -1.99890542 0.9616103768 
-9.574032784 -0.3409716785 -1.998894095 0.9616106153 
-9.505887985 -1.190566421 -1.998905301 0.9616104364 
-9.362616539 -2.030766487 -1.998939037 0.9616097808 
-9.009423256 -3.258994102 -1.999030828 0.9616081119 
-8.855722427 -3.656606436 -1.999072433 0.9616072774 
-8.68449688 -4.047026157 -1.999119043 0.9616063833 
-8.290884018 -4.803159237 -1.999228001 0.9616042972 
-8.069265366 -5.167372704 -1.999290109 0.9616031647 
-7.831681728 -5.521393776 -1.999356985 0.9616018534 
-7.578578949 -5.86451149 -1.999428511 0.9616006017 
-5.764326096 -7.658178329 -1.999948859 0.9615907669 
-5.418224812 -7.907414436 -2.000049114 0.9615889192 
-5.061374187 -8.141022682 -2.000152588 0.9615869522 
-3.540788412 -8.910534859 -2.000596523 0.961578548 
-3.14108634 -9.059745789 -2.000713825 0.9615764022 
-2.735141516 -9.191046715 -2.000833035 0.9615741372 
-2.323669434 -9.304191589 -2.000954151 0.9615718722 
-0.6397973299 -9.570993423 -2.001451969 0.9615625143 
-0.2134228498 -9.590585709 -2.001578569 0.9615601301 
0.2134301662 -9.591200829 -2.001705408 0.9615576863 
0.6399194002 -9.572810173 -2.001832485 0.9615553617 
3.544509172 -8.919912338 -2.002702951 0.9615389109 
3.938019991 -8.753932953 -2.002821684 0.9615366459 
4.32378149 -8.570586205 -2.002938271 0.9615345001 
4.70102787 -8.370236397 -2.003052711 0.9615323544 
5.068996429 -8.153290749 -2.003164291 0.9615302086 
5.426965237 -7.920158386 -2.003273249 0.961528182 
5.774211407 -7.67131567 -2.003379107 0.9615261555 
6.110058308 -7.407236099 -2.003481865 0.9615242481 
6.433832645 -7.128464222 -2.003581047 0.9615224004 
6.744887352 -6.835539341 -2.003676653 0.9615205526 
7.32639122 -6.209545612 -2.003856421 0.9615172148 
7.595678329 -5.877741337 -2.003939867 0.9615156054 
7.84993124 -5.534272194 -2.004019022 0.9615141153 
8.706957817 -4.057490349 -2.004289627 0.9615090489 
8.879079819 -3.666266918 -2.00434494 0.9615079761 
9.170228958 -2.862717152 -2.004440069 0.9615061879 
9.388715744 -2.036430597 -2.004513741 0.961504817 
9.576564789 -0.7686986923 -2.00458312 0.9615035057 
9.601342201 -0.3419335783 -2.004595041 0.9615032673 
9.60707283 0.08550536633 -2.004601479 0.9615031481 
9.351147652 2.203249454 -2.004547834 0.9615041614 
7.616532803 2.909457922 -1.701194286 0.9672332406 
7.561027527 3.280739784 -1.719721079 0.9668823481 
8.633646965 4.211970329 -2.004355907 0.9615077972 
8.437506676 4.591733456 -2.004301786 0.9615088105 
8.224660873 4.962378025 -2.00424242 0.9615098834 
7.062961102 6.205649376 -1.961710215 0.9623111486 
6.473581314 6.219391823 -1.873074174 0.9639829397 
5.526530743 6.948153973 -1.852406144 0.9643732309 
5.213346958 7.189006329 -1.852892995 0.9643640518 
4.55614996 7.62791729 -1.853865623 0.9643456936 
