# .PCD v0.7 - Point Cloud Data file format
VERSION 0.7
FIELDS x y z intensities
SIZE 4 4 4 4
TYPE F F F F
COUNT 1 1 1 1
WIDTH 924
HEIGHT 1
VIEWPOINT 0 0 0 1 0 0 0
POINTS 924
DATA ascii
9.803339958 12.78575897 -1.849240422 0.9371900558 
9.223405838 13.20707703 -1.848946929 0.9371997714 
8.625451088 13.60219955 -1.848661661 0.9372091293 
7.380402565 14.3112812 -1.848180175 0.9372249246 
6.735622406 14.62353706 -1.847943425 0.9372327328 
6.077702522 14.90686035 -1.847715855 0.9372401834 
5.408000469 15.16083908 -1.847519159 0.9372466803 
4.727824688 15.38503838 -1.847353458 0.9372520447 
4.038459301 15.57896709 -1.847219348 0.9372565746 
2.637595177 15.87477016 -1.847045898 0.9372621775 
1.216122985 16.04562759 -1.846961737 0.9372650385 
-0.2148168832 16.09020805 -1.846961379 0.9372650385 
-0.930383265 16.06515312 -1.847009182 0.9372634292 
-1.644162536 16.00855827 -1.847089529 0.9372608066 
-4.454111099 15.46975994 -1.847718 0.937240243 
-5.138229847 15.25741386 -1.847849369 0.9372358322 
-5.812292576 15.01490974 -1.847992182 0.9372311234 
-7.761555195 14.11226559 -1.848588943 0.9372115135 
-8.382785797 13.75491714 -1.848842621 0.9372031689 
-10.14401627 12.52299976 -1.849761367 0.9371730089 
-11.22138405 11.57645226 -1.850499392 0.9371487498 
-11.72778988 11.06825924 -1.850903869 0.937135458 
-12.21138382 10.53805923 -1.851331115 0.9371212721 
-11.42550468 8.208273888 -1.614700556 0.9449315667 
-12.60663319 8.232096672 -1.72813499 0.9411799312 
-14.54476738 6.936169147 -1.849527717 0.9371806979 
-16.34824371 6.078747272 -2.00192523 0.9321838617 
-16.60239983 5.345495701 -2.001920223 0.9321841002 
-17.16601753 3.088122606 -2.001904488 0.9321846366 
-17.3724823 1.55017817 -2.00189352 0.9321849346 
-17.01132011 -3.848586321 -2.001852512 0.9321859479 
-16.82312775 -4.601501465 -2.001846313 0.9321864843 
-16.60174942 -5.345285416 -2.001840353 0.9321866632 
-16.34748268 -6.078474045 -2.001834631 0.932186842 
-16.06086159 -6.79962635 -2.001828432 0.9321870804 
-15.01278496 -8.87677002 -2.001810789 0.9321876764 
-13.61839104 -9.783679008 -1.924642444 0.9347144961 
-12.6548214 -9.973977089 -1.84939754 0.9371849298 
-11.21460152 -11.56948471 -1.849382639 0.9371854663 
-10.68883038 -12.0568676 -1.849377871 0.9371855855 
-8.404541016 -13.79064655 -1.853641748 0.9370453358 
-7.146110535 -14.48411369 -1.853780508 0.9370408654 
-6.494982719 -14.78824425 -1.85385251 0.9370384812 
-5.155336857 -15.30822945 -1.854000926 0.937033534 
-3.774609327 -15.70703316 -1.854141593 0.9370289445 
-0.1742919832 -13.05406189 -1.498448253 0.9487938285 
0.407145977 -13.06721687 -1.500552177 0.948723793 
0.9876049757 -13.03034401 -1.499881268 0.9487460852 
1.581137657 -13.09663296 -1.514114141 0.9482725263 
2.23707509 -13.464221 -1.566574931 0.9465290308 
4.150849342 -13.50750256 -1.621911287 0.9446935654 
4.823661804 -13.52272701 -1.647896051 0.9438328147 
5.519777775 -13.53845882 -1.678101182 0.9428333044 
6.243361473 -13.55482674 -1.712890148 0.941683352 
6.999147892 -13.57191658 -1.752699256 0.940369308 
7.792470455 -13.58985519 -1.798045635 0.9388746619 
8.629631042 -13.60880089 -1.849557638 0.937179625 
9.249668121 -13.24472904 -1.854217052 0.9370265603 
9.825322151 -12.81445026 -1.853390455 0.9370536804 
10.38092041 -12.35909653 -1.852550268 0.9370812774 
11.91991711 -10.85499763 -1.850434422 0.9371508956 
14.04855156 -9.718327522 -1.960675001 0.9335337877 
15.53586388 -7.924631119 -2.001752615 0.9321895838 
16.17881584 -6.512434006 -2.001761913 0.9321892262 
16.45252609 -5.786337852 -2.001766682 0.9321891069 
16.6936779 -5.048752308 -2.001771688 0.9321889281 
17.07642746 -3.545080423 -2.001782179 0.9321885705 
17.2172718 -2.781950712 -2.001787424 0.9321883917 
17.39650345 -1.240700603 -2.00179863 0.9321879745 
17.40698051 1.085837364 -2.001815796 0.9321874976 
17.24168968 2.628674269 -2.001827717 0.93218714 
8.924552917 2.612641573 -1.067330718 0.9632515907 
7.765214443 2.653600931 -0.9418764114 0.9674999118 
12.49175739 10.21106339 -1.851835847 0.9371047616 
12.02069473 10.75263977 -1.851146936 0.9371274114 
11.52625561 11.27262878 -1.850471616 0.9371495843 
10.47397232 12.24688911 -1.849631786 0.9371772408 
9.917062759 12.69843006 -1.849302649 0.9371880293 
9.340859413 13.12487793 -1.849003077 0.9371978641 
8.746413231 13.52529716 -1.848716378 0.9372073412 
6.865671158 14.56340313 -1.847992539 0.9372311234 
4.176999569 15.54261684 -1.847243667 0.9372557402 
3.481264591 15.71210384 -1.847134709 0.937259376 
2.778771877 15.85077381 -1.847057462 0.9372618198 
2.070873976 15.95828342 -1.847012401 0.9372633696 
1.358908653 16.03422737 -1.846969008 0.9372648001 
0.6442968845 16.07860756 -1.84694612 0.9372655153 
-0.07138916105 16.04831314 -1.842006087 0.9374279976 
-3.621667385 15.68345642 -1.847483158 0.9372478724 
-4.316198826 15.50850773 -1.847683549 0.9372413158 
-5.00219965 15.302351 -1.847824216 0.9372365475 
-6.99627161 14.50429916 -1.848320246 0.937220335 
-8.259806633 13.82857418 -1.848789811 0.937204957 
-8.868104935 13.44947433 -1.849064708 0.9371958375 
-10.58491421 12.15592003 -1.850044847 0.9371635914 
-7.755505085 8.144762993 -1.290853262 0.9557283521 
-12.58114433 10.09865952 -1.851688743 0.9371096492 
-13.02119827 9.531413078 -1.85215497 0.9370942712 
-13.82420635 8.340851784 -1.853147268 0.9370616674 
-14.48248291 7.065324783 -1.849528432 0.9371806383 
-15.99907398 6.111530781 -1.965751886 0.9333674908 
-16.97678375 3.99994874 -2.001910925 0.9321843982 
-17.26504135 2.475222111 -2.001900196 0.9321846962 
-17.35799026 1.704753399 -2.001894712 0.9321849346 
-17.41660309 0.9309252501 -2.00188899 0.9321850538 
-17.4407196 0.1552612334 -2.001883268 0.9321852922 
-17.43030548 -0.6207983494 -2.001877308 0.9321854711 
-15.96411324 -1.281457543 -1.838215232 0.9375525713 
-17.30605125 -2.167531729 -2.001865625 0.9321858287 
-17.04481697 -3.697077513 -2.001853704 0.9321861863 
-16.64866447 -5.197321892 -2.001841784 0.9321866632 
-16.12054825 -6.656403542 -2.001829624 0.932187736 
-15.09120369 -8.742775917 -2.001811981 0.9321876764 
-14.68725777 -9.405407906 -2.001806021 0.9321880341 
-12.7431078 -9.86093998 -1.849398613 0.9371848702 
-11.81615925 -10.95445538 -1.849388361 0.9371852875 
-10.79568577 -11.96130085 -1.849378824 0.9371855259 
-9.5412817 -12.67608166 -1.821019888 0.9381182194 
-9.12820816 -13.32183075 -1.853562236 0.937048018 
-8.526869774 -13.71518803 -1.853628397 0.9370458722 
-7.908615589 -14.08143806 -1.853696346 0.9370436072 
-7.274662971 -14.41983604 -1.853766322 0.9370413423 
-6.626271725 -14.72973824 -1.853837967 0.9370390177 
-5.291323185 -15.26161385 -1.853985906 0.9370340705 
-4.607378006 -15.48250198 -1.854061842 0.9370316267 
-3.914260149 -15.6727562 -1.854135871 0.9370291829 
-2.63878417 -13.00119591 -1.522672057 0.9479879141 
-2.04309082 -13.01180363 -1.511761189 0.9483507872 
-0.290410161 -13.05144215 -1.498382807 0.9487959146 
0.2907421887 -13.06457996 -1.499893427 0.9487457275 
0.8608325124 -12.87740421 -1.481336355 0.9493635297 
1.462712407 -13.09395504 -1.512239695 0.9483348727 
2.735044003 -13.47548103 -1.578220844 0.9461425543 
3.369074583 -13.4898262 -1.595888376 0.945556283 
4.018757343 -13.50451851 -1.617193818 0.9448499084 
4.687363148 -13.51963615 -1.642371774 0.9440157413 
5.378508091 -13.53526592 -1.671708226 0.9430448413 
8.458322525 -13.60492897 -1.838724971 0.9375358224 
10.27126694 -13.64592457 -1.960345984 0.9335445166 
11.32942963 -11.48164749 -1.851387382 0.9371194839 
11.82388496 -10.96161079 -1.850596309 0.9371455312 
14.68687248 -9.405126572 -2.001743555 0.9321898222 
15.46473312 -8.062570572 -2.0017519 0.9321895838 
15.80811024 -7.366682053 -2.00175643 0.932189405 
16.12018776 -6.656208515 -2.00176096 0.9321892858 
16.40037537 -5.932553768 -2.001765966 0.9321890473 
16.86283493 -4.451449871 -2.001775742 0.9321887493 
17.38475609 -1.395422339 -2.001797438 0.9321880341 
17.42965698 -0.6207006574 -2.00180316 0.9321879148 
17.44006538 0.1552465856 -2.001808882 0.932187736 
17.41593742 0.9308886528 -2.001814842 0.9321875572 
17.2643795 2.475134134 -2.001826525 0.9321871996 
16.97619438 3.999804497 -2.001838684 0.9321867228 
7.15221405 2.732087374 -0.8787676692 0.9696441293 
6.733432293 2.921638012 -0.8424628377 0.9708797932 
6.571200848 3.205783606 -0.8391937613 0.9709911346 
12.11678696 10.64605713 -1.851283669 0.9371228814 
11.62694836 11.17041874 -1.850605607 0.9371451735 
10.0300045 12.61010742 -1.849366069 0.9371860027 
9.457575798 13.04163074 -1.849060655 0.9371960163 
8.866691589 13.4473238 -1.848772407 0.9372055531 
6.995217323 14.5021143 -1.848042846 0.9372294545 
6.342365742 14.79701424 -1.847803116 0.9372373819 
5.001088619 15.29895973 -1.847416043 0.9372500181 
4.315236568 15.50504112 -1.847269297 0.9372549057 
2.919704437 15.82550716 -1.847070456 0.9372614622 
2.212775946 15.93929195 -1.847018838 0.9372631311 
0.7873168588 16.07226372 -1.846948028 0.9372654557 
0.07138916105 16.04831314 -1.84200573 0.9374279976 
-0.6442993283 16.07896423 -1.846986175 0.937264204 
-2.071027756 15.95950603 -1.847152948 0.9372587204 
-2.779108763 15.852705 -1.847284079 0.9372544289 
-4.177887917 15.54595661 -1.847640991 0.9372426867 
-4.865710258 15.34604168 -1.847800255 0.9372375011 
-6.211369514 14.85520267 -1.848091483 0.9372278452 
-6.866735458 14.5656805 -1.848279357 0.9372216463 
-7.508749962 14.2474556 -1.848495007 0.937214613 
-8.136164665 13.90116405 -1.848737955 0.9372066259 
-8.747817039 13.52741623 -1.849007726 0.9371977448 
-9.342399597 13.1269989 -1.849303722 0.9371879697 
-9.918806076 12.7006321 -1.849625468 0.9371774197 
-10.47593498 12.24912834 -1.849972486 0.9371660352 
-11.01264858 11.77336597 -1.850344062 0.9371538162 
-12.02075386 10.75270271 -1.851157546 0.9371270537 
-13.35494804 9.063864708 -1.85254252 0.9370815754 
-13.74865437 8.463097572 -1.85304451 0.9370650649 
-14.08478737 7.828278542 -1.849533319 0.9371803999 
-14.41903496 7.193972111 -1.849529386 0.9371805787 
-14.72473812 6.54541254 -1.849525094 0.9371807575 
-17.24233627 2.628737688 -2.001901388 0.9321846962 
-15.89852715 0.9917065501 -1.828341961 0.9378774166 
-15.95906448 -1.138185978 -1.836395979 0.937612474 
-17.32467079 -2.013396025 -2.001866817 0.9321857691 
-17.21789742 -2.782058001 -2.001860857 0.9321860075 
-16.90240479 -4.301330566 -2.001848936 0.9321863651 
-16.4530983 -5.786530495 -2.001836777 0.932186842 
-15.5363493 -7.924924374 -2.001818895 0.932187438 
-15.1684103 -8.608166695 -2.001813173 0.9321876168 
-14.77045155 -9.274382591 -2.001807213 0.9321876764 
-14.13321972 -9.776940346 -1.972495437 0.9331467748 
-10.9017458 -11.86474323 -1.849379659 0.9371854663 
-10.36312199 -12.33791256 -1.849375129 0.9371856451 
-9.246364594 -13.23997021 -1.85354948 0.9370484352 
-8.648551941 -13.63863945 -1.853615046 0.9370462894 
-8.033588409 -14.01037788 -1.853682637 0.9370440841 
-6.757080078 -14.67008018 -1.853823543 0.9370393753 
-4.053517818 -15.6371994 -1.854123473 0.9370296001 
1.990661621 -13.45864964 -1.561556101 0.9466956854 
2.609831572 -13.47264862 -1.575103164 0.9462459087 
3.241091251 -13.48693085 -1.592069626 0.9456829429 
3.887392521 -13.50154495 -1.612630367 0.9450011849 
4.55193615 -13.51657963 -1.637012243 0.944193244 
5.950392723 -13.54820538 -1.698400021 0.9421620965 
7.470270634 -13.5825758 -1.779205561 0.9394953251 
8.289079666 -13.60109138 -1.828169703 0.9378830791 
10.70482635 -12.07490444 -1.852144122 0.9370946288 
11.72686577 -11.06738949 -1.850757241 0.9371402264 
12.20222282 -10.53015137 -1.849943995 0.9371669292 
12.65497398 -9.974101067 -1.849418759 0.9371842146 
13.5331707 -9.722463608 -1.912600398 0.9351094365 
14.6025629 -9.535488129 -2.00174284 0.9321898222 
15.7419138 -7.507102013 -2.001755476 0.932189405 
16.34694862 -6.078219891 -2.001764774 0.9321891069 
17.16501617 -3.087936878 -2.001785278 0.9321884513 
17.28542519 -2.321323156 -2.001790762 0.9321883321 
17.37161255 -1.550100088 -2.001796484 0.9321882129 
17.44076157 -2.441406195e-06 -2.001807928 0.932187736 
17.37182236 1.550117135 -2.001819611 0.9321873784 
6.776213169 2.868830442 -0.844588697 0.9708074331 
6.509355545 3.467705011 -0.8465315104 0.9707412124 
6.529789925 3.860930204 -0.8706848025 0.9699191451 
13.18433952 8.609359741 -1.807328582 0.9385689497 
12.67342377 9.988629341 -1.852115154 0.9370955825 
10.08630371 8.704167366 -1.529154181 0.9477723837 
11.72677422 11.06727123 -1.850739956 0.9371408224 
8.484711647 8.753186226 -1.399202585 0.9521028399 
7.787761211 8.784484863 -1.347433448 0.953833282 
9.573591232 12.95735073 -1.849119425 0.9371940494 
7.124157429 14.4396925 -1.848094463 0.9372278452 
6.473930359 14.74037075 -1.847848654 0.9372358322 
5.137096882 15.2541399 -1.847449183 0.9372489452 
4.453083515 15.46626186 -1.847296119 0.9372540116 
3.760432005 15.64800739 -1.847174525 0.9372580051 
2.354577541 15.91903496 -1.847026587 0.9372628331 
1.644074678 16.00766754 -1.846987128 0.937264204 
0.9303588867 16.06464577 -1.846951365 0.9372653365 
-0.5011498928 16.08398438 -1.846976638 0.937264502 
-1.21616447 16.04628944 -1.847037435 0.9372625351 
-1.92885983 15.97711658 -1.847130537 0.9372594357 
-2.637849092 15.87656498 -1.847255349 0.9372553825 
-3.341765165 15.74483871 -1.847411752 0.9372502565 
-4.728938103 15.38855457 -1.847777367 0.9372381568 
-5.409147739 15.16398144 -1.847903132 0.9372341037 
-6.078847408 14.90959644 -1.848057389 0.9372290373 
-6.736721039 14.62588596 -1.84823966 0.9372229576 
-4.172912598 8.091623306 -1.044964552 0.9640075564 
-8.011945724 13.97262383 -1.848687291 0.9372082353 
-8.626799583 13.60433578 -1.848951578 0.9371995926 
-5.668273926 8.116456985 -1.136273384 0.960924685 
-10.3660717 12.34141827 -1.84990108 0.9371683598 
-10.90695 11.87042236 -1.850267768 0.9371563792 
-14.01458263 7.953278542 -1.849534154 0.9371803999 
-14.66593456 6.676174164 -1.849526048 0.9371806979 
-15.22827339 6.129821777 -1.884153724 0.9360429645 
-16.69491386 5.049118519 -2.001918077 0.9321841002 
-16.90292168 4.301467419 -2.001913071 0.9321843386 
-17.21825409 2.782106876 -2.001902342 0.9321846962 
-15.89532948 1.133625507 -1.82905972 0.937853694 
-17.43520737 0.4656176567 -2.001885653 0.9321852326 
-17.34191704 -1.859108806 -2.00186801 0.9321857691 
-17.10793114 -3.393137217 -2.001856089 0.9321861863 
-16.94000244 -4.150788307 -2.001850128 0.9321863651 
-16.73853683 -4.90020752 -2.001844168 0.9321866035 
-16.23670197 -6.368488789 -2.001832008 0.932186842 
-15.93725777 -7.084411621 -2.001826048 0.9321871996 
-15.60631084 -7.786330223 -2.001820087 0.9321873188 
-15.24442577 -8.472819328 -2.001814127 0.9321876168 
-14.85241413 -9.142551422 -2.001808405 0.9321876764 
-14.40038776 -9.773410797 -1.99756372 0.9323266149 
-13.12765312 -9.789982796 -1.879617929 0.9361919165 
-12.00927448 -10.74243832 -1.849390507 0.9371851683 
-11.51947498 -11.26598835 -1.8493855 0.9371854067 
-11.00692558 -11.76723862 -1.849380612 0.9371854663 
-8.157868385 -13.93825912 -1.853668928 0.9370444417 
-6.887277603 -14.60926437 -1.853809118 0.9370398521 
-6.230827332 -14.90174007 -1.853881836 0.9370375276 
-5.562006474 -15.16477299 -1.853955984 0.9370350838 
-4.882121563 -15.39780998 -1.854031324 0.9370325804 
-4.19251442 -15.60037327 -1.854108095 0.937030077 
-3.49448967 -15.77182865 -1.854152322 0.9370285869 
-2.280639648 -13.00929642 -1.515946984 0.9482115507 
-1.689553142 -13.01979733 -1.50691092 0.9485121965 
-0.522785604 -13.04618359 -1.498611093 0.9487883449 
0.6403613091 -13.07248783 -1.50222826 0.9486680031 
1.226694345 -13.08862019 -1.508862853 0.9484472275 
2.485153675 -13.46983624 -1.572129369 0.9463447332 
5.099108696 -13.5289526 -1.659454346 0.9434502125 
5.805688381 -13.54492855 -1.691444159 0.9423920512 
6.541532993 -13.56157398 -1.728184819 0.9411782622 
8.121669769 -13.59730721 -1.817870617 0.9382219911 
8.894064903 -13.48885918 -1.854479909 0.937017858 
12.56642914 -10.08685493 -1.849520564 0.9371808171 
13.28483582 -9.724416733 -1.889656305 0.9358623624 
14.51712894 -9.665009499 -2.001741886 0.9321899414 
14.93272877 -9.009689331 -2.001745939 0.9321897626 
15.31877422 -8.336527824 -2.001750231 0.9321896434 
15.99916458 -6.942033768 -2.001759052 0.9321893454 
16.29218292 -6.223488808 -2.001763821 0.9321891069 
16.55292511 -5.492612362 -2.001768827 0.9321889877 
16.78090096 -4.750854492 -2.001773834 0.9321888685 
16.97566414 -3.999685049 -2.001779079 0.9321887493 
17.13683128 -3.24060297 -2.001784325 0.9321885705 
17.26408005 -2.475090265 -2.00178957 0.9321883321 
17.35712433 -1.704675198 -2.001795292 0.9321882129 
17.42972565 0.6207739115 -2.001812458 0.9321876764 
17.19218636 2.93515873 -2.001830339 0.9321870208 
17.04465485 3.69703126 -2.0018363 0.932186842 
8.43247509 2.632419348 -1.013925195 0.9650578499 
6.6389575 3.093789101 -0.8406797051 0.9709405303 
12.30620098 10.43020821 -1.851558805 0.9371138811 
11.82568836 10.96325874 -1.85087502 0.9371363521 
11.32222366 11.47441006 -1.850218415 0.9371579885 
9.688820839 12.87208176 -1.849179387 0.9371920824 
9.105193138 13.28824902 -1.84888804 0.9372016191 
8.503786087 13.67803669 -1.848607898 0.9372109175 
7.885847092 14.04088116 -1.848358154 0.9372190833 
6.605043888 14.68251896 -1.847895503 0.9372343421 
2.496203661 15.89752674 -1.847035646 0.9372625351 
1.073244572 16.0557766 -1.846956015 0.9372651577 
0.3579614162 16.08754158 -1.84694612 0.9372655153 
-0.3580297828 16.08772087 -1.846968293 0.9372648001 
-1.786606431 15.99346447 -1.847109318 0.9372601509 
-3.201493979 15.77365208 -1.847378016 0.937251389 
-3.900378227 15.6171627 -1.847559571 0.937245369 
-4.085104942 8.09748745 -1.040987849 0.9641421437 
-7.887038231 14.04300499 -1.848637462 0.9372099042 
-10.255476 12.43267822 -1.849830747 0.9371706843 
-10.80049515 11.9665308 -1.850192547 0.9371587038 
-11.82638359 10.96393299 -1.850987554 0.9371326566 
-9.646740913 8.176169395 -1.451422334 0.9503601789 
-12.76015377 9.874137878 -1.851872802 0.9371035695 
-13.94324398 8.077721596 -1.849534869 0.9371803999 
-14.6059103 6.806452274 -1.849526763 0.9371807575 
-16.40166283 5.933020115 -2.001924038 0.9321839213 
-16.64929962 5.1975317 -2.00191927 0.9321841002 
-17.04528999 3.697175264 -2.001908779 0.9321843982 
-17.30632973 2.16748786 -2.00189805 0.9321848154 
-17.43038368 0.6207348704 -2.001886606 0.932185173 
-17.44070435 -0.1552563459 -2.001880884 0.9321853518 
-17.41645622 -0.9309203625 -2.001875162 0.9321856499 
-17.13744926 -3.240715265 -2.001857281 0.9321861863 
-15.67499256 -7.647101879 -2.00182128 0.9321873784 
-15.31925964 -8.336789131 -2.001815557 0.9321875572 
-14.93321991 -9.009987831 -2.001809597 0.9321876168 
-13.37007999 -9.786891937 -1.901784897 0.9354642034 
-12.56551933 -10.08622265 -1.849396467 0.9371849895 
-12.10438728 -10.63519287 -1.84939146 0.9371850491 
-9.318717957 -12.85016823 -1.821917176 0.9380889535 
-8.889792442 -13.48237514 -1.853588462 0.9370471239 
-7.016987324 -14.54725838 -1.853794813 0.9370403886 
-6.36317873 -14.84557819 -1.853867173 0.9370380044 
-5.696721077 -15.11453342 -1.853940964 0.9370356202 
-4.331169128 -15.56229687 -1.854092717 0.937030673 
-3.634663105 -15.74005604 -1.854146838 0.9370287657 
-1.80711174 -13.01713848 -1.508404851 0.9484624863 
-1.221191406 -13.03039074 -1.502150655 0.9486705661 
-0.6389599442 -13.0435524 -1.498903513 0.9487786889 
2.360881329 -13.46702385 -1.569286466 0.9464390874 
2.986965179 -13.48118401 -1.58486414 0.9459220171 
3.626879692 -13.49565601 -1.603961587 0.9452885389 
4.960888386 -13.52582264 -1.653588653 0.9436444044 
5.66215086 -13.54168224 -1.684677958 0.9426157475 
6.391767502 -13.55818558 -1.72043407 0.9414342046 
8.774126053 -13.56808281 -1.85456574 0.937014997 
9.938107491 -12.72535896 -1.853225231 0.9370590448 
11.02114964 -11.78245354 -1.851770997 0.9371068478 
11.53003883 -11.27629852 -1.851076961 0.9371296763 
12.01500416 -10.74755096 -1.850271702 0.9371562004 
13.04223442 -9.726296425 -1.867389321 0.9365936518 
14.31602955 -9.716139793 -1.985859513 0.9327094555 
14.85194588 -9.142246246 -2.001744986 0.9321897626 
15.605793 -7.786071777 -2.001753569 0.9321894646 
16.50338173 -5.63973856 -2.001767635 0.9321889877 
16.73795319 -4.899968147 -2.001772642 0.9321889281 
16.93940163 -4.150563717 -2.001777887 0.9321887493 
17.10732079 -3.392941713 -2.001783133 0.9321885705 
17.24135399 -2.628591299 -2.001788616 0.9321883917 
10.04812241 2.557043314 -1.190056324 0.9591135383 
8.6686306 2.621694326 -1.039472222 0.9641933441 
6.943789005 2.795080423 -0.8591368198 0.9703121185 
6.499479771 3.68849349 -0.8577516079 0.9703592658 
13.67371655 8.585739136 -1.853170276 0.9370608926 
13.27779484 9.185164452 -1.853106618 0.9370630383 
12.85113716 9.762970924 -1.85239625 0.9370863438 
11.4246521 11.37392998 -1.85033834 0.937153995 
10.36418724 12.3391695 -1.849563718 0.9371794462 
9.803339958 12.78575897 -1.849240422 0.9371900558 
-1.644162536 16.00855827 -1.847089529 0.9372608066 
-3.060910463 15.80125237 -1.847345591 0.9372524023 
-4.454089165 15.46977997 -1.847718 0.9372401834 
-5.138190746 15.25741863 -1.847849369 0.9372358918 
-5.812326431 15.01489449 -1.847992182 0.9372311234 
-7.761586666 14.11224556 -1.848588943 0.9372115135 
-9.575187683 12.95951843 -1.849429488 0.9371839166 
-10.69312763 12.06170654 -1.85011816 0.9371611476 
-11.22138405 11.57645226 -1.850499392 0.9371487498 
-11.72778988 11.06825924 -1.850903869 0.937135458 
-12.21138382 10.53805923 -1.851331115 0.9371212721 
-11.42550468 8.208273888 -1.614700556 0.9449315667 
-13.87079334 8.201516151 -1.849535584 0.9371803403 
-14.54480648 6.936130047 -1.849527717 0.9371806383 
-14.8389082 6.282248497 -1.849523425 0.9371808171 
-16.8237133 4.601618767 -2.001914978 0.932184279 
-17.16601753 3.088122606 -2.001904488 0.9321846366 
-17.28635979 2.321437836 -2.001899004 0.9321848154 
-17.42419243 0.7758520246 -2.001888037 0.9321851134 
-17.44143677 -2.441406195e-06 -2.001882076 0.932185173 
-17.42409325 -0.775847137 -2.001876354 0.9321854711 
-15.97103691 -1.425134301 -1.840400815 0.9374807477 
-17.16564751 -3.088049173 -2.001858473 0.9321860671 
-17.01127243 -3.848556995 -2.001852512 0.9321861267 
-16.82312202 -4.601462364 -2.001846313 0.9321865439 
-15.74243355 -7.507350922 -2.001822472 0.9321872592 
-12.1985817 -10.52701855 -1.849392533 0.9371850491 
-11.71818542 -11.05920124 -1.849387527 0.9371852875 
-11.21460152 -11.56948471 -1.849382639 0.9371854663 
-9.009391785 -13.40261936 -1.853575349 0.9370475411 
-8.404575348 -13.79061699 -1.853641748 0.9370453954 
-6.494951248 -14.78825855 -1.85385251 0.9370384812 
-5.830920219 -15.06312752 -1.853926063 0.937036097 
-5.155307293 -15.30821991 -1.854000926 0.9370335937 
-4.469419003 -15.52302933 -1.85407722 0.9370310903 
-3.774609327 -15.70703316 -1.854141593 0.9370289445 
-0.1742919832 -13.05406189 -1.498448253 0.9487938285 
0.9875756502 -13.03030014 -1.499876261 0.948746264 
2.860710382 -13.47832775 -1.581472278 0.9460346103 
3.497683048 -13.49273682 -1.599852443 0.9454247952 
5.519812107 -13.53846931 -1.678102732 0.9428331852 
6.243393421 -13.55482674 -1.712891698 0.9416832924 
8.629631042 -13.60880089 -1.849557638 0.937179625 
12.38621998 -10.3100853 -1.849722266 0.937174201 
14.04861832 -9.718324661 -1.960680962 0.9335336089 
15.16796589 -8.607831955 -2.001748562 0.932189703 
15.53588867 -7.924602032 -2.001752615 0.9321895242 
17.07642746 -3.545080423 -2.001782179 0.9321885705 
17.32403374 -2.013322592 -2.001792908 0.9321882129 
17.4344902 -0.4656103551 -2.001804352 0.9321879148 
17.43801308 0.3103979528 -2.001810074 0.9321876764 
17.40698051 1.085798264 -2.001815796 0.9321875572 
17.24168396 2.628708363 -2.001827717 0.93218714 
17.10773849 3.393093109 -2.001833677 0.9321869016 
8.924494743 2.612643957 -1.067324758 0.9632517695 
7.038769245 2.760795832 -0.8678148985 0.9700167775 
6.705910683 2.98089838 -0.8423064351 0.9708851576 
6.55509758 3.270483255 -0.8408218026 0.9709357023 
6.500964165 3.613220215 -0.853669703 0.9704982042 
6.605207443 4.065888405 -0.8902491331 0.9692536592 
11.60916138 8.657567024 -1.662200689 0.9433593154 
12.49175739 10.21106339 -1.851835847 0.9371047616 
12.02069473 10.75263977 -1.851146936 0.9371274114 
11.52626228 11.27259827 -1.850471616 0.9371496439 
8.13490963 13.89902782 -1.848454356 0.9372159839 
6.865671158 14.56340313 -1.847992539 0.9372311234 
3.481264591 15.71210384 -1.847134709 0.937259376 
-0.07138916105 16.04831314 -1.842006087 0.9374279976 
-1.501647949 16.02238083 -1.847070932 0.9372614622 
-2.21303463 15.9406395 -1.847176671 0.9372579455 
-2.920153856 15.82759285 -1.847314119 0.9372534156 
-3.621667385 15.68345642 -1.847483158 0.9372478724 
-4.316198826 15.50850773 -1.847683549 0.9372413158 
-5.678347111 15.06578064 -1.847961426 0.9372321963 
-6.343473911 14.79960442 -1.848126888 0.9372267127 
-6.99627161 14.50429916 -1.848320246 0.937220335 
-8.259806633 13.82857418 -1.848789811 0.937204957 
-8.868104935 13.44947433 -1.849064708 0.9371958375 
-11.62832737 11.17166233 -1.850821137 0.9371381998 
-12.11656475 10.64577866 -1.851243854 0.9371241927 
-12.58114433 10.09865952 -1.851688743 0.9371096492 
-13.82420635 8.340851784 -1.853147268 0.9370616674 
-14.15389347 7.70258522 -1.849532604 0.9371805191 
-14.48248291 7.065324783 -1.849528432 0.9371806383 
-15.99907398 6.111530781 -1.965751886 0.9333674908 
-16.55415154 5.493020058 -2.001921177 0.9321841598 
-16.78212547 4.751188755 -2.00191617 0.9321841598 
-16.97678375 3.99994874 -2.001910925 0.9321843982 
-17.13788223 3.240793467 -2.00190568 0.9321845174 
-17.26504135 2.475222111 -2.001900196 0.9321846962 
-17.35799026 1.704753399 -2.001894712 0.9321849346 
-17.44072914 0.1551782191 -2.001883268 0.9321852326 
-17.43030548 -0.6207983494 -2.001877308 0.9321854711 
-15.96411324 -1.281457543 -1.838215232 0.9375525713 
-17.30605125 -2.167531729 -2.001865625 0.9321858287 
-17.19245338 -2.935207367 -2.001859665 0.9321860075 
-17.04481697 -3.697077513 -2.001853704 0.9321861863 
-16.64866447 -5.197321892 -2.001841784 0.9321866632 
-16.40093994 -5.932751179 -2.001835585 0.932186842 
-13.87268734 -9.780358315 -1.948204875 0.933942318 
-12.7431078 -9.86093998 -1.849398613 0.9371848702 
-11.81612492 -10.95450878 -1.849388361 0.9371852279 
-10.25289249 -12.4296751 -1.849374175 0.9371856451 
-9.5412817 -12.67608166 -1.821019888 0.9381182194 
-8.526869774 -13.71518803 -1.853628397 0.9370458722 
-7.908615589 -14.08143806 -1.853696346 0.9370436072 
-7.274662971 -14.41983604 -1.853766322 0.9370413423 
-3.914260149 -15.6727562 -1.854135871 0.9370291829 
-2.63878417 -13.00119591 -1.522672057 0.9479879141 
-1.455029249 -13.02509975 -1.504289865 0.9485994577 
-0.290410161 -13.05144215 -1.498382807 0.9487959146 
2.113683939 -13.46143723 -1.563999891 0.9466145039 
2.735044003 -13.47548103 -1.578220844 0.9461425543 
6.096235275 -13.55150127 -1.705545783 0.9419260025 
7.63048315 -13.58619881 -1.788502812 0.9391890168 
8.458322525 -13.60492897 -1.838724971 0.9375358224 
9.131818771 -13.32717705 -1.854305625 0.9370236993 
10.27126694 -13.64592457 -1.960345984 0.9335445166 
10.27150154 -12.45211887 -1.852721095 0.9370756149 
11.32942963 -11.48164749 -1.851387382 0.9371194839 
11.82383919 -10.96166229 -1.850596309 0.9371455312 
12.74268913 -9.860719681 -1.849344254 0.9371866584 
13.78770924 -9.72043705 -1.936269045 0.934333384 
15.09069061 -8.742492676 -2.001747608 0.9321898818 
16.12022018 -6.656135082 -2.00176096 0.9321892858 
16.40037537 -5.932553768 -2.001765966 0.9321890473 
17.04419136 -3.696857929 -2.001781225 0.9321886897 
17.19181061 -2.935100079 -2.00178647 0.9321884513 
17.30542374 -2.167368174 -2.001791954 0.9321882725 
17.38475037 -1.395495534 -2.001797438 0.9321880341 
17.44008255 0.155166015 -2.001808882 0.9321876764 
17.41593742 0.9308886528 -2.001814842 0.9321875572 
17.2643795 2.475134134 -2.001826525 0.9321871996 
17.13727379 3.24060297 -2.001832724 0.9321869016 
16.97619438 3.999804497 -2.001838684 0.9321867228 
9.199257851 2.604450703 -1.097370028 0.9622370601 
6.733432293 2.921638012 -0.8424628377 0.9708797932 
6.567194462 3.962360859 -0.8803398609 0.9695906639 
12.11678696 10.64605713 -1.851283669 0.9371228814 
11.62699699 11.17036819 -1.850605607 0.9371451735 
11.11529255 11.67314434 -1.850064993 0.9371629953 
7.649792194 8.785085678 -1.337036252 0.9541813135 
10.0300045 12.61010742 -1.849366069 0.9371860027 
8.866691589 13.4473238 -1.848772407 0.9372055531 
7.634323597 14.17830753 -1.848266721 0.9372221231 
6.342365742 14.79701424 -1.847803116 0.9372373819 
5.67716074 15.06280518 -1.847594142 0.9372442365 
5.001088619 15.29895973 -1.847416043 0.9372500181 
3.621020317 15.6806612 -1.847153902 0.9372587204 
2.212844133 15.93927956 -1.847018838 0.9372631311 
0.7873852253 16.072258 -1.846948028 0.9372654557 
0.07138916105 16.04831314 -1.84200573 0.9374279976 
-1.358957529 16.03495979 -1.847053528 0.9372619987 
-2.071086407 15.95950127 -1.847152948 0.9372587204 
-2.779108763 15.852705 -1.847284079 0.9372544289 
-4.177887917 15.54595661 -1.847640991 0.9372426867 
-5.543930531 15.11548805 -1.847931743 0.93723315 
-6.211428165 14.85517788 -1.848091483 0.9372278452 
-6.866735458 14.5656805 -1.848279357 0.9372216463 
-7.508808613 14.24742413 -1.848495007 0.937214613 
-8.136164665 13.90116405 -1.848737955 0.9372066259 
-8.747817039 13.52741623 -1.849007726 0.9371977448 
-9.342341423 13.12704277 -1.849303722 0.9371879697 
-11.01264858 11.77336597 -1.850344062 0.9371538162 
-11.52788258 11.27428913 -1.850739241 0.9371408224 
-13.74865437 8.463097572 -1.85304451 0.9370650649 
-14.41903496 7.193972111 -1.849529386 0.9371805787 
-14.72476768 6.545358658 -1.849525094 0.9371807575 
-16.73916626 4.900388241 -2.001917124 0.9321841598 
-16.94052887 4.150827408 -2.001912117 0.9321843982 
-17.10837173 3.393215179 -2.001906633 0.9321844578 
-17.34214592 1.85920167 -2.001895666 0.932184875 
-15.89852715 0.9917065501 -1.828341961 0.9378774166 
-17.43865967 0.3104858398 -2.00188446 0.9321852326 
-15.95906448 -1.138244629 -1.836396575 0.9376124144 
-17.32467079 -2.013396025 -2.001866817 0.9321857691 
-17.07703781 -3.545202494 -2.001854897 0.9321862459 
-16.90239525 -4.301413536 -2.001848936 0.9321863055 
-16.69428444 -5.048933029 -2.001842976 0.9321865439 
-15.53639412 -7.924865723 -2.001818895 0.9321873784 
-14.77047062 -9.274318695 -2.001807213 0.932187736 
-14.13321972 -9.776940346 -1.972495437 0.9331467748 
-12.89640808 -9.797502518 -1.858955383 0.9368715286 
-11.91323471 -10.84885979 -1.849389434 0.9371851683 
-10.90169144 -11.86479664 -1.849379659 0.9371854663 
-9.632346153 -12.56286335 -1.81699717 0.9382506609 
-9.246364594 -13.23997021 -1.85354948 0.9370484352 
-8.648490906 -13.63868332 -1.853615046 0.9370462894 
-7.402619362 -14.35444546 -1.853752255 0.9370417595 
-6.097988129 -14.95674038 -1.853896499 0.9370370507 
-5.426913738 -15.21378613 -1.853970885 0.9370345473 
-4.744906902 -15.4407835 -1.854046583 0.9370320439 
-2.758864641 -12.99848366 -1.525168538 0.9479048848 
-2.161494017 -13.00912857 -1.513626099 0.9482887387 
-1.572160602 -13.02245045 -1.505540133 0.9485578537 
0.174433589 -13.06195068 -1.499354482 0.9487636685 
3.241091251 -13.48693085 -1.592069626 0.9456829429 
5.238329887 -13.53210163 -1.665494084 0.9432503581 
5.950324535 -13.54820061 -1.698396921 0.9421622157 
7.470190048 -13.58257008 -1.779201269 0.9394955039 
8.289079666 -13.60109138 -1.828169703 0.9378830791 
9.013258934 -13.40856647 -1.854393244 0.9370207787 
10.16112328 -12.54422855 -1.852890611 0.9370701313 
10.70482635 -12.07490444 -1.852144122 0.9370946288 
11.22760201 -11.58278751 -1.851516366 0.937115252 
11.72686577 -11.06738949 -1.850757241 0.9371402264 
12.202281 -10.53010464 -1.849943757 0.9371668696 
16.06030083 -6.799438477 -2.001760006 0.9321892858 
16.34694862 -6.078219891 -2.001764774 0.9321891069 
17.0105896 -3.84850812 -2.001780033 0.9321886897 
17.16501617 -3.087936878 -2.001785278 0.9321884513 
17.28541183 -2.321396351 -2.001790762 0.9321883321 
17.42344475 -0.7757519484 -2.001801968 0.9321879148 
17.44076157 -2.441406195e-06 -2.001807928 0.932187736 
17.37182236 1.550117135 -2.001819611 0.9321873784 
17.28571701 2.321430683 -2.001825571 0.9321871996 
17.1654129 3.088000536 -2.001831532 0.9321869612 
7.267136097 2.702106953 -0.8898975849 0.9692656398 
6.605112076 3.149851084 -0.8399105072 0.9709667563 
6.529772758 3.860881329 -0.8706802726 0.9699193239 
13.18433952 8.609359741 -1.807328582 0.9385689497 
13.11023903 9.418509483 -1.85282135 0.9370723963 
12.67342377 9.988629341 -1.852115154 0.9370955825 
8.484638214 8.753186226 -1.399187326 0.9521030784 
10.14215565 12.52079773 -1.849430799 0.937183857 
9.573591232 12.95735073 -1.849119425 0.9371940494 
8.381515503 13.75277519 -1.848555565 0.9372125864 
7.124223709 14.43965816 -1.848094463 0.9372278452 
5.137096882 15.2541399 -1.847449183 0.9372489452 
3.760432005 15.64800739 -1.847174525 0.9372580051 
2.354577541 15.91903496 -1.847026587 0.9372628331 
0.214743644 16.09010124 -1.846947908 0.9372654557 
-1.21623528 16.04628372 -1.847037435 0.9372625351 
-2.637917519 15.87655258 -1.847255349 0.9372553825 
-3.341765165 15.74483871 -1.847411752 0.9372502565 
-4.728859901 15.38855648 -1.847777367 0.9372382164 
-5.409147739 15.16398144 -1.847903132 0.9372341037 
-6.736721039 14.62588596 -1.84823966 0.9372229576 
-8.011945724 13.97262383 -1.848687291 0.9372082353 
-8.626860619 13.60429668 -1.848951697 0.9371995926 
-5.668273926 8.116456985 -1.136273384 0.960924685 
-9.805066109 12.78791714 -1.849559188 0.937179625 
-12.39818573 10.32003593 -1.85150826 0.9371154904 
-12.848176 9.760661125 -1.851966023 0.9371005297 
-14.35446548 7.321965218 -1.849530101 0.9371805787 
-15.22827339 6.129821777 -1.884153724 0.9360429645 
-16.90297508 4.301398754 -2.001913071 0.9321842194 
-17.0775013 3.54529047 -2.001907825 0.9321845174 
-17.21823502 2.782033682 -2.001902342 0.9321848154 
-17.32490921 2.013420343 -2.001896858 0.932184875 
-17.43520737 0.4656176567 -2.001885653 0.9321852326 
-17.43860054 -0.3104858398 -2.00187993 0.9321854711 
-17.34190559 -1.859182119 -2.00186801 0.9321857691 
-17.24199867 -2.628688812 -2.001862049 0.9321859479 
-16.94005013 -4.150715351 -2.001850128 0.9321862459 
-16.23670197 -6.368488789 -2.001832008 0.932186842 
-15.60631084 -7.786330223 -2.001820087 0.9321873188 
-15.24439621 -8.472873688 -2.001814127 0.9321876168 
-14.85241413 -9.142551422 -2.001808405 0.9321876764 
-14.40030003 -9.773410797 -1.99755156 0.9323269129 
-12.47525597 -10.19767284 -1.849395514 0.9371849298 
-10.47248745 -12.24522209 -1.849376082 0.9371856451 
-9.917453766 -12.69890308 -1.849371433 0.9371857047 
-8.769550323 -13.5610323 -1.853601694 0.9370467067 
-6.887277603 -14.60926437 -1.853809118 0.9370398521 
-4.19251442 -15.60037327 -1.854108095 0.937030077 
-3.494421244 -15.77182293 -1.854152322 0.9370286465 
-2.280639648 -13.00929642 -1.515946984 0.9482115507 
-1.689496994 -13.01979923 -1.506911874 0.9485121965 
-1.10455811 -13.03302956 -1.50126183 0.94870013 
0.05808593705 -13.05931854 -1.498932481 0.9487776756 
0.640412569 -13.07248783 -1.502228975 0.9486680031 
3.756752729 -13.49859619 -1.608219624 0.9451473355 
4.417438984 -13.51353741 -1.631819367 0.944365263 
6.54160881 -13.56157398 -1.728188634 0.941178143 
8.121749878 -13.59730721 -1.817875624 0.9382218122 
8.894064903 -13.48885918 -1.854479909 0.937017858 
10.0500288 -12.63529015 -1.853058577 0.9370645881 
11.12477589 -11.68313217 -1.851644397 0.9371110201 
12.10907459 -10.6392889 -1.850108147 0.9371615648 
14.51712894 -9.665009499 -2.001741886 0.9321899414 
14.93268776 -9.009748459 -2.001745939 0.9321898222 
15.31877422 -8.336527824 -2.001750231 0.9321896434 
15.67444897 -7.646916389 -2.001754522 0.9321894646 
15.99916458 -6.942033768 -2.001759052 0.9321893454 
16.55292511 -5.492612362 -2.001768827 0.9321889877 
17.26408005 -2.475090265 -2.00178957 0.9321883321 
17.35713005 -1.704602003 -2.001795292 0.9321882129 
17.41584396 -0.930886209 -2.001801014 0.9321879148 
17.44005013 -0.1551684588 -2.001806498 0.9321877956 
17.30569267 2.167399883 -2.001824379 0.9321872592 
17.0446701 3.696960449 -2.0018363 0.932186842 
9.825139046 2.593637705 -1.166336417 0.9599119425 
6.524809361 3.401757717 -0.8445712924 0.9708079696 
9.105256081 13.2881813 -1.84888804 0.9372017384 
8.503786087 13.67803669 -1.848607898 0.9372109175 
7.885900497 14.04084396 -1.848358154 0.9372191429 
2.496135235 15.89753914 -1.847035646 0.9372625351 
1.78651607 15.99249744 -1.846998096 0.9372637868 
0.3580248952 16.08753586 -1.846945882 0.9372655153 
-0.3580297828 16.08772087 -1.846968293 0.9372648001 
-1.786606431 15.99346447 -1.847109318 0.9372601509 
-2.496389151 15.89918137 -1.847227931 0.9372562766 
-3.201493979 15.77365208 -1.847378016 0.937251389 
-4.591677189 15.42976284 -1.847748876 0.9372392297 
-5.273947716 15.21128654 -1.847875834 0.9372349381 
-5.945783615 14.96284866 -1.848024249 0.9372301102 
-6.606198788 14.68492889 -1.848200917 0.9372242689 
-7.88710165 14.04296875 -1.848637462 0.9372099042 
-8.505114555 13.68017292 -1.848896623 0.9372013807 
-10.255476 12.43267822 -1.849830747 0.9371706843 
-10.80042171 11.96654987 -1.850192547 0.9371588826 
-11.3244648 11.47660828 -1.850578427 0.9371461272 
-9.646740913 8.176169395 -1.451422334 0.9503601789 
-12.76008987 9.874186516 -1.851872683 0.9371036291 
-16.40166283 5.933020115 -2.001924038 0.9321839213 
-16.6493187 5.19744873 -2.00191927 0.9321841598 
-16.86399078 4.451755047 -2.001914024 0.932184279 
-17.04530525 3.697097063 -2.001908779 0.9321843982 
-17.19278526 2.935256243 -2.001903534 0.9321847558 
-17.30632973 2.16748786 -2.00189805 0.9321848154 
-17.35778618 -1.704665542 -2.001869202 0.9321857095 
-17.26469994 -2.47518301 -2.001863241 0.9321859479 
-16.97629166 -3.999836445 -2.00185132 0.9321863055 
-16.78147125 -4.751096249 -2.00184536 0.9321866035 
-16.55352783 -5.492809772 -2.001839161 0.9321866632 
-14.5175705 -9.665300369 -2.001803875 0.9321879745 
-13.37007999 -9.786891937 -1.901784897 0.9354642034 
-12.56557846 -10.08617401 -1.849396467 0.9371849298 
-12.10438728 -10.63519287 -1.84939146 0.9371850491 
-11.6193285 -11.16301441 -1.849386573 0.9371852875 
-11.11117363 -11.66885471 -1.849381685 0.9371854067 
-9.318634987 -12.850173 -1.8219136 0.9380890727 
-8.889792442 -13.48237514 -1.853588462 0.9370471239 
-8.281486511 -13.86502171 -1.853655338 0.9370449185 
-7.656862736 -14.22018242 -1.853724122 0.9370426536 
-6.36317873 -14.84557819 -1.853867173 0.9370380044 
-5.696657658 -15.11455822 -1.853940964 0.9370355606 
-5.018949986 -15.35361576 -1.854016185 0.9370330572 
-2.399631262 -13.0066061 -1.518061638 0.9481412768 
-1.807167888 -13.01713848 -1.508405685 0.9484624863 
-0.6390160918 -13.04355431 -1.498903751 0.9487786293 
-0.05809326097 -13.05668926 -1.498631001 0.9487877488 
0.5236596465 -13.06985092 -1.501330256 0.9486979246 
1.109033227 -13.08595467 -1.507358313 0.9484972954 
3.626879692 -13.49565601 -1.603961587 0.9452885389 
4.283786297 -13.51050949 -1.626787543 0.9445319772 
4.960888386 -13.52582264 -1.653588653 0.9436444044 
7.956127644 -13.5935564 -1.807829857 0.9385524988 
8.774126053 -13.56808281 -1.85456574 0.937014997 
9.365148544 -13.15908432 -1.853817821 0.9370396137 
10.48954296 -12.26516056 -1.852386832 0.9370866418 
11.52998829 -11.27634716 -1.851076961 0.9371296763 
12.01500416 -10.74755096 -1.850271702 0.9371562004 
12.47687435 -10.19881821 -1.849621654 0.9371774793 
14.85194588 -9.142246246 -2.001744986 0.9321897626 
15.24398422 -8.472473145 -2.001749277 0.932189703 
16.5034008 -5.63967514 -2.001767635 0.9321889877 
16.93940163 -4.150563717 -2.001777887 0.9321887493 
17.10730743 -3.393007755 -2.001783133 0.9321885705 
17.34126282 -1.859108806 -2.0017941 0.9321882129 
17.43795586 -0.3104809523 -2.001805544 0.9321878552 
17.43455887 0.4656030238 -2.001811266 0.9321876764 
17.39664078 1.240773916 -2.001817226 0.932187438 
17.32428741 2.013347149 -2.001823187 0.9321872592 
17.21762276 2.782079935 -2.001828909 0.9321870208 
10.04800987 2.557065487 -1.190044999 0.9591139555 
8.6686306 2.621694326 -1.039472222 0.9641933441 
7.586628437 2.668237209 -0.9230598807 0.9681387544 
6.943789005 2.795080423 -0.8591368198 0.9703121185 
6.672743797 3.037568331 -0.8415026665 0.9709125161 
13.27779484 9.185164452 -1.853106618 0.9370630383 
12.39943409 10.32107258 -1.851697087 0.9371093512 
11.4246521 11.37392998 -1.85033834 0.937153995 
10.90484619 11.86821461 -1.849915981 0.9371678829 
9.803283691 12.78580093 -1.849240422 0.9371900558 
8.625392914 13.60223866 -1.848661423 0.9372091293 
8.010720253 13.97049522 -1.8484056 0.9372175336 
6.07766819 14.9068718 -1.847715855 0.9372401834 
4.038493633 15.5789547 -1.847219348 0.9372565746 
3.341232777 15.74231148 -1.847116709 0.9372599721 
2.637626886 15.8747654 -1.847045898 0.9372621775 
1.216191411 16.04561996 -1.846961737 0.9372650385 
-0.930383265 16.06515312 -1.847009182 0.9372634292 
-1.644230962 16.00855637 -1.847089529 0.9372608066 
-3.761130333 15.65093517 -1.847520828 0.9372466803 
-4.454157829 15.4697752 -1.847718 0.9372401237 
-5.138190746 15.25741863 -1.847849369 0.9372358918 
-7.125258446 14.44176769 -1.848362327 0.9372189641 
-7.761523247 14.11227989 -1.848588824 0.9372115135 
-8.382817268 13.75489998 -1.848842621 0.9372031689 
-9.575187683 12.95951843 -1.849429488 0.9371839166 
-10.14395237 12.52304935 -1.849761367 0.9371730089 
-11.22141838 11.57640839 -1.850499392 0.9371488094 
-12.60658455 8.232096672 -1.72813046 0.94118011 
-13.87082291 8.201457024 -1.849535584 0.9371803999 
-14.22184753 7.57635498 -1.84953177 0.9371805787 
-14.83888435 6.282311916 -1.849523425 0.9371808171 
-16.60240364 5.345529556 -2.001920223 0.9321840405 
-16.8237133 4.601618767 -2.001914978 0.932184279 
-16.13768768 -1.708984382e-05 -2.001879454 0.9370248318 
-16.07370758 -1.434299231 -2.001868486 0.937025249 
-15.88250256 -2.857233763 -2.001857519 0.9370256662 
-15.36077881 -4.945724964 -2.00184083 0.9370261431 
-14.86032963 -6.29136467 -2.001829624 0.9370265007 
-13.89060783 -8.213234901 -2.001813412 0.9370269775 
-13.1055975 -9.415261269 -2.001802683 0.9370272756 
-12.39904499 -9.772395134 -1.958409429 0.9383494258 
-10.84230709 -10.23256588 -1.849391699 0.9416790605 
-10.37634468 -10.70470428 -1.849387169 0.9416792989 
-9.889875412 -11.15568066 -1.849382877 0.9416793585 
-7.758378506 -12.73035336 -1.849366546 0.9416798949 
-7.201545238 -13.09405708 -1.853779674 0.9415448308 
-5.395246506 -13.93757057 -1.853979349 0.9415387511 
-4.135454178 -14.36303425 -1.854119182 0.9415344 
-3.492568254 -14.53334236 -1.854190826 0.9415321946 
-2.519033194 -13.00390816 -1.643125296 0.9480114579 
-1.338029742 -13.0277462 -1.624597907 0.9485824108 
1.581122994 -13.09663296 -1.63643837 0.9482175112 
2.237062931 -13.46422577 -1.693137765 0.9464722276 
2.860734701 -13.47832775 -1.709235907 0.9459772706 
4.150849342 -13.50750256 -1.752941251 0.9446348548 
5.519784927 -13.53846359 -1.8136729 0.9427726269 
6.243376255 -13.55482674 -1.851274371 0.941621542 
7.434760571 -12.96604729 -1.854100585 0.941534996 
8.001469612 -12.6182127 -1.853472114 0.9415542483 
8.551574707 -12.24510479 -1.852763295 0.9415758848 
9.598590851 -11.42768288 -1.851323247 0.9416200519 
11.02365494 -10.03883553 -1.849551558 0.9416741729 
11.66614151 -9.71068573 -1.882935166 0.9406533241 
13.2707386 -9.180271149 -2.001748085 0.9370288849 
13.66598606 -8.580856323 -2.0017519 0.9370288849 
14.37463856 -7.332282543 -2.001759529 0.9370285869 
14.96949196 -6.025700569 -2.001768112 0.9370283484 
15.44588089 -4.671389103 -2.001777172 0.9370280504 
16.02910233 -1.862829566 -2.001796961 0.9370274544 
16.09614944 -1.147951603 -2.001802206 0.9370272756 
16.13132858 -0.4307934344 -2.001807451 0.9370270967 
16.13453484 0.2872143388 -2.001812696 0.9370270371 
16.10584831 1.004655719 -2.00181818 0.9370267987 
16.04525948 1.720124483 -2.001823425 0.9370266795 
15.95289421 2.432180166 -2.001829147 0.9370265007 
15.82897091 3.139426231 -2.001834631 0.9370262623 
8.865805626 2.59543705 -1.145962954 0.9634498358 
7.657016277 2.616628408 -1.003784657 0.967911005 
6.948539734 2.725395441 -0.9258999228 0.9703635573 
6.587690353 2.92833972 -0.8943052292 0.9713602066 
6.415632248 3.20088625 -0.8894146681 0.9715145826 
6.331135273 3.518820763 -0.8985331655 0.9712268114 
12.36078358 8.389118195 -1.853154421 0.9415639639 
11.60915756 8.65756321 -1.796492577 0.9432992935 
11.56081676 9.450099945 -1.852285624 0.9415905476 
10.67009258 10.4352951 -1.851411223 0.94161731 
10.19337177 10.89750481 -1.851053476 0.9416282177 
7.529225826 8.803679466 -1.437024355 0.9543812871 
9.181288719 11.75628662 -1.850416422 0.9416478276 
8.647849083 12.15111828 -1.850118518 0.9416568875 
8.097585678 12.52195549 -1.849847794 0.9416651726 
7.531549931 12.86808586 -1.849605083 0.9416725636 
5.131755352 13.99163818 -1.848726511 0.9416994452 
4.503884315 14.20483398 -1.848567128 0.9417043328 
3.223141909 14.54711914 -1.848335981 0.9417113662 
2.57273674 14.67550755 -1.848264575 0.9417136312 
1.917321682 14.77509689 -1.848222733 0.9417148829 
1.25813961 14.84546089 -1.848184824 0.9417160153 
0.5965112448 14.88656235 -1.848163605 0.941716671 
-1.390275836 14.83442879 -1.848279238 0.9417131543 
-2.04890871 14.75869083 -1.848377228 0.9417101145 
-3.353061438 14.52039719 -1.848661184 0.9417014718 
-3.995964289 14.3579607 -1.84880209 0.9416971803 
-5.256921291 13.94770241 -1.849029779 0.9416902065 
-5.872643948 13.70118904 -1.849182963 0.9416854978 
-7.755539417 8.144765854 -1.395140648 0.9556809664 
-11.21584225 9.854426384 -1.852070093 0.9415971637 
-11.64569569 9.347839355 -1.85248208 0.9415845275 
-12.41064644 8.262604713 -1.849533081 0.9416747689 
-13.39989471 6.53718996 -1.849522233 0.9416751266 
-15.52761459 4.396022797 -2.001910925 0.9370239973 
-15.85678959 2.998527765 -2.00190115 0.9370243549 
-16.0604763 1.577307105 -2.001890898 0.9370245934 
-16.13701439 0.1436157227 -2.001880407 0.937024951 
-15.90731621 -2.715778828 -2.001858711 0.9370256066 
-15.77071476 -3.42070055 -2.001852989 0.9370257854 
-15.60290718 -4.118840218 -2.001847506 0.9370259047 
-15.40419197 -4.808830261 -2.001842022 0.9370260835 
-14.91574955 -6.158869267 -2.001830816 0.9370263815 
-14.6269846 -6.816262245 -2.001825333 0.9370265603 
-14.3092308 -7.460158348 -2.001819849 0.9370267987 
-13.58948421 -8.702399254 -2.00180912 0.9370270371 
-13.18886948 -9.298258781 -2.001803637 0.9370272756 
-12.62462139 -9.769289017 -1.980224848 0.9376844764 
-11.5436058 -9.783913612 -1.877137542 0.9408305287 
-10.93294144 -10.13567162 -1.849392653 0.9416790605 
-10.47121334 -10.61194038 -1.849388123 0.9416792393 
-9.486539841 -11.50057316 -1.84937942 0.9416794777 
-8.42679882 -12.2981739 -1.849371195 0.9416797161 
-7.317746639 -13.02936935 -1.853766918 0.9415451884 
-6.731127739 -13.34244347 -1.853831649 0.9415432811 
-6.131174088 -13.62916183 -1.85389781 0.9415411949 
-5.519028187 -13.88891792 -1.853965521 0.9415391088 
-4.895915508 -14.12119389 -1.854034662 0.9415370226 
-4.26307106 -14.32553959 -1.854104996 0.9415349364 
-2.043081045 -13.01180363 -1.633894205 0.9482958913 
-1.455009699 -13.02509975 -1.625817537 0.9485447407 
-0.871584475 -13.03829288 -1.621013403 0.9486928582 
0.290712893 -13.0645771 -1.62106657 0.9486912489 
0.8578075767 -12.83256054 -1.595436335 0.9494816065 
2.113667011 -13.46142769 -1.690354466 0.9465578198 
4.018754959 -13.50451374 -1.747842669 0.9447913766 
6.096242428 -13.55149651 -1.843336701 0.9418644309 
7.319423676 -13.03231144 -1.854189873 0.9415323734 
7.889438152 -12.68986511 -1.853609562 0.9415500164 
8.442922592 -12.32168674 -1.852907777 0.9415714741 
8.979096413 -11.92916679 -1.852171302 0.9415940642 
9.497076988 -11.51332283 -1.851432443 0.941616714 
9.996826172 -11.07613945 -1.850874543 0.9416337013 
12.53925133 -9.703220367 -1.966834545 0.9380925894 
13.18851089 -9.298014641 -2.001747608 0.9370288849 
13.58907795 -8.702140808 -2.001750946 0.9370288849 
13.96277237 -8.089055061 -2.001754761 0.9370287061 
14.91525555 -6.158683777 -2.001767159 0.9370284081 
15.17450809 -5.489103794 -2.001771688 0.9370281696 
15.60238647 -4.118703365 -2.001780987 0.9370279312 
16.12683868 -0.5743457079 -2.001806259 0.9370271564 
16.11415291 0.8612865806 -2.001817226 0.9370267987 
15.70723724 3.700822592 -2.001839161 0.9370261431 
7.85828352 2.607541561 -1.027087331 0.9671784043 
