# .PCD v0.7 - Point Cloud Data file format
VERSION 0.7
FIELDS x y z intensities
SIZE 4 4 4 4
TYPE F F F F
COUNT 1 1 1 1
WIDTH 942
HEIGHT 1
VIEWPOINT 0 0 0 1 0 0 0
POINTS 942
DATA ascii
47.10708237 44.45788956 9.845608711 0.7694577575 
47.26653671 48.76219177 10.322505 0.7597519159 
47.37456894 53.43799591 10.85500908 0.7490590811 
17.46234894 90.14543915 13.95697975 0.6896965504 
5.571753025 96.20913696 14.648386 0.6771184206 
-11.54836845 95.65621185 14.64540768 0.6771719456 
-79.02617645 40.31014633 13.48450851 0.6984239221 
-84.32267761 -20.66124916 13.1962738 0.703802824 
-25.21408081 -12.57987309 4.283092499 0.8922518492 
-22.73549271 -12.63633728 3.953718901 0.9001087546 
-20.50909615 -12.62456989 3.660676718 0.9071572423 
-14.340312 -12.82758236 2.924550772 0.9251074195 
-9.752631187 -15.08130836 2.729928255 0.9299123287 
-9.790158272 -16.72706032 2.946002722 0.9245793223 
-9.886958122 -20.97208023 3.524257183 0.9104572535 
-9.951450348 -23.80001831 3.921132803 0.9008898735 
-9.263723373 -25.25746536 4.089240074 0.8968676925 
-6.841337681 -25.45669937 4.006738186 0.8988393545 
-2.882175207 -13.00823212 2.025215149 0.947520256 
-1.105873942 -13.04869366 1.990525484 0.9483956099 
-0.5233837962 -13.06196213 1.98702383 0.9484840035 
0.641179204 -13.08849049 1.991848707 0.9483621716 
1.227912545 -13.10185719 2.000221014 0.9481508136 
2.42225337 -13.1290741 2.029311895 0.9474169612 
3.034992695 -13.14302921 2.05032444 0.9468871951 
4.305786133 -13.1719799 2.106411457 0.9454746246 
4.970265865 -13.18711376 2.142099857 0.9445769191 
6.415539265 -13.30037117 2.244572163 0.942004025 
7.170866489 -13.31758308 2.299082994 0.9406381249 
8.805685997 -13.35482121 2.431498289 0.937328577 
10.65586376 -13.39696789 2.601952791 0.9330854416 
11.61468697 -13.33847141 2.688379049 0.9309413433 
12.78931332 -13.43115711 2.819043875 0.9277091622 
21.11589241 -18.5527935 4.272517681 0.8925030231 
23.17171669 -18.59961891 4.516433239 0.8867271543 
25.48130226 -18.65222549 4.799964905 0.8800602555 
57.13776779 -18.95954132 9.150647163 0.7838239074 
54.37041473 11.79298115 8.456524849 0.798440516 
97.1517334 30.32851028 15.46998978 0.6624709964 
91.8419342 33.2222023 14.84532452 0.6735780239 
54.4114151 31.5221138 9.558236122 0.7753658295 
48.98117065 31.36636734 8.840917587 0.7903125882 
47.13925171 39.95344543 9.39262104 0.7787918448 
18.17016029 89.52474213 13.88529968 0.6910125017 
14.95019054 95.21460724 14.65002632 0.6770887971 
6.427773476 96.15674591 14.64853764 0.6771156788 
-2.143803596 96.3377533 14.64704037 0.6771423817 
-10.69660664 95.75618744 14.64555645 0.6771692634 
-14.94507313 95.18067932 14.64481926 0.6771827936 
-77.72483826 -29.6903019 12.64686966 0.7141709328 
-23.20027733 -12.6257515 4.014846325 0.898645401 
-20.88035202 -12.59825611 3.706785202 0.9060446024 
-17.42802238 -12.75724602 3.282949686 0.9163240194 
-15.93553638 -12.79124451 3.106018543 0.9206496477 
-14.59316826 -12.82181644 2.95272851 0.9244138002 
-13.29309082 -12.77109814 2.801964283 0.9281309843 
-12.25971699 -12.8749752 2.702309847 0.9305962324 
-11.23142529 -12.89840317 2.599676847 0.9331419468 
-9.714191437 -13.39550495 2.515167713 0.9352433681 
-9.782184601 -16.37735367 2.899628162 0.9257213473 
-9.824811935 -18.2464447 3.149973631 0.9195730686 
-9.247245789 -24.53494072 3.985423565 0.8993494511 
-8.310542107 -25.42325211 4.06558466 0.8974326253 
-7.083305359 -25.45119095 4.015634537 0.8986265659 
-2.401970148 -13.01916695 2.01232481 0.947845459 
-1.809287071 -13.03266811 1.999975562 0.9481570125 
-1.2226758 -13.04603195 1.991697669 0.9483659267 
-0.6397509575 -13.05931091 1.98740685 0.948474288 
-0.05818115175 -13.07256031 1.987061381 0.9484830499 
2.911418438 -13.14021683 2.045763254 0.9470021725 
3.5351758 -13.15442562 2.070430756 0.9463805556 
4.175441742 -13.16900826 2.099909067 0.945638299 
4.865239143 -13.26505375 2.147641182 0.944437623 
5.553068638 -13.28072453 2.188045263 0.9434224367 
6.230397701 -13.21582031 2.220856667 0.9425988197 
7.016867638 -13.31407166 2.287606239 0.9409255385 
7.803066254 -13.33198929 2.348056555 0.9394127727 
8.63363266 -13.35090542 2.416701078 0.9376978278 
9.516008377 -13.37100029 2.494567871 0.9357563853 
10.45907402 -13.3924799 2.582903624 0.9335587621 
20.73089218 -18.54402351 4.22785902 0.8935649395 
24.99641609 -18.64118195 4.739692211 0.8814733624 
27.61343193 -18.74095726 5.072657585 0.8736954927 
18.96531677 -11.67427731 3.385132313 0.9138352871 
33.97999573 -18.88598633 5.909149647 0.8544570804 
38.03888702 -18.97843742 6.46163559 0.8419834375 
100.0598145 30.26158714 15.88955498 0.6551139951 
91.82078552 32.29346466 14.79488277 0.6744832993 
22.5065155 9.059588432 3.687769175 0.9065033197 
46.89499283 32.44039917 8.667416573 0.7939710617 
46.90625 35.63440323 8.953881264 0.7879398465 
46.98535156 39.10983276 9.292216301 0.7808756232 
47.07085037 42.86569214 9.677026749 0.7729182839 
47.16389465 46.95454407 10.11596203 0.7639403939 
48.8633194 58.17466736 11.54763412 0.7353690267 
7.2833004 96.09671783 14.64868355 0.6771129966 
3.001245022 96.32066345 14.64793682 0.6771264672 
-1.286440372 96.35391998 14.64718914 0.6771398783 
-5.57103014 96.1964035 14.64644527 0.6771534085 
-14.09739208 95.31089783 14.64496517 0.6771801114 
-17.49953079 90.33726501 13.98661804 0.6891515255 
-78.88327789 -21.57631874 12.4307642 0.7182907462 
-77.61774445 -24.99066353 12.39440155 0.7189861536 
-77.70667267 -28.8935833 12.60157681 0.7150325179 
-26.16539955 -12.4778614 4.406257629 0.8893314004 
-23.67985725 -12.61481953 4.078240395 0.8971302509 
-21.42174721 -12.666255 3.782733679 0.9042147398 
-19.34638596 -12.63320255 3.512113571 0.9107516408 
-17.74732399 -12.74996567 3.321593523 0.9153820276 
-16.22105408 -12.78473568 3.139369965 0.9198327661 
-14.85096169 -12.81595707 2.981697559 0.9237012863 
-10.46228981 -12.91592216 2.52651 0.9349610209 
-9.708364487 -13.13981915 2.483282089 0.9360374212 
-9.739109039 -14.48823166 2.653534174 0.9318051934 
-9.815702438 -17.84719276 3.096011877 0.9208949804 
-9.864665031 -19.99422836 3.388905048 0.9137433171 
-9.231581688 -23.84796906 3.887029409 0.9017080069 
-8.559853554 -25.41756821 4.076694965 0.8971671462 
-7.326362133 -25.44566345 4.024890423 0.8984051943 
-3.12472415 -13.00270462 2.03269124 0.9473317266 
-1.927253366 -13.02998543 2.002116919 0.9481030107 
-1.339624047 -13.04336929 1.993034005 0.9483322501 
-0.7561474442 -13.05665779 1.987949729 0.9484605789 
0.9926293492 -13.09650135 1.996391535 0.9482475519 
2.180471182 -13.12355423 2.022138357 0.9475978613 
3.40920639 -13.15155029 2.065121651 0.9465143085 
6.123083591 -13.29371834 2.224698782 0.9425023794 
8.463635445 -13.34703541 2.402270555 0.9380580783 
9.334990501 -13.36688232 2.478199959 0.9361640811 
10.23989677 -13.35516071 2.558027506 0.9341770411 
11.26433086 -13.41082954 2.662125111 0.9315921664 
15.93639851 -15.86565876 3.418121815 0.9130330682 
20.35383034 -18.53543854 4.184422493 0.8945983052 
22.32185555 -18.58025932 4.414553165 0.8891351223 
24.52351952 -18.63041496 4.681274891 0.8828450441 
27.07363701 -18.72866249 5.003912926 0.8752955794 
18.90079498 -11.86778736 3.392333269 0.9136601686 
41.88310623 -19.06599617 6.99486208 0.8301171064 
44.44549561 -17.8906498 7.282535076 0.8237848878 
44.69658279 -15.71974087 7.201858521 0.8255560398 
53.57355881 13.12692261 8.384123802 0.7999807596 
102.9460144 30.13718224 16.304636 0.6479155421 
91.7997818 31.37070274 14.74591255 0.6753629446 
91.90628815 36.04817963 15.00599575 0.6707035899 
20.49785423 9.111668587 3.40965271 0.9132389426 
47.03499985 31.92212868 8.640436172 0.7945412993 
47.05319214 42.08960724 9.595991135 0.774587214 
16.64293861 94.93528748 14.65032196 0.6770835519 
12.4027729 95.57683563 14.64958 0.6770968437 
8.13848114 96.02906036 14.64883518 0.6771102548 
3.858535051 96.29112244 14.64808846 0.677123785 
-0.4287011623 96.36245728 14.64734077 0.6771373749 
-8.990693092 95.9332962 14.64585209 0.6771640778 
-13.24900818 95.43360901 14.64511395 0.6771771908 
-82.17837524 -21.69345665 12.91908169 0.7090147734 
-77.60030365 -24.22503853 12.35671616 0.7197080255 
-77.68864441 -28.10251808 12.55760002 0.7158699632 
-29.63080025 -12.23489189 4.872756004 0.8783566952 
-24.17470741 -12.60354996 4.143986225 0.8955616355 
-21.84692383 -12.65657234 3.83776474 0.9028911591 
-19.83580589 -12.70239258 3.58029294 0.9091002941 
-17.96394539 -12.66469193 3.340922832 0.9149116278 
-13.84872055 -12.83877373 2.870448351 0.9264406562 
-12.61688423 -12.78649902 2.730437279 0.9298996925 
-11.63320732 -12.88925743 2.639149427 0.9321619868 
-10.6504488 -12.9116354 2.544108629 0.9345232248 
-9.702680588 -12.8905077 2.452387571 0.9368075132 
-9.806908607 -17.46137619 3.044100046 0.9221682549 
-9.854140282 -19.5328846 3.325445414 0.9152881503 
-9.911120415 -22.03172302 3.672093391 0.9068815112 
-9.216671944 -23.19419861 3.793688297 0.9039511085 
-8.810490608 -25.41185951 4.088193893 0.8968926072 
-7.570631981 -25.44009209 4.034507275 0.89817518 
-2.641320705 -13.01372242 2.018428802 0.947691381 
-2.045512676 -13.02728939 2.004421711 0.9480448365 
0.8753100634 -13.0938282 1.994716167 0.948289752 
1.46420157 -13.10724068 2.004706383 0.948037684 
2.665861845 -13.13461876 2.037181139 0.9472184777 
3.283874512 -13.14870071 2.060002804 0.9466432929 
5.274841309 -13.27438927 2.17118454 0.9438458681 
6.713329792 -13.30716038 2.265522957 0.9414787292 
7.483613014 -13.32470894 2.322942257 0.940040946 
8.295605659 -13.34320545 2.388194561 0.9384095669 
12.12169361 -13.43036556 2.749958754 0.9294167161 
18.98433495 -17.59987259 3.934919357 0.9005593061 
21.91109085 -18.57090378 4.365832329 0.8902890086 
24.06211853 -18.61989784 4.624647617 0.8841767907 
26.48934937 -18.67518425 4.926445961 0.877102375 
36.28190994 -18.91566277 6.219385147 0.8474301696 
44.06651306 -18.1955471 7.246687889 0.8245712519 
45.30464554 -16.38818359 7.323041916 0.8228971958 
20.90394211 9.070214272 3.46363759 0.9119276404 
92.17220306 44.96652603 15.58857918 0.6603829861 
51.87753677 31.30039406 9.209546089 0.7825960517 
8.029553413 21.30396843 3.460544348 0.9120014906 
4.715107441 96.2539444 14.64823723 0.6771211028 
0.4286816418 96.36352539 14.64748955 0.6771345139 
-12.39914036 95.54858398 14.64526081 0.6771748662 
-16.63638115 94.89775085 14.64452648 0.6771879792 
-82.66257477 -21.03598595 12.9652586 0.7081440091 
-77.67074585 -27.31669807 12.51490688 0.7166839838 
-24.65963745 -12.57861805 4.207763195 0.8940426707 
-20.21609879 -12.69373035 3.628404379 0.9079368114 
-11.83879375 -12.88456059 2.659665108 0.9316532016 
-10.841362 -12.90728951 2.562165499 0.9340741634 
-9.852187157 -12.84948254 2.461172104 0.9365885854 
-9.726313591 -13.92720222 2.582086802 0.9335790277 
-9.844006538 -19.08833885 3.264550209 0.916772902 
-9.898794174 -21.49095726 3.596509933 0.9087079763 
-7.815951824 -25.43450165 4.044491291 0.8979365826 
-3.369152784 -12.99713802 2.040873766 0.9471254349 
-2.76151371 -13.01098347 2.021735907 0.9476079941 
-1.574030757 -13.03802681 1.996181011 0.9482527971 
-0.989177227 -13.05134964 1.989507675 0.9484212995 
0.174597159 -13.07786083 1.988024831 0.9484587312 
0.7581444979 -13.09115982 1.993200898 0.9483279586 
1.940292954 -13.11808777 2.015654325 0.9477614164 
3.159125805 -13.14585876 2.055071354 0.9467675686 
5.137287617 -13.27124691 2.163109064 0.9440488815 
5.835744381 -13.28716564 2.20587182 0.9429748654 
6.563779354 -13.30375004 2.254912376 0.9417447448 
8.12960434 -13.33942318 2.374478102 0.9387522936 
9.885424614 -13.37941837 2.528569221 0.9349098206 
10.85564709 -13.40151787 2.621500731 0.9326000214 
12.95903492 -13.36909676 2.83011508 0.9274358153 
16.18476486 -15.27458954 3.382694006 0.9138944149 
21.50914192 -18.56175232 4.318492413 0.8914114833 
23.61159134 -18.60964394 4.569711685 0.8854705691 
25.97869492 -18.66355515 4.862181664 0.8786039948 
18.90038681 -12.34195518 3.431152344 0.9127166271 
31.78847122 -18.79590225 5.613320827 0.8612116575 
35.51729965 -18.92100525 6.116946697 0.8497440219 
50.14519882 -21.2296524 8.277058601 0.8022636771 
53.62182617 12.13123131 8.3565588 0.8005679846 
27.88271904 8.977481842 4.452462196 0.8882383108 
91.86322784 34.15763092 14.89732361 0.6726463437 
21.34402275 9.036380768 3.523091316 0.9104855657 
92.14946747 43.94482803 15.51800537 0.6616248488 
52.89739609 31.27716446 9.340826035 0.779866159 
48.16085815 31.44901276 8.743032455 0.7923743725 
46.88103485 33.68047714 8.774256706 0.7917154431 
46.93719101 36.99382019 9.084065437 0.7852142453 
47.10708237 44.45788956 9.845608711 0.7694577575 
47.26653671 48.76219177 10.322505 0.7597519159 
17.46234894 90.14543915 13.95697975 0.6896965504 
0.5075341463 38.0160675 5.779005051 0.8574223518 
-3.001020432 96.3137207 14.64689159 0.6771454811 
-6.975497723 92.03562164 14.02962399 0.688362956 
-11.54823685 95.65622711 14.64540768 0.6771720052 
-79.02625275 40.30989075 13.4844923 0.6984240413 
-84.32267761 -20.66142464 13.1962862 0.7038027048 
-78.48059082 -26.81931496 12.60643768 0.7149398327 
-25.21408081 -12.57987309 4.283092499 0.8922518492 
-18.75242233 -12.72707462 3.444862604 0.9123833179 
-17.11604881 -12.76434517 3.245455265 0.9172391295 
-15.65600109 -12.79761219 3.07361269 0.9214441776 
-14.340312 -12.82758236 2.924550772 0.9251074195 
-13.14408207 -12.8548336 2.794560194 0.9283139706 
-11.03502464 -12.90287113 2.580685616 0.9336137772 
-10.0934124 -12.92432594 2.49260807 0.9358052015 
-9.72017765 -13.65793896 2.548094511 0.9344240427 
-9.790158272 -16.72713852 2.946013212 0.9245790839 
-9.834238052 -18.65999413 3.206128359 0.9181996584 
-9.886958122 -20.97218704 3.524274111 0.9104568362 
-2.882175207 -13.00823212 2.025215149 0.947520256 
-0.5234081745 -13.06196213 1.987023234 0.9484839439 
1.227941871 -13.10186291 2.000221491 0.9481508136 
3.035019398 -13.14302921 2.050324917 0.9468871355 
3.661830902 -13.15730953 2.075933218 0.9462419748 
4.305786133 -13.1719799 2.106411457 0.9454746246 
4.970265865 -13.18711376 2.142099857 0.9445769191 
7.965404987 -13.33568096 2.361100435 0.9390866756 
11.61463833 -13.33847141 2.688374043 0.9309414625 
12.78929615 -13.43119621 2.819043875 0.9277091026 
25.48141479 -18.65223122 4.799979687 0.8800598979 
18.91875648 -12.59545612 3.454695463 0.9121448398 
38.94417953 -18.99905205 6.586421967 0.8391913176 
44.84524155 -17.13055611 7.296919346 0.8234696388 
21.85430145 9.023869514 3.593920708 0.9087706804 
92.12693024 42.93171692 15.44922543 0.6628370285 
59.81150436 31.18284416 10.25278568 0.7611631751 
54.4114151 31.5221138 9.558236122 0.7753658295 
46.90968704 33.07159042 8.724176407 0.7927722931 
47.08880615 43.65471649 9.760182381 0.7712093592 
47.18354416 47.81776428 10.21107197 0.7620091438 
47.35191345 52.4644928 10.7424221 0.7513072491 
14.95039558 95.21456909 14.65002632 0.6770887971 
10.13336372 90.71206665 13.87402821 0.6912187934 
-2.144008636 96.3377533 14.64704037 0.6771423221 
-10.69683075 95.75614929 14.64555645 0.677169323 
-72.24742889 22.55397415 11.50435257 0.7362235785 
-77.54856873 -21.95483398 12.25074959 0.7217409611 
-77.72483826 -29.6903019 12.64686966 0.7141709328 
-25.76062012 -12.56742191 4.356752396 0.8905040622 
-23.20041466 -12.62574673 4.014863014 0.8986449838 
-19.10438919 -12.71904755 3.488584518 0.9113221765 
-15.93546867 -12.79123974 3.106010675 0.9206498265 
-14.59310532 -12.82182598 2.952721834 0.9244139194 
-13.29304123 -12.77109814 2.801958561 0.9281311631 
-10.27660656 -12.92015553 2.509345055 0.9353883266 
-9.745771408 -14.78055096 2.691083431 0.9308744073 
-9.782184601 -16.37735367 2.899628162 0.9257213473 
-9.824811935 -18.2464447 3.149973631 0.9195730686 
-9.937404633 -23.18442345 3.834130764 0.9029785395 
-7.083359241 -25.45120049 4.015636921 0.8986264467 
-3.003193378 -13.00547314 2.028866291 0.9474282265 
-1.809260249 -13.03267288 1.999975204 0.9481570125 
0.5243676901 -13.0858345 1.990654826 0.948392272 
1.110156178 -13.09917736 1.998224735 0.9482012391 
2.301147461 -13.12630844 2.02563858 0.9475095868 
2.911418438 -13.14021683 2.045763254 0.9470021725 
3.5351758 -13.15442562 2.070430756 0.9463805556 
4.865239143 -13.26505375 2.147641182 0.944437623 
5.553031921 -13.28072739 2.188043118 0.9434224963 
6.230360985 -13.21582031 2.220854759 0.9425988793 
7.016828537 -13.31407166 2.28760314 0.9409255981 
7.803105354 -13.33198929 2.348059893 0.9394126534 
8.633673668 -13.35090828 2.416704416 0.9376977682 
11.47354221 -13.41559792 2.683237791 0.931068778 
15.89079094 -15.54109383 3.378538847 0.9139956236 
24.99641609 -18.64118195 4.739692211 0.8814733624 
27.61343193 -18.74095726 5.072657585 0.8736954927 
100.0598145 30.26158714 15.88955498 0.6551139951 
22.50671387 9.059609413 3.687797785 0.9065026045 
93.53177643 42.57718658 15.62065125 0.6598196626 
90.75921631 46.29525375 15.48657417 0.6621787548 
49.92022705 31.34497452 8.959732056 0.7878172994 
46.89500046 32.44051743 8.667423248 0.7939708233 
47.32971954 51.51058578 10.63294411 0.7534997463 
48.8633194 58.17466736 11.54763412 0.7353690267 
15.79708481 95.0787735 14.65017509 0.6770860553 
10.81735325 89.60220337 13.71851254 0.6940870285 
3.001245022 96.32066345 14.64793682 0.6771264672 
-5.57103014 96.1964035 14.64644527 0.6771534085 
-9.844140053 95.8484726 14.64570236 0.6771668196 
-17.49953079 90.33726501 13.98661804 0.6891515255 
-89.71001434 -20.2957325 13.98063183 0.6892614365 
-78.88394165 -21.5763073 12.43086433 0.7182888985 
-77.61774445 -24.99084854 12.39442158 0.7189859748 
-77.7066803 -28.89377785 12.60158634 0.7150322795 
-29.69794846 -12.57316875 4.902006149 0.8776730895 
-23.67973518 -12.61482906 4.07822752 0.8971306086 
-17.74732399 -12.74996567 3.321593523 0.9153820276 
-16.22105408 -12.78473568 3.139369965 0.9198327661 
-13.52646923 -12.76579571 2.82709837 0.9275102615 
-10.46228981 -12.91592216 2.52651 0.9349610209 
-9.774453163 -16.03837776 2.854906797 0.9268240333 
-9.81570816 -17.84729958 3.096024752 0.9208946228 
-9.923984528 -22.59577179 3.75123477 0.9049731493 
-9.231589317 -23.84812355 3.887053251 0.9017074704 
-8.559797287 -25.41756821 4.076692581 0.8971672058 
-7.326362133 -25.44566345 4.024890423 0.8984051943 
-1.927253366 -13.02998543 2.002116919 0.9481030107 
0.4076538086 -13.08317852 1.98962152 0.9484184384 
0.9926025271 -13.09649658 1.996391296 0.9482475519 
2.180441856 -13.12355423 2.022137403 0.9475978613 
2.788352013 -13.13740158 2.041380644 0.9471126199 
3.409240723 -13.15155506 2.065123558 0.9465142488 
4.045951843 -13.16605663 2.093614817 0.9457967281 
4.701791763 -13.18100071 2.127172709 0.9449521899 
5.413430214 -13.27754593 2.179496527 0.9436371326 
6.123117447 -13.29371262 2.224699259 0.9425023794 
6.864377499 -13.31060028 2.276422024 0.9412056804 
7.595822811 -13.24692631 2.321078539 0.9400876164 
9.334990501 -13.36688232 2.478199959 0.9361640811 
10.23989677 -13.35516071 2.558027506 0.9341770411 
11.26433086 -13.41082954 2.662125111 0.9315921664 
15.93639851 -15.86565876 3.418121815 0.9130330682 
24.52340698 -18.63040924 4.681261539 0.8828453422 
27.07374382 -18.72866631 5.003926754 0.8752952814 
18.90080261 -11.86773396 3.392329693 0.9136602283 
33.24992752 -18.86935043 5.811149597 0.8566887975 
53.57359314 13.12703419 8.3841362 0.7999805808 
102.9452057 30.13720131 16.30451393 0.6479175687 
92.19515228 45.99818802 15.66109848 0.6591095924 
56.14146423 31.20327377 9.763047218 0.7711506486 
50.88542938 31.32299232 9.082560539 0.7852457762 
47.03499985 31.92212868 8.640436172 0.7945412993 
47.05319214 42.08960724 9.595991135 0.774587214 
47.30796432 50.57575607 10.52647972 0.7556378841 
48.74367905 56.99429703 11.3993454 0.7382838726 
12.4027729 95.57683563 14.64958 0.6770968437 
8.13848114 96.02906036 14.64883518 0.6771102548 
-0.4287011623 96.36245728 14.64734077 0.6771373749 
-16.7468605 90.76976013 14.02996826 0.6883569956 
-77.60030365 -24.22503853 12.35671616 0.7197080255 
-77.68864441 -28.10251808 12.55760002 0.7158699632 
-19.83580589 -12.70239258 3.58029294 0.9091002941 
-12.61688423 -12.78649902 2.730437279 0.9298996925 
-11.63320732 -12.88925743 2.639149427 0.9321619868 
-10.6504488 -12.9116354 2.544108629 0.9345232248 
-9.216671944 -23.19419861 3.793688297 0.9039511085 
-3.246716261 -12.99992847 2.036693096 0.9472307563 
-2.641320705 -13.01372242 2.018428802 0.947691381 
-2.045512676 -13.02728939 2.004421711 0.9480448365 
-1.456762671 -13.04070282 1.994528413 0.9482945204 
-0.8725903034 -13.05400562 1.988649249 0.9484429359 
-0.2907519341 -13.06726265 1.986727595 0.9484914541 
0.2911083996 -13.08051682 1.988741398 0.9484405518 
0.8753100634 -13.0938282 1.994716167 0.948289752 
1.46420157 -13.10724068 2.004706383 0.948037684 
2.665861845 -13.13461876 2.037181139 0.9472184777 
5.274841309 -13.27438927 2.17118454 0.9438458681 
5.978786469 -13.29042435 2.215155602 0.9427418709 
6.713329792 -13.30716038 2.265522957 0.9414787292 
7.483613014 -13.32470894 2.322942257 0.940040946 
8.295605659 -13.34320545 2.388194561 0.9384095669 
9.156281471 -13.36280727 2.462235928 0.9365620017 
10.07390881 -13.38371277 2.546218157 0.9344707131 
11.05846691 -13.406147 2.641557217 0.9321023226 
12.12169361 -13.43036556 2.749958754 0.9294167161 
13.19722176 -13.37452602 2.856018066 0.9267965555 
18.88514328 -12.09372044 3.408712149 0.9132618308 
32.54325485 -18.85326195 5.716750145 0.858844161 
36.28191376 -18.91547775 6.219367027 0.847430408 
53.43013382 12.58882618 8.343809128 0.8008395433 
92.17222595 44.96702576 15.58861542 0.6603823304 
51.87706375 31.30040741 9.209483147 0.7825973034 
47.38883209 31.5498333 8.653501511 0.7942650318 
46.87617874 34.31328964 8.83016777 0.7905389071 
47.15288162 41.42951584 9.540768623 0.7757266164 
47.37518311 49.75288391 10.44254589 0.7573283315 
8.029464722 21.30400848 3.460552931 0.912001431 
17.48711395 94.78449249 14.65047073 0.6770806909 
8.992607117 95.9538269 14.64898396 0.6771076322 
4.715512753 96.25392151 14.64823723 0.6771211028 
-82.66257477 -21.03636742 12.96527576 0.7081437707 
-77.58296204 -23.46380806 12.32020283 0.720407784 
-77.67075348 -27.31708908 12.51492691 0.7166836262 
-22.28450203 -12.64661121 3.89471364 0.9015235901 
-20.21627426 -12.69373035 3.628426313 0.907936275 
-18.40914536 -12.73489189 3.402492046 0.9134129286 
-12.91731453 -12.85999966 2.770575762 0.9289067984 
-11.83869076 -12.88457012 2.659655809 0.93165344 
-10.841362 -12.90728951 2.562165499 0.9340741634 
-9.798400879 -17.08815384 2.994123697 0.9233958125 
-9.898794174 -21.49095726 3.596509933 0.9087079763 
-9.062626839 -25.40611839 4.100089073 0.8966087103 
-7.815951824 -25.43450165 4.044491291 0.8979365826 
-3.369206429 -12.99714088 2.040875912 0.9471253753 
-2.76151371 -13.01098347 2.021735907 0.9476079941 
-2.164050341 -13.02458954 2.006890774 0.9479825497 
-0.9892333746 -13.05134964 1.989508033 0.9484212399 
-0.4070703089 -13.0646162 1.986796498 0.948489666 
0.1746557504 -13.07786083 1.988024831 0.9484587312 
0.7581444979 -13.09115982 1.993200898 0.9483279586 
2.543867111 -13.13183594 2.033157825 0.9473199248 
5.13735342 -13.27125168 2.163112402 0.9440487623 
5.835673809 -13.28716278 2.205865383 0.9429749846 
8.12960434 -13.33942318 2.374478102 0.9387522936 
8.925000191 -13.27720451 2.431726694 0.937322855 
9.885424614 -13.37941837 2.528569221 0.9349098206 
10.85554695 -13.40151787 2.621490955 0.9326002598 
11.90205574 -13.42536545 2.727130651 0.9299815297 
16.18476486 -15.27458954 3.382694006 0.9138944149 
21.50933075 -18.56175804 4.318514347 0.8914109468 
18.90038681 -12.34195518 3.431152344 0.9127166271 
35.51729965 -18.92100525 6.116946697 0.8497440219 
39.8852005 -19.02049255 6.716676712 0.8362869024 
58.49160004 -18.83275795 9.34026432 0.7798778415 
27.88271904 8.977481842 4.452462196 0.8882383108 
58.47312927 31.15016556 10.07049561 0.7648653984 
52.89789963 31.27715492 9.340891838 0.7798647881 
48.16085815 31.44901276 8.743032455 0.7923743725 
46.93719101 36.99382019 9.084065437 0.7852142453 
47.5180397 41.00701141 9.540459633 0.7757331133 
47.10708237 44.45788956 9.845608711 0.7694577575 
9.846059799 95.87099457 14.64913273 0.67710495 
5.571753025 96.20913696 14.648386 0.6771184206 
0.5073852539 38.01595688 5.778991699 0.8574227691 
-3.001020432 96.3137207 14.64689159 0.6771454811 
-77.56573486 -22.70737267 12.28490448 0.7210850716 
-20.50909615 -12.62456989 3.660676718 0.9071572423 
-17.11604881 -12.76434517 3.245455265 0.9172391295 
-15.6558733 -12.79760742 3.073596478 0.9214445353 
-14.340312 -12.82758236 2.924550772 0.9251074195 
-10.09350586 -12.92432117 2.492616177 0.9358049631 
-9.752631187 -15.08122063 2.729918718 0.9299126267 
-9.790158272 -16.72713852 2.946013212 0.9245790839 
-9.834233284 -18.6597805 3.206099272 0.9182003736 
-9.951439857 -23.79971695 3.921089411 0.9008909464 
-6.841337681 -25.45669937 4.006738186 0.8988393545 
-2.882116556 -13.00823212 2.02521348 0.9475203156 
-2.28283453 -13.02188206 2.009524584 0.9479160905 
-1.691506267 -13.03535366 1.997998595 0.9482069612 
-1.105873942 -13.04869366 1.990525484 0.9483956099 
-0.5233520269 -13.06196499 1.987023592 0.9484839439 
0.6412060261 -13.08849621 1.991849303 0.9483621716 
1.22788322 -13.10185528 2.000221014 0.9481508732 
1.820803165 -13.11536598 2.012667179 0.9478367567 
4.305786133 -13.1719799 2.106411457 0.9454746246 
4.970202446 -13.18711376 2.142096758 0.9445769787 
5.693815708 -13.28393269 2.196834326 0.9432017207 
7.170866489 -13.31758308 2.299082994 0.9406381249 
7.965480804 -13.33568573 2.361105919 0.9390864968 
8.805685997 -13.35482121 2.431498289 0.937328577 
11.61473846 -13.33847141 2.688384056 0.9309412241 
15.41320515 -14.8079052 3.2488451 0.9171562791 
18.91875648 -12.59545612 3.454695463 0.9121448398 
38.94371796 -18.99904251 6.586359024 0.8391926885 
43.95724106 -19.07306671 7.283400536 0.8237659931 
57.13776779 -18.95954132 9.150647163 0.7838239074 
54.37078094 11.79294872 8.456579208 0.7984393835 
97.15310669 30.32848167 15.47018719 0.6624674201 
21.85401535 9.023859978 3.59388113 0.9087716937 
54.4114151 31.5221138 9.558236122 0.7753658295 
48.98075104 31.36637306 8.840866089 0.7903137207 
46.90968704 33.07159042 8.724176407 0.7927722931 
47.18353271 47.81744003 10.21102428 0.7620098591 
47.35191345 52.4644928 10.7424221 0.7513072491 
18.17036629 89.52474213 13.88530445 0.6910123825 
14.94998455 95.21463776 14.65002632 0.6770887971 
-2.144008636 96.3377533 14.64704037 0.6771423221 
-72.24729156 22.55358315 11.50431633 0.7362242937 
-77.63530731 -25.76105499 12.43333721 0.718241632 
-29.06225967 -12.61011219 4.815410614 0.8796985149 
-23.20041466 -12.62574673 4.014863014 0.8986449838 
-19.10438919 -12.71904755 3.488584518 0.9113221765 
-17.42794418 -12.75724602 3.282939911 0.9163242579 
-15.93560028 -12.79123497 3.106025934 0.9206494689 
-14.59310532 -12.82182598 2.952721834 0.9244139194 
-13.29314423 -12.77109337 2.801970243 0.9281308651 
-12.2596674 -12.87498474 2.70230341 0.9305963516 
-10.27660656 -12.92015553 2.509345055 0.9353883266 
-9.714196205 -13.39562702 2.515182972 0.9352430105 
-9.745771408 -14.78055096 2.691083431 0.9308744073 
-9.782184601 -16.37751961 2.89964962 0.9257208109 
-9.247250557 -24.5351162 3.985448599 0.899348855 
-7.083246708 -25.45119667 4.015632153 0.8986265659 
-3.003251791 -13.00547314 2.02886796 0.9474281669 
-2.401943207 -13.01916695 2.012322426 0.947845459 
-1.809313893 -13.03267097 1.999976158 0.9481570125 
-1.222648859 -13.04603004 1.991699219 0.9483659863 
-0.6397778392 -13.05931091 1.98740685 0.948474288 
-0.05815429613 -13.0725584 1.987061381 0.9484830499 
0.5243066549 -13.0858326 1.99065423 0.9483923316 
1.701657653 -13.11264896 2.009847879 0.9479079247 
3.5351758 -13.15442562 2.070430756 0.9463805556 
4.175500393 -13.16900826 2.099912167 0.9456382394 
4.865239143 -13.26505375 2.147641182 0.944437623 
5.55310297 -13.28072262 2.188047409 0.9434223771 
7.803022385 -13.33197689 2.348053217 0.9394128919 
8.633673668 -13.35090828 2.416704416 0.9376977682 
11.47343731 -13.41559505 2.683228493 0.9310690165 
12.57217789 -13.44062424 2.797436714 0.9282428622 
15.89093971 -15.54136181 3.378583193 0.9139944911 
20.73089218 -18.54402351 4.22785902 0.8935649395 
24.99641609 -18.64118195 4.739692211 0.8814733624 
27.61369133 -18.7409668 5.072690964 0.8736947179 
18.96531677 -11.67427731 3.385132313 0.9138352871 
38.03888702 -18.97843742 6.46163559 0.8419834375 
22.50671387 9.059609413 3.687797785 0.9065026045 
90.76007843 46.29522705 15.48668957 0.6621767282 
55.02781296 31.2286396 9.61733532 0.7741472721 
49.920681 31.34496498 8.959781647 0.7878161073 
46.89500046 32.44051743 8.667423248 0.7939708233 
46.90625 35.63424683 8.953866005 0.7879401445 
46.98535156 39.10983276 9.292216301 0.7808756232 
48.8633194 58.17466736 11.54763412 0.7353690267 
10.81735325 89.60220337 13.71851254 0.6940870285 
7.283720493 96.09668732 14.64868355 0.6771129966 
-9.844560623 95.84843445 14.64570236 0.6771668196 
-14.09739208 95.31089783 14.64496517 0.6771801114 
-8.39465332 21.68580055 3.534618378 0.9102062583 
-23.67982292 -12.6148243 3.827622652 0.8972614408 
-16.22107887 -12.78473091 2.946451902 0.9199361801 
-12.4753027 -12.87007809 2.55705142 0.9301381111 
-10.46228027 -12.9159174 2.371253967 0.9350457191 
-9.708334923 -13.13975525 2.330670118 0.9361209869 
-9.739079475 -14.48816395 2.490459442 0.9318940639 
-9.774428368 -16.03840256 2.679465532 0.9269188046 
-9.815666199 -17.84710884 2.905742645 0.9209974408 
-9.864628792 -19.99415398 3.180642128 0.9138545394 
-13.95119572 -41.42665863 6.236068726 0.8380970955 
-12.00126457 -41.68215179 6.187960148 0.8392399549 
-3.124736309 -13.00270939 1.907780051 0.9474006891 
-2.521459818 -13.01644516 1.891448975 0.9478390217 
-1.927260756 -13.02998257 1.879084706 0.9481710196 
-0.7561425567 -13.05666256 1.86578548 0.948528111 
-0.1744824201 -13.06991386 1.864722848 0.9485567212 
1.582734346 -13.10994148 1.883847356 0.948043108 
2.180459023 -13.12356186 1.897876263 0.9476664662 
2.788376331 -13.13741684 1.915937185 0.9471818209 
4.045920372 -13.16605949 1.964957237 0.9458676577 
4.70176506 -13.18100071 1.996455669 0.9450242519 
5.380343914 -13.196455 2.033066988 0.9440448284 
6.08570528 -13.21252155 2.075235605 0.9429180026 
6.822436333 -13.22930145 2.123482943 0.9416304231 
9.334982872 -13.36687946 2.32591033 0.9362472892 
10.23992634 -13.35519505 2.400838852 0.9342625141 
11.26433563 -13.41082764 2.49853301 0.9316810369 
12.34496307 -13.43544388 2.602952242 0.9289297462 
15.87839794 -15.80790043 3.196393251 0.9134469032 
26.26764107 -21.86470222 4.875671387 0.871019125 
24.52348328 -18.63040924 4.393598557 0.8829932213 
27.01355362 -18.68713379 4.685998917 0.8757109046 
41.79032135 -19.02371025 6.550476551 0.8306673169 
44.84524155 -15.77208424 6.781767845 0.8252433538 
91.79994202 31.37080002 13.83977032 0.6757193208 
91.90644073 36.04805756 14.0838623 0.6710640192 
92.1322403 45.96670914 14.6886549 0.6596670151 
47.03506088 31.9221859 8.109480858 0.7947870493 
46.95505905 35.01686859 8.356237411 0.7892519236 
47.27614975 42.28911591 9.048977852 0.7739174366 
47.1447258 46.10730362 9.407479286 0.7660992742 
48.78655624 57.04463196 10.70827389 0.7383881807 
17.71000862 101.0223999 14.63178921 0.6607328057 
13.21490669 101.8354187 14.64968014 0.6603958011 
4.11105442 102.595787 14.64808846 0.6604256034 
-0.4569384754 102.6715927 14.64729214 0.6604402661 
-9.579442978 102.2135544 14.64570522 0.6604700089 
-82.39816284 -17.87231445 12.02827358 0.7112926841 
-76.7195282 -23.95004845 11.46573448 0.7227161527 
-29.15126419 -12.03687 4.499305248 0.8803536296 
-21.84690475 -12.65657234 3.601929188 0.9030153751 
-16.51283646 -12.77810001 2.978674173 0.9190970063 
-13.84868145 -12.83877945 2.694051743 0.9265360236 
-12.61693287 -12.78651333 2.562656164 0.92999053 
-10.65048313 -12.91164494 2.387773037 0.9346082807 
-9.702651024 -12.8904295 2.301672935 0.9368901253 
-9.732597351 -14.20385265 2.456379652 0.9327940345 
-9.766933441 -15.7097559 2.638979197 0.9279823303 
-9.911081314 -22.03164101 3.446426868 0.9070011973 
-9.981479645 -25.11886597 3.856015444 0.8965401649 
-14.43230438 -41.62678146 6.285280704 0.8369297981 
-12.40130806 -41.67304993 6.202748299 0.838888526 
-3.246713877 -12.99992657 1.911536813 0.9472998977 
-1.456740737 -13.04070282 1.871961594 0.9483622909 
-0.8726196289 -13.05401134 1.866444707 0.948510468 
-0.2907788157 -13.06726265 1.864638925 0.9485589862 
0.2910815477 -13.08052254 1.866530418 0.9485081434 
0.8752880692 -13.09383011 1.872136474 0.9483575821 
2.060185432 -13.12082005 1.894752502 0.94775033 
2.665847063 -13.13462353 1.911993027 0.9472876191 
5.242626667 -13.19332027 2.025316 0.9442520738 
5.942280293 -13.20925236 2.06633544 0.9431557655 
8.295624733 -13.34320545 2.24143815 0.9384898543 
9.156311035 -13.36280727 2.31093359 0.9366445541 
10.07393551 -13.38371563 2.389752865 0.9345558882 
11.05841255 -13.40613747 2.479225636 0.9321906567 
12.12164497 -13.43036556 2.580962658 0.929508388 
13.19715786 -13.37452602 2.680506229 0.9268915653 
18.9842701 -17.59987831 3.693104267 0.9006864429 
25.78423691 -21.85368156 4.821859837 0.8723477721 
24.0620594 -18.61990166 4.340445995 0.8843234777 
29.32641602 -18.77997017 4.96803093 0.8687436581 
32.54319763 -18.85326576 5.365437031 0.8590202332 
44.06567383 -18.19520378 6.801244736 0.8247883916 
44.8420105 -16.22078133 6.802841187 0.8247510195 
92.17124176 30.58435059 13.85416985 0.6754439473 
91.88484192 35.09928513 14.03212833 0.6720480323 
92.10876465 44.93567276 14.6205759 0.6609402299 
47.38877869 31.54993629 8.121739388 0.7945112586 
46.9397583 34.35967255 8.298768997 0.7905375957 
47.65090561 41.86693192 9.049044609 0.7739163041 
47.12578964 45.27529526 9.322927475 0.7679360509 
9.581660271 102.2367783 14.64904308 0.660407722 
0.4568359256 102.6726379 14.64745045 0.6604374647 
-4.110615253 102.5857391 14.64665508 0.6604524255 
-13.2107954 101.8034058 14.6450758 0.6604819298 
-76.70237732 -23.19753838 11.43186474 0.7234098315 
-81.77061462 -32.91522217 12.57504082 0.7003628016 
-22.28460884 -12.64661121 3.655389309 0.9016490579 
-20.21619987 -12.69372559 3.405446053 0.9080545306 
-16.7083931 -12.69329548 2.993437767 0.9187123775 
-14.00613213 -12.75485325 2.702491045 0.9263145924 
-11.83878899 -12.88457012 2.49622345 0.9317419529 
-9.726291656 -13.92716789 2.423404694 0.9336655736 
-9.75965786 -15.39088345 2.59990406 0.929009974 
-9.798361778 -17.08814812 2.810127735 0.9234949946 
-9.843969345 -19.08832932 3.063938618 0.91688025 
-9.898756981 -21.49091721 3.375487089 0.9088252783 
-9.966088295 -24.44400787 3.765886068 0.8988317251 
-2.761530638 -13.01098633 1.897497535 0.947676599 
-0.4070703089 -13.0646162 1.864705801 0.948557198 
0.1746020466 -13.07786369 1.865856528 0.9485262632 
2.543823242 -13.13183594 1.908216476 0.947388947 
3.159142971 -13.14585686 1.928783178 0.9468372464 
3.789123535 -13.16020966 1.953709722 0.9461690784 
4.436901569 -13.17496777 1.983264089 0.9453774095 
5.800065994 -13.20601749 2.057670593 0.9433872104 
6.523652077 -13.22249985 2.103415251 0.9421657324 
8.925070763 -13.27720642 2.282300472 0.9374043345 
10.85561943 -13.40151596 2.460405111 0.9326876998 
12.98348331 -13.39432144 2.661212206 0.9273982048 
25.3113327 -21.84290886 4.769584179 0.8736401796 
25.97877884 -18.66355896 4.56340456 0.8787568212 
31.78855896 -18.79590797 5.26839304 0.8613845706 
39.88496399 -19.02048874 6.30388546 0.8364889026 
45.2134552 -19.14185524 7.004411697 0.8200560212 
45.22539139 -16.81613731 6.883437157 0.8228704929 
58.49206924 -18.83277321 8.766341209 0.7801374197 
94.21958923 30.33594704 14.12092209 0.6703602672 
91.86338806 34.15745544 13.98187923 0.6730052829 
92.14031219 39.00905609 14.27419662 0.6674551964 
58.47331238 31.15015793 9.451675415 0.7651409507 
52.94851303 31.30731392 8.775267601 0.7799401879 
48.160923 31.44901085 8.205766678 0.792622447 
46.92466736 33.71134567 8.242729187 0.791793406 
47.00226593 37.04512024 8.537657738 0.7852069139 
48.0220108 41.44158554 9.049114227 0.7739145756 
47.10719299 44.45796204 9.240599632 0.7697288394 
47.2036705 48.69732285 9.675286293 0.7603103518 
47.30988312 53.36507797 10.17403889 0.7496456504 
10.36601543 100.9296036 14.47454548 0.66368258 
5.936572075 102.5085754 14.64840508 0.6604196429 
-3.197577953 102.6193924 14.64681339 0.6604493856 
-6.975409985 92.0326767 13.16705513 0.6887172461 
-76.77159119 -26.23513603 11.57404995 0.7205015421 
-77.74300385 -30.49277306 11.91344929 0.7136099339 
-29.44890976 -13.09059048 4.597558975 0.8779070377 
-25.21410561 -12.57986832 4.019893646 0.8923887014 
-20.60700607 -12.68482399 3.452122688 0.9068548679 
-18.75242233 -12.72706509 3.233174324 0.9124959707 
-17.11605453 -12.76434994 3.046012402 0.9173457623 
-15.6559906 -12.79760742 2.884730816 0.9215456843 
-14.34031677 -12.82757759 2.744834423 0.9252043366 
-12.04755878 -12.87981892 2.515975475 0.9312208295 
-10.09346199 -12.92432117 2.339435577 0.935888648 
-9.752599716 -15.08126926 2.562163353 0.9300034642 
-9.834196091 -18.65979385 3.009081602 0.9183058739 
-9.951400757 -23.79992676 3.680154324 0.9010168314 
-13.20728016 -41.65467834 6.234008789 0.8381459117 
-2.882170439 -13.00823975 1.900763512 0.9475889802 
-1.105876446 -13.04869556 1.86820364 0.9484632611 
0.05820068344 -13.07521439 1.865332007 0.9485403895 
0.6411816478 -13.08849335 1.869445205 0.9484298229 
1.227910161 -13.10186005 1.877304912 0.9482187629 
1.820771456 -13.11536789 1.888985872 0.9479051232 
2.42225337 -13.12906456 1.904605985 0.9474858642 
3.661799192 -13.15730476 1.948362947 0.9463123679 
4.305783749 -13.17198181 1.976968646 0.9455459714 
4.97026825 -13.18711662 2.010465145 0.9446493983 
7.170871258 -13.31758308 2.157802105 0.940715611 
8.805687904 -13.35482407 2.282078505 0.9374102354 
10.65586662 -13.3969698 2.442059278 0.9331724048 
11.6146822 -13.33847427 2.523174763 0.9310310483 
12.80334473 -13.44589329 2.648711443 0.9277265668 
15.3269825 -14.72512627 3.032146454 0.9177061915 
24.84855843 -21.83237267 4.718806744 0.8748975396 
23.17171097 -18.59961891 4.238893509 0.8868706226 
18.91905212 -12.5957222 3.242451191 0.9122563004 
34.70196152 -18.88491631 5.636198044 0.8524580598 
57.13786316 -18.95956039 8.588334084 0.7840806246 
96.9744339 30.2732029 14.49283886 0.6633358598 
46.90978241 33.07183075 8.188089371 0.7930194736 
47.08891678 43.65497971 9.160437584 0.7714782953 
47.28776169 52.39319229 10.06859684 0.7518877983 
15.92916012 101.4496689 14.65015316 0.6603868604 
2.001894474 89.96305084 12.83732891 0.695179224 
-2.284160137 102.6449661 14.64697266 0.6604462266 
-6.76632309 101.221344 14.47228527 0.6637183428 
-11.39685535 102.0246353 14.64539051 0.6604760289 
-78.02649689 -22.09014511 11.56877422 0.7206101418 
-76.7541275 -25.46864128 11.5368309 0.7212622762 
-76.87426758 -29.365448 11.73979664 0.7171279788 
-25.7605114 -12.56742668 4.089012146 0.8906433582 
-23.20027733 -12.62574673 3.768128633 0.8987746835 
-21.00866699 -12.67567348 3.500372887 0.9056164026 
-17.42801666 -12.75724602 3.081207752 0.9164318442 
-13.37477016 -12.84958458 2.64593935 0.9277994633 
-11.23142529 -12.89840317 2.439919949 0.93322891 
-10.27660656 -12.92015553 2.355142355 0.9354724288 
-9.714164734 -13.39547062 2.360598326 0.9353278279 
-9.824774742 -18.24636269 2.956391573 0.9196771979 
-9.24720192 -24.53482437 3.740494967 0.8994783163 
-11.60305119 -41.69123459 6.173722267 0.8395782709 
-2.401972532 -13.01916981 1.88866508 0.9479137659 
1.110156178 -13.09917736 1.875432968 0.9482691288 
1.701599121 -13.11264896 1.88633728 0.9479762316 
2.301145077 -13.12630558 1.901158094 0.9475783706 
2.911416054 -13.14021492 1.920047283 0.9470715523 
3.535173178 -13.15442371 1.9431988 0.9464507699 
4.835529804 -13.18404484 2.003355742 0.9448395967 
7.016862869 -13.31407452 2.147029877 0.941002667 
8.633627892 -13.35091019 2.268191099 0.9377790093 
9.516015053 -13.37100315 2.341273785 0.9358400106 
10.45907974 -13.39249039 2.424179077 0.9336450696 
11.47349072 -13.41559505 2.518343449 0.9311584234 
15.80825615 -15.46036053 3.154449463 0.9145327806 
24.39550781 -21.82204628 4.669469357 0.8761209846 
22.74194717 -18.58983421 4.190373898 0.8880902529 
24.99641037 -18.64118576 4.448430061 0.8816230893 
30.55425644 -18.8079586 5.118505955 0.8650491238 
42.94600677 -19.09020424 6.704726219 0.8270462751 
44.11052322 -17.30127907 6.75955677 0.8257628083 
64.82373047 -18.97702026 9.63589859 0.7611590028 
53.32495499 13.57014751 7.849812508 0.8006538153 
91.82095337 32.29351044 13.88572216 0.6748404503 
55.02807617 31.22863197 9.026374817 0.7744133472 
46.8950882 32.44042587 8.134799957 0.7942173481 
48.36286926 40.25644684 8.97687149 0.7754993439 
47.26609802 51.44128418 9.966108322 0.754073441 
48.86343765 58.17478943 10.83838844 0.7356726527 
10.81733418 89.60220337 12.87549019 0.6944282651 
-1.370634794 102.6622696 14.64713383 0.6604434848 
-10.48860359 102.1232224 14.64554882 0.6604728103 
-15.02019978 101.5499573 14.64476299 0.6604878902 
-8.394389153 21.68524933 3.317320585 0.9103237987 
-82.41577911 -18.64568329 12.05460644 0.71076262 
-76.736763 -24.70705986 11.50072479 0.7220003605 
-29.52653313 -12.50053215 4.574212074 0.8784878254 
-21.42172813 -12.66626453 3.550276518 0.9043373466 
-19.34640121 -12.63319778 3.296267033 0.9108662605 
-12.4753027 -12.87007809 2.557052135 0.9301381111 
-11.43084431 -12.89386177 2.458213329 0.9327455759 
-9.923934937 -22.59554672 3.520684242 0.9050956368 
-12.00121021 -41.68215179 6.187958241 0.8392400146 
-3.124726534 -13.00270939 1.907779813 0.9474006891 
-1.927258253 -13.02998257 1.879084706 0.9481710196 
-0.7561425567 -13.05666256 1.865786076 0.948528111 
0.9926293492 -13.09649849 1.873708725 0.948315382 
2.788383722 -13.13741684 1.915937424 0.9471818209 
3.40920639 -13.15155506 1.938216567 0.9465843439 
4.045920372 -13.16605949 1.964957237 0.9458676577 
4.70176506 -13.18100071 1.996455908 0.9450242519 
5.380336761 -13.19645691 2.033067226 0.9440448284 
6.82244873 -13.22930431 2.123483896 0.9416304231 
7.595827579 -13.24692154 2.17844367 0.9401658177 
8.463640213 -13.34703064 2.254647732 0.9381388426 
11.2643261 -13.41082954 2.498532772 0.9316810369 
12.34494877 -13.43545341 2.602949858 0.9289298058 
24.52351761 -18.63040924 4.393603802 0.8829931021 
27.01359367 -18.68712807 4.686002731 0.875710845 
33.2497406 -18.86935425 5.45402956 0.8568677306 
37.16741943 -18.95858765 5.952277184 0.8448607326 
41.79023361 -19.02371025 6.550464153 0.8306675553 
62.57825851 -18.92585945 9.326803207 0.7678521872 
91.90644073 36.04821396 14.08386898 0.6710639 
20.49788475 9.111691475 3.200133085 0.9133503437 
46.95505142 35.01683426 8.35623455 0.7892519832 
48.34609222 39.51929092 8.908130646 0.7770111561 
47.27613068 42.28905106 9.048977852 0.7739176154 
47.1447258 46.10741425 9.407487869 0.7660990357 
47.24486542 50.50853348 9.866462708 0.7562045455 
17.70999527 101.0219116 14.63154507 0.660734117 
8.671361923 102.3168716 14.64888382 0.6604107618 
4.111166954 102.5957718 14.64808846 0.6604256034 
-9.579252243 102.2135696 14.64570522 0.6604700089 
-81.50816345 -21.5165329 12.02630615 0.7113325 
-76.7195282 -23.95006752 11.46574211 0.7227160931 
-29.15127945 -12.03687954 4.499307156 0.8803535104 
-21.84693336 -12.65656757 3.601928711 0.9030153155 
-16.51287079 -12.77807617 2.978678226 0.9190969467 
-15.02162075 -12.73171806 2.809162617 0.923520267 
-12.61687946 -12.78650856 2.562650442 0.9299906492 
-11.63320255 -12.88924789 2.476967812 0.9322502017 
-9.702655792 -12.89047337 2.301679134 0.9368900061 
-9.854104042 -19.53281212 3.121076822 0.9153975248 
-9.911081314 -22.03164101 3.446426868 0.9070011973 
-9.981479645 -25.11886597 3.856015444 0.8965401649 
-2.045512676 -13.02728939 1.881246328 0.948112905 
-1.456762671 -13.04070282 1.871961355 0.9483622909 
-0.8726391196 -13.05401134 1.866444707 0.948510468 
-0.2907519341 -13.06726742 1.864638925 0.9485589266 
0.2911083996 -13.08051968 1.866530418 0.9485081434 
1.464196801 -13.10724354 1.881513 0.9481057525 
2.060200214 -13.12082005 1.894750953 0.94775033 
3.917162895 -13.16312218 1.959240317 0.9460209012 
4.568901062 -13.17797375 1.989759445 0.9452034831 
5.242626667 -13.19332027 2.025316 0.9442520738 
5.942272663 -13.20925522 2.066334724 0.9431557655 
6.672326565 -13.22589111 2.113317251 0.9419015646 
7.483617783 -13.32470703 2.180192709 0.9401192069 
9.156276703 -13.36281204 2.31093049 0.9366446137 
10.07390404 -13.38371277 2.389749289 0.9345559478 
12.12169647 -13.43036556 2.58096838 0.9295082688 
13.19721603 -13.37452602 2.680512428 0.9268913865 
18.98434067 -17.59987831 3.693110943 0.900686264 
29.32644463 -18.77997589 4.968035221 0.8687435389 
32.54325104 -18.85326576 5.365444183 0.8590200543 
36.28197861 -18.91570663 5.837197304 0.8476186991 
44.84210968 -16.22087288 6.802858353 0.8247506022 
53.29378891 12.55669403 7.811086178 0.8015325069 
92.17124176 30.58435059 13.85416985 0.6754439473 
57.28950882 31.17712402 9.304794312 0.7683304548 
51.97272491 31.35782623 8.659457207 0.7825027108 
47.38888168 31.54986 8.121743202 0.7945111394 
46.93976593 34.35983658 8.298786163 0.7905372381 
47.32949448 49.70488358 9.791368484 0.7578145862 
8.029345512 21.30343056 3.247889996 0.9121166468 
14.12060547 101.7148972 14.64983654 0.6603928804 
9.581439972 102.2367935 14.64904308 0.660407722 
0.4567431509 102.6726151 14.64745045 0.6604375243 
-4.110742092 102.5857391 14.64665508 0.6604523659 
-82.46911621 -20.98677635 12.14005089 0.7090446949 
-24.6595993 -12.57857895 3.949178934 0.8941776752 
-22.28450203 -12.64660645 3.655375242 0.9016494155 
-20.21610832 -12.69372559 3.405435085 0.9080548286 
-18.40914536 -12.73489189 3.193405151 0.9135243297 
-16.70835495 -12.69329548 2.993444681 0.9187124968 
-15.28819752 -12.72564888 2.837723732 0.9227734804 
-14.00609875 -12.75485802 2.702487946 0.926314652 
-11.83878899 -12.88457012 2.49622345 0.9317419529 
-10.841362 -12.90728951 2.40471673 0.9341598749 
-9.726291656 -13.92716789 2.423404694 0.9336655736 
-9.843964577 -19.08829117 3.063931227 0.9168803692 
-9.966083527 -24.44381332 3.76586175 0.8988324404 
-3.369152784 -12.99713802 1.915459275 0.9471946955 
-2.761518478 -13.01098633 1.897497177 0.9476766586 
-1.574033141 -13.03802967 1.873512506 0.9483205676 
-0.4070703089 -13.0646162 1.864705801 0.948557198 
0.1746020466 -13.07786369 1.865856528 0.9485262632 
1.345910668 -13.10454845 1.879332185 0.9481643438 
1.940295339 -13.11808777 1.891787648 0.9478298426 
2.54380846 -13.13183308 1.908216238 0.9473890066 
3.159128428 -13.14586163 1.928782582 0.9468372464 
5.80009985 -13.20601273 2.057672262 0.9433871508 
6.523688793 -13.22249985 2.103417635 0.9421656728 
8.129607201 -13.33942604 2.22856307 0.9388321042 
8.92508316 -13.27720642 2.282301664 0.9374043345 
9.885434151 -13.37942123 2.373183489 0.9349945188 
10.85564423 -13.40151787 2.460407734 0.9326876402 
16.16378403 -15.25478458 3.170704842 0.9141117334 
25.3113327 -21.84290886 4.769584179 0.8736401796 
23.61160088 -18.60964394 4.288898945 0.8856155276 
25.9787159 -18.66355896 4.563397884 0.878757 
18.90040398 -12.34197235 3.220299006 0.9128287435 
31.78847122 -18.79590225 5.268369198 0.8613848686 
35.51731873 -18.92101097 5.741055012 0.8499301672 
45.21372986 -19.14185905 7.004449844 0.8200551867 
45.22560883 -16.81611252 6.883464813 0.8228698373 
58.49253845 -18.83278275 8.766405106 0.7801360488 
58.47311401 31.15016365 9.451651573 0.7651414871 
48.0220108 41.44158554 9.049114227 0.7739145756 
47.10719299 44.45796204 9.240599632 0.7697288394 
47.30987549 53.36491394 10.17402172 0.7496460676 
17.46252823 90.14648438 13.09930897 0.6900386214 
10.36601543 100.9296036 14.47454548 0.66368258 
-6.975380898 92.03379822 13.16721439 0.6887141466 
-12.30422306 101.9180832 14.64523411 0.6604789495 
-16.75812912 100.863121 14.58641338 0.661580205 
-77.74300385 -30.49296761 11.91345882 0.7136096954 
-29.44890976 -13.09059048 4.597558975 0.8779070377 
-25.21410561 -12.57986832 4.019893646 0.8923887014 
-20.60700607 -12.68482399 3.452122688 0.9068548679 
-14.34031677 -12.82757759 2.744834423 0.9252043366 
-13.14408207 -12.8548336 2.622829437 0.9284068942 
-11.03503418 -12.9028759 2.422101498 0.9337000847 
-10.09341812 -12.92432117 2.339431763 0.9358887672 
-9.752604485 -15.08134747 2.562172174 0.9300032258 
-9.79013443 -16.72708511 2.764967203 0.9246768951 
