# .PCD v0.7 - Point Cloud Data file format
VERSION 0.7
FIELDS x y z intensities
SIZE 4 4 4 4
TYPE F F F F
COUNT 1 1 1 1
WIDTH 920
HEIGHT 1
VIEWPOINT 0 0 0 1 0 0 0
POINTS 920
DATA ascii
30.83385468 37.37978745 -1.994591594 0.8236679435 
11.83221912 15.71970081 -0.8098900914 0.9242551327 
10.76031494 15.7035923 -0.7836119533 0.9266212583 
10.86997795 17.4839859 -0.8474475145 0.9208852649 
9.093834877 16.191576 -0.7644217014 0.9283512831 
8.257856369 16.36869812 -0.754674077 0.9292317629 
8.110747337 18.02980232 -0.8137981296 0.9239036441 
14.4679842 41.73009109 -1.818056107 0.8379325867 
6.480839729 21.77799988 -0.9353036284 0.9130502343 
5.575390339 35.50900269 -1.479566574 0.8659761548 
2.944882631 44.05553436 -1.817509413 0.8379766941 
0.9826074243 44.15351868 -1.817943811 0.8379411697 
-0.9829223156 44.16612244 -1.818466306 0.8378988504 
-2.22802496 33.33144379 -1.375086546 0.87482059 
-10.72718525 42.95253754 -1.822363734 0.8375810981 
-13.46613979 33.88819122 -1.501036525 0.864169538 
-18.2085762 40.47589493 -1.826937556 0.8372083306 
-9.988088608 19.79837608 -0.9127964377 0.915050745 
-10.07586861 17.94007492 -0.8469688296 0.9209279418 
-10.37661076 16.69041252 -0.8089798689 0.9243366718 
-12.95939159 17.21722794 -0.887039721 0.9173457623 
-13.97901058 16.94670677 -0.9042816758 0.9158090949 
-23.38122177 16.48391724 -1.177578926 0.8917871714 
-23.14594841 14.82225323 -1.131371498 0.8958039284 
-23.16908455 10.79693604 -1.052181482 0.9027299881 
-24.18728638 7.550573349 -1.043005705 0.9035357833 
-29.09835052 7.681379318 -1.23880744 0.88649261 
-35.54793549 7.710280418 -1.497286081 0.864485085 
-44.55068207 7.605968952 -1.860374689 0.8344902396 
-48.54199219 6.079489708 -2.013738394 0.8221350908 
-14.68578339 0.522985816 -0.6048941016 0.9428669214 
-14.71155453 -0.7863402963 -0.6064369082 0.9427254796 
-41.97866058 -7.938415527 -1.758590937 0.8427917361 
-42.21737289 -16.1269207 -1.860267282 0.8344987035 
-25.71119881 -12.54343987 -1.177586079 0.8917870522 
-24.25576782 -13.20007515 -1.136710763 0.8953386545 
-18.22150993 -13.33813667 -0.9295252562 0.9135630131 
-16.66140747 -13.3738203 -0.8794486523 0.9180235863 
-14.51641369 -12.75444508 -0.7954148054 0.9255566597 
-13.46158409 -12.93291187 -0.7684096098 0.9279910922 
-13.09822464 -13.7556076 -0.7818609476 0.9267780185 
-10.31359577 -15.64173031 -0.7712282538 0.927736938 
-10.35224819 -17.33192635 -0.8310095668 0.9223585129 
-10.39749527 -19.31001663 -0.9027628899 0.9159442782 
-2.582209349 -13.99620342 -0.5858495831 0.9446150064 
-1.945109844 -14.0107832 -0.5822584629 0.9449449778 
-0.6878051758 -14.03955269 -0.5786046982 0.9452808499 
-0.05821044743 -13.08521461 -0.5386325121 0.9489628077 
0.5248193145 -13.09855461 -0.5396096706 0.9488726854 
1.141198754 -13.46542168 -0.5562663078 0.9473368526 
2.99292469 -13.50779057 -0.569506526 0.9461175799 
4.970878601 -13.55303955 -0.5942266583 0.9438458681 
5.673696041 -13.56912327 -0.6054099798 0.9428198934 
6.404811859 -13.5858469 -0.6182664633 0.941641748 
8.821364403 -13.64114475 -0.668689549 0.9370349646 
12.5086956 -13.372756 -0.7537437081 0.929315865 
39.13137054 -21.74887848 -1.842835665 0.835915029 
40.09069061 -20.0021019 -1.844257116 0.8358003497 
40.83668137 -18.15245247 -1.839556813 0.836181879 
41.59949112 -16.31647682 -1.839368582 0.8361968994 
39.87950516 -13.62791729 -1.73477006 0.8447473049 
47.79900742 -7.28734827 -1.990289211 0.8240129352 
47.75381851 -5.119540691 -1.976956248 0.8250819445 
48.25516129 -3.0100317 -1.990194321 0.8240207434 
44.10003662 7.125835896 -1.838841319 0.8362401128 
43.70597076 9.073373795 -1.837433577 0.8363545537 
43.25910187 11.00917912 -1.83743453 0.8363540769 
36.19997025 12.73164272 -1.579580784 0.8575940728 
31.94044876 20.05526543 -1.552461982 0.8598589301 
39.21324539 27.12660789 -1.962718368 0.8262252808 
20.29169464 15.41541481 -1.048963904 0.9030126929 
35.80445099 32.60551453 -1.99336648 0.8237665892 
20.46917915 24.36974525 -1.310010791 0.8803722858 
11.00535488 15.75866222 -0.7912023664 0.9259363413 
10.86290359 17.13078499 -0.8349783421 0.9220025539 
9.281823158 16.18727684 -0.7680873871 0.9280204177 
8.358710289 16.2083931 -0.7506846189 0.9295925498 
8.113351822 17.61461449 -0.7982886434 0.9252983928 
5.656728268 21.82151604 -0.9279303551 0.9137049913 
1.375363708 44.1407547 -1.817849874 0.8379487991 
-4.516564846 43.97393036 -1.819625854 0.8378041983 
-6.470729828 43.74790573 -1.820389628 0.8377418518 
-17.84486008 40.63066483 -1.826679945 0.8372294903 
-19.64888382 39.82516861 -1.827996135 0.8371225595 
-10.06920624 18.30817986 -0.8600785732 0.9197543859 
-10.1797533 16.70340538 -0.8051890135 0.9246776104 
-10.98835659 16.34674454 -0.810777247 0.9241752625 
-12.92249203 17.48992348 -0.8951316476 0.916624248 
-13.73110104 16.95148659 -0.8979755044 0.9163709283 
-23.10528946 16.59907913 -1.171073794 0.8923515677 
-23.45513916 12.49515343 -1.093936801 0.8990710974 
-23.35309219 9.88696003 -1.043884873 0.9034585357 
-39.33818436 -7.076877117 -2.011453867 0.8520747423 
-36.09249115 -9.87207222 -1.883046269 0.8608263731 
-35.14414215 -11.31537819 -1.858019471 0.8625429869 
-34.60343933 -12.86656475 -1.85788238 0.862552464 
-34.02114487 -14.40337658 -1.859214902 0.8624613285 
-26.18548012 -12.48744869 -1.459937096 0.8903066516 
-18.55540657 -13.33049488 -1.149782658 0.9125564098 
-13.53604221 -12.77479267 -0.9366590381 0.9281669855 
-10.50270748 -23.91334152 -1.314379811 0.9006806016 
-12.37752151 -31.97496223 -1.725482941 0.8716897368 
-0.8129028082 -14.03668213 -0.7075710893 0.9452441931 
0.4080615044 -13.09588814 -0.6593647599 0.9488777518 
1.020371079 -13.46265316 -0.6794434786 0.9473625422 
2.241447687 -13.49058819 -0.6882136464 0.9467015862 
4.159145355 -13.53446484 -0.7125515342 0.9448698759 
5.530959129 -13.56585693 -0.7372581959 0.9430137873 
6.256093502 -13.58245373 -0.7525529861 0.9418665767 
7.808576584 -13.61797047 -0.7899866104 0.9390646815 
10.48842049 -13.6792841 -0.8674677014 0.9332920909 
11.50944519 -13.70263863 -0.9005551934 0.9308376312 
12.28261471 -13.36758232 -0.9135748148 0.9298737049 
17.66263962 -17.58421135 -1.254255652 0.9050006866 
31.55395699 -23.97038269 -1.994187832 0.8532478809 
32.58493423 -22.54102325 -1.993942857 0.8532631993 
36.04624557 -16.40891838 -1.993125081 0.8533189297 
36.73754501 -14.7880249 -1.992963195 0.8533297777 
37.3562851 -13.13820553 -1.992814541 0.8533396125 
37.90115356 -11.46267033 -1.992679 0.8533488512 
38.37135696 -9.764780045 -1.992570639 0.8533565402 
38.76612473 -8.047873497 -1.992482066 0.8533622622 
39.08437347 -6.315217018 -1.99241209 0.853366971 
39.32559967 -4.570271015 -1.992360473 0.8533704877 
39.58321381 0.7044751048 -1.992320061 0.8533731699 
39.13979721 5.967253208 -1.992450714 0.8533643484 
38.83729553 7.702768326 -1.992536545 0.8533584476 
38.45802307 9.423215866 -1.992635608 0.8533520699 
37.47304916 12.80567551 -1.992887378 0.8533349037 
35.44425583 17.68387413 -1.993398428 0.8533003926 
33.73947144 20.76864052 -1.993824005 0.8532713056 
32.78607941 22.25154305 -1.994060874 0.8532553315 
30.68665695 25.08403778 -1.994581461 0.8532199264 
20.4206543 21.83126831 -1.504365563 0.8871648908 
11.16047382 15.68163013 -0.9686242342 0.9258085489 
9.42544651 16.10393715 -0.9390311241 0.9279918671 
8.554594994 16.23184776 -0.9233580828 0.9291496873 
7.96609354 19.05175209 -1.039205313 0.9206226468 
12.49124336 34.05718231 -1.825554252 0.864774704 
6.911884785 21.79944229 -1.150870681 0.9124776721 
5.852395058 21.77676392 -1.134789109 0.913646102 
5.376262188 24.26488495 -1.25073266 0.9052544832 
4.66751194 35.96836472 -1.825267553 0.8647944927 
3.063386202 36.14652252 -1.825574279 0.8647731543 
-0.1615063399 36.29025269 -1.826305747 0.8647229075 
-4.994729042 35.9780159 -1.827942252 0.8646105528 
-8.179122925 35.41958237 -1.829381704 0.8645114303 
-9.499054909 34.13116074 -1.782917261 0.8677143455 
-10.05108166 18.66665268 -1.066912413 0.9185949564 
-12.80357647 17.65564156 -1.097551823 0.9163578749 
-13.19776535 16.5927124 -1.066946387 0.9185922742 
-14.47070503 16.61837578 -1.108936191 0.9155279994 
-22.93389893 24.08485031 -1.67364943 0.8752923608 
-22.97983551 22.07750702 -1.603675246 0.8801805377 
-23.0614624 18.51111603 -1.488186359 0.8883078098 
-23.09815598 16.90773582 -1.440539837 0.8916823864 
-23.13264847 15.40098381 -1.398539186 0.8946680427 
-23.18588066 10.06037331 -1.271921992 0.9037291408 
-28.43650627 10.86255074 -1.531903625 0.8852223158 
-22.99511909 7.630265713 -1.219259024 0.9075245261 
-39.56722641 5.672551155 -2.011557102 0.8520675302 
-39.78133011 3.906926155 -2.01160264 0.8520643711 
-14.67863464 0.1306371987 -0.7387242913 0.9429036379 
-36.44132996 -4.564108849 -1.848215103 0.8632162213 
-34.71712875 -12.55831242 -1.857911229 0.8625504375 
-25.27419662 -13.17676926 -1.434390187 0.89211905 
-22.84091568 -13.23245335 -1.328417897 0.8996748328 
-20.73861122 -13.28053951 -1.239315271 0.9060774446 
-15.80237484 -13.39347839 -1.042457223 0.9203844666 
-12.42902088 -13.77091026 -0.9335398674 0.9283971786 
-10.26779747 -13.64126205 -0.8592252731 0.9339043498 
-10.29958916 -15.03133011 -0.9169875979 0.9296211004 
-12.7029171 -31.96751595 -1.731110334 0.8712992072 
-3.86802721 -12.99804401 -0.6824687123 0.9471345544 
-2.706660032 -13.33568096 -0.6847935319 0.9469592571 
-0.9381249547 -14.03381062 -0.7078213096 0.9452255368 
-0.2909985185 -13.07702351 -0.6582565308 0.9489613175 
0.2913647294 -13.09321499 -0.6590722799 0.9488997459 
2.740422249 -13.50200939 -0.6933349371 0.9463157654 
3.375739574 -13.5165453 -0.7011053562 0.9457307458 
4.026772499 -13.53143787 -0.7104760408 0.9450258613 
7.646259785 -13.61425972 -0.7857936025 0.939378202 
8.47594738 -13.63324451 -0.8078739643 0.937729001 
10.29305363 -13.67481136 -0.8613418341 0.9337472916 
11.29902554 -13.69782925 -0.8935940862 0.9313533902 
29.06839561 -26.94862556 -1.99478054 0.8532060981 
31.33997726 -24.25172043 -1.994238853 0.8532431722 
32.38378906 -22.83030891 -1.993990541 0.8532607555 
34.27703476 -19.85771179 -1.993541837 0.8532904387 
35.12298584 -18.31145287 -1.99334228 0.8533038497 
37.23836517 -13.47028542 -1.992843747 0.8533378839 
37.79810333 -11.79966259 -1.992703557 0.8533471823 
38.6933136 -8.392645836 -1.992498279 0.8533610106 
39.02680969 -6.662819862 -1.992424607 0.853366375 
39.56417465 -1.409396887 -1.992315531 0.8533738852 
39.5333519 2.11302495 -1.992338777 0.8533721566 
37.5850029 12.47151089 -1.992859006 0.8533367515 
36.99581909 14.13211441 -1.993008256 0.8533265591 
35.59955597 17.36741638 -1.993359447 0.853302896 
28.58864975 27.46609879 -1.995099902 0.8531847 
11.38554859 15.70024776 -0.9759963751 0.9252657294 
10.83081055 18.13294983 -1.062921047 0.9188868999 
8.555188179 15.88851738 -0.9081249833 0.9302769899 
5.358571529 23.20525169 -1.198522329 0.9090235829 
-1.368820786 34.16065598 -1.72049737 0.8720353246 
-2.894440889 34.1529541 -1.724889636 0.8717304468 
-4.674050331 36.01858902 -1.827813387 0.8646190763 
-6.264230728 35.73271942 -1.825654268 0.8647677898 
-7.862917423 35.48799896 -1.829225421 0.8645219803 
-10.99608612 34.68057632 -1.830905676 0.8644061685 
-10.03342247 19.0378437 -1.082979083 0.9174209833 
-9.946691513 16.99447441 -0.9909556508 0.9241646528 
-10.58821011 16.37343025 -0.981262207 0.9248779416 
-12.78384972 17.96264839 -1.109516978 0.9154854417 
-12.99077892 16.63423538 -1.062142611 0.9189437628 
-14.1727562 16.57172012 -1.097362399 0.9163717031 
-24.99339104 26.71990967 -1.841227531 0.8636963367 
-22.97095871 22.46548462 -1.616945863 0.8792515397 
-23.01396751 20.58629036 -1.553908706 0.8836736679 
-23.05382919 18.8447628 -1.498452425 0.8875820637 
-19.78707695 14.75627136 -1.242179036 0.9058704376 
-23.12590981 15.69530487 -1.406521916 0.8940999508 
-23.88394165 13.27458191 -1.375116229 0.8963373303 
-24.96373177 9.791438103 -1.349465013 0.8981691003 
-39.74479675 4.260773659 -2.011595011 0.8520650268 
-14.66303444 0.9146508574 -0.7393420339 0.9428571463 
-14.68890858 -0.3922729492 -0.7394744158 0.9428472519 
-39.13432693 -8.124323845 -2.011400461 0.8520779014 
-38.73219299 -9.85662365 -2.011296272 0.8520849347 
-35.34090042 -10.68836689 -1.858069539 0.862539649 
-34.82796097 -12.24901104 -1.857939243 0.8625487685 
-25.7243576 -13.12163258 -1.453254342 0.8907808065 
-23.29846382 -13.2219696 -1.348131895 0.8982644677 
-21.1362915 -13.27144718 -1.255972028 0.9048771262 
-19.24728203 -13.31466484 -1.177782178 0.9105252028 
-16.08283806 -13.38706779 -1.053056836 0.9196083546 
-13.77874279 -12.54776573 -0.9378463626 0.9280791283 
-12.84759998 -12.79053974 -0.9123311639 0.9299657345 
-10.78469944 -12.83982658 -0.8438489437 0.9350479245 
-10.29289246 -14.73849773 -0.9046744108 0.9305323958 
-10.32833004 -16.28765869 -0.9705724716 0.9256649613 
-10.36940193 -18.08403969 -1.049065471 0.9199005961 
-10.41781998 -20.20109177 -1.143835187 0.9129887223 
-10.54745293 -25.86992836 -1.405937433 0.8941414356 
-3.372011662 -13.00803947 -0.6762616038 0.9476026893 
-2.229919434 -13.42124939 -0.684677422 0.9469681382 
-1.063442349 -14.03094959 -0.7081266642 0.945202589 
-0.4376293719 -14.04526615 -0.7071636915 0.9452749491 
0.7793456912 -13.45713139 -0.6783590317 0.9474444389 
1.383544922 -13.47095871 -0.6814857125 0.9472087026 
1.994555593 -13.48493385 -0.6860066056 0.9468680024 
3.247521877 -13.51361561 -0.6994256377 0.9458571076 
6.706335068 -13.59274673 -0.7627751231 0.9411007166 
17.03084755 -17.56975365 -1.231406689 0.9066479802 
28.82816505 -27.20697403 -1.99483788 0.8532025814 
34.95927811 -18.62367821 -1.993380904 0.8533012867 
37.69212723 -12.13579559 -1.992729425 0.8533452749 
38.61727905 -8.736691475 -1.992515326 0.8533603549 
38.96623611 -7.00994873 -1.99243784 0.8533654213 
39.43313599 -3.518718243 -1.992338657 0.8533720374 
39.55025864 -1.761208415 -1.992317438 0.8533732891 
39.55051804 1.76114738 -1.992332816 0.853372395 
38.96744919 7.010168076 -1.992500067 0.8533611894 
12.02463627 3.289001465 -0.6273623705 0.9512975216 
36.47180939 15.44091606 -1.99314034 0.8533176184 
32.18288422 23.12065887 -1.99421072 0.8532447815 
30.00861168 25.89651489 -1.994749308 0.8532084227 
20.36824608 19.22275543 -1.409419656 0.8938933015 
27.59647942 28.46985817 -1.995344639 0.8531674147 
26.30678558 29.67378044 -1.995662332 0.8531466126 
23.06467056 28.47404671 -1.84406352 0.8635014296 
11.52266788 15.59535694 -0.9758157134 0.9252792597 
8.731506348 15.87587166 -0.9118096232 0.9300043583 
8.10817337 18.46125221 -1.014711261 0.92241925 
13.09733105 33.83444214 -1.825826645 0.8647562861 
6.273825645 21.78993797 -1.141117096 0.9131863117 
5.373278618 22.35932732 -1.157256842 0.912013948 
5.30659914 35.87734222 -1.825148582 0.8648023605 
2.095100164 36.17673492 -1.823625565 0.8649073839 
0.4844091833 36.28403854 -1.826136231 0.8647344708 
-1.130432129 36.27846527 -1.826581836 0.8647040129 
-5.954741001 35.83987045 -1.828345299 0.8645823598 
-10.68590546 34.77359009 -1.830726027 0.8644188046 
-12.22835159 34.28115463 -1.831650376 0.8643550873 
-13.74864006 33.7213974 -1.832637548 0.8642871976 
-15.24376202 33.09530258 -1.833685875 0.8642153144 
-9.914809227 17.29121208 -1.003073573 0.9232738614 
-10.53071499 16.60678864 -0.989592731 0.924265027 
-24.75144196 26.93785858 -1.840997696 0.8637124896 
-22.96193123 22.86000633 -1.6305691 0.8782988787 
-23.04608536 19.18308258 -1.50898993 0.8868383169 
-23.11909294 15.99302959 -1.414707899 0.8935176134 
-23.3705101 13.26283455 -1.352296114 0.8979665637 
-23.1459198 11.80641365 -1.3075912 0.9011674523 
-22.92487526 8.062644005 -1.2229532 0.9072579741 
-36.1562767 7.506037235 -1.858335495 0.862521112 
-39.70520782 4.61433363 -2.011586666 0.8520653248 
-14.67345905 0.3918627799 -0.7386979461 0.9429056644 
-14.69911385 -0.9169262648 -0.7411613464 0.9427206516 
-39.74421692 -4.260788441 -2.011563063 0.8520669341 
-39.20544052 -7.775827408 -2.011419058 0.8520766497 
-38.81878662 -9.511628151 -2.011318684 0.8520835042 
-35.43505478 -10.37351799 -1.858093619 0.8625381589 
-34.93630981 -11.93877125 -1.857966781 0.8625462055 
-25.7177124 -12.83113956 -1.44636786 0.891268909 
-23.76978302 -13.21118832 -1.36854732 0.8968062401 
-21.54479599 -13.26210213 -1.273175359 0.9036385417 
-19.60610008 -13.30645275 -1.192446589 0.909463346 
-17.89546585 -13.34558773 -1.123431563 0.9144721627 
-16.3690834 -13.3805151 -1.063962102 0.9188107252 
-13.07302475 -12.78538799 -0.9202238917 0.9293817282 
-11.00620365 -12.86923599 -0.8521851897 0.9344277978 
-10.25617123 -13.1326704 -0.8385550976 0.9354417324 
-10.28637409 -14.45343971 -0.8927607536 0.931415081 
-10.32082939 -15.95996284 -0.9564819932 0.9267036319 
-2.349389553 -13.40146923 -0.6847063899 0.9469658732 
-1.818520427 -14.01367378 -0.7111439109 0.9449755549 
-1.188876867 -14.02807808 -0.7084860206 0.9451754093 
-0.5626684427 -14.04240417 -0.7072440982 0.945268929 
1.262248516 -13.46818542 -0.6807501316 0.9472641349 
2.490004778 -13.49628162 -0.6906577945 0.9465175867 
4.426289082 -13.54057789 -0.7169075608 0.9445422888 
5.817472935 -13.57240963 -0.7431232929 0.942573607 
8.997133255 -13.64516354 -0.8225224614 0.9366362691 
9.910392761 -13.66605663 -0.849542737 0.9346244335 
10.88768768 -13.6884203 -0.8801954389 0.9323469996 
11.62696552 -13.35258007 -0.891010046 0.9315449595 
14.87276077 -15.61915207 -1.085375309 0.9172464013 
29.77494812 -26.16075897 -1.994611979 0.8532176614 
18.4841938 -12.30620289 -1.117509961 0.9149036407 
33.91959 -20.46553421 -1.993626356 0.8532847166 
34.79283905 -18.93436241 -1.993420005 0.8532987833 
36.33148956 -15.76425457 -1.993058085 0.8533230424 
39.19003677 -5.618654728 -1.992389321 0.8533688188 
39.40035248 -3.869553089 -1.992345214 0.8533716798 
39.53303146 -2.113000393 -1.992320061 0.8533732295 
39.58761978 -0.3525634706 -1.992314458 0.8533741832 
39.56451416 1.409082055 -1.992327809 0.8533728123 
38.6946907 8.392902374 -1.992574215 0.8533562422 
12.13626194 3.203732729 -0.6316736937 0.9509711266 
37.24033737 13.47103977 -1.992946386 0.8533306718 
20.19356346 10.52795506 -1.146048903 0.9128277898 
34.27954865 19.85915947 -1.993689418 0.8532805443 
33.36606598 21.36684608 -1.993916869 0.8532649279 
29.0713501 26.95137405 -1.994980693 0.8531923294 
26.56911087 29.43763161 -1.995597839 0.8531504273 
11.7996397 15.6763525 -0.9874134064 0.9244254231 
10.7526865 15.69252872 -0.9573073387 0.9266415834 
10.82545662 17.41238213 -1.031813979 0.9211645126 
13.39900875 33.71919632 -1.825966597 0.8647463322 
6.476183891 21.76234818 -1.142647386 0.9130752087 
5.457773209 21.85298729 -1.133519888 0.9137384892 
6.796611309 33.48701096 -1.71957612 0.8720992208 
5.625480652 35.82752991 -1.825093627 0.8648064733 
4.026862621 36.04840851 -1.825398207 0.8647851944 
0.8072436452 36.27661514 -1.826055884 0.8647403121 
-0.8074584603 36.28521347 -1.826486945 0.8647105098 
-2.421423197 36.22339249 -1.826990008 0.8646757603 
-5.63515377 35.8886528 -1.828208327 0.8645921946 
-10.37503624 34.86395264 -1.830548644 0.8644309044 
-14.94690132 33.22589111 -1.833471298 0.8642296195 
-9.828026772 19.4811058 -1.098068476 0.9163199663 
-10.07095909 17.93152618 -1.03497386 0.920932591 
-11.22482681 16.38159943 -0.9993584752 0.9235467315 
-19.65639877 21.77858543 -1.476382971 0.8891423345 
-23.14935303 23.46044159 -1.658635497 0.8763390779 
-23.7788105 20.15397644 -1.568646789 0.8826375008 
-19.77744293 15.30429363 -1.258482218 0.9046962261 
-23.14590073 14.82206726 -1.38316834 0.8957631588 
-23.17780495 13.42755604 -1.348006725 0.8982731104 
-23.14002228 12.06408882 -1.313268065 0.9007601738 
-36.45843124 6.22432375 -1.861294031 0.8623181581 
-39.66238022 4.967482567 -2.011577606 0.8520659804 
-14.67086124 0.5224926472 -0.7387714982 0.9429000616 
-14.68377686 -0.1306762695 -0.738982439 0.9428842068 
-14.87957287 -1.461364746 -0.752409935 0.9418772459 
-39.56634903 -5.672507286 -2.011514425 0.85207057 
-35.52654648 -10.05796146 -1.858116984 0.8625360131 
-24.25564194 -13.20007515 -1.389701843 0.8952976465 
-21.96467972 -13.25249195 -1.29096961 0.9023599029 
-18.22159386 -13.33812714 -1.136411309 0.913528204 
-16.66132927 -13.37383556 -1.075177431 0.9179909229 
-14.51647663 -12.75443554 -0.9724536538 0.9255265594 
-13.30250168 -12.78013897 -0.9283314943 0.9287821651 
-12.84807873 -13.4928484 -0.9376167655 0.928096056 
-10.28002453 -14.17576885 -0.8812251091 0.9322705865 
-10.39744377 -19.30992317 -1.103676081 0.9159110188 
-10.45134544 -21.6672039 -1.210615873 0.9081494212 
-12.05942154 -31.99623299 -1.720764637 0.8720167279 
-11.45226765 -35.03422928 -1.85488534 0.8627582788 
-1.945080519 -14.01077843 -0.7118473649 0.944922626 
0.5248803496 -13.09855938 -0.6597067118 0.9488518238 
1.141203642 -13.46541214 -0.6800700426 0.9473154545 
2.365512609 -13.49343491 -0.6894070506 0.9466118217 
2.992863655 -13.5077858 -0.6962580681 0.946095705 
3.634089231 -13.52245331 -0.7046560645 0.9454635382 
4.292292595 -13.53751183 -0.7146927714 0.9447087049 
5.673659325 -13.56912327 -0.7401483655 0.9427967072 
6.404843807 -13.58585167 -0.7558695674 0.9416179657 
7.16932106 -13.60333729 -0.7738360167 0.9402725101 
7.972648621 -13.62172604 -0.794289887 0.9387431741 
8.821323395 -13.64114475 -0.8175153732 0.937009573 
10.68660164 -13.68382072 -0.873749733 0.9328254461 
11.53406429 -13.48642826 -0.893056035 0.9313933253 
17.98748779 -17.59164238 -1.266156912 0.9041440487 
29.54178429 -26.42546082 -1.994667411 0.8532137871 
31.76509857 -23.68875122 -1.994137645 0.8532501459 
35.44197464 -17.68276978 -1.993267059 0.8533090353 
36.86711121 -14.46021652 -1.992932796 0.8533319831 
37.4711647 -12.80501461 -1.992785573 0.8533416986 
38.83584213 -7.702495098 -1.992466569 0.8533635139 
39.1387558 -5.967116356 -1.992400289 0.8533679247 
39.57548141 1.056975126 -1.992323399 0.8533728123 
39.4897728 2.816342592 -1.992352247 0.8533711433 
39.3262558 4.570310116 -1.992399454 0.8533682227 
38.76756668 8.048161507 -1.992555141 0.8533571959 
19.9571991 9.084891319 -1.103501201 0.9159240127 
33.4330864 17.05374908 -1.888748884 0.8604366183 
34.4541893 19.55286598 -1.993645787 0.8532834649 
29.30913734 26.69078064 -1.994922042 0.8531965017 
28.09699631 27.97227287 -1.995221257 0.853176415 
20.46917152 24.36974716 -1.601608038 0.880325377 
12.02360344 15.6814909 -0.9944368601 0.9239088297 
9.27449894 16.17455101 -0.9382922649 0.9280459881 
8.09453392 17.57385254 -0.9737009406 0.9254347682 
5.397219181 25.42888451 -1.308202624 0.9011234641 
4.347331524 36.00974655 -1.82533133 0.864790082 
2.741640568 36.17345428 -1.82563436 0.8647693396 
-2.098850012 36.24131775 -1.826883793 0.8646833301 
-3.710051298 36.12321091 -1.8274436 0.864644587 
-13.14340019 33.95334625 -1.832235217 0.8643147349 
-14.64888859 33.35361099 -1.833259344 0.8642446399 
-16.12765884 32.68838501 -1.834343314 0.8641697168 
-10.06284142 18.29652023 -1.050835967 0.9197711349 
-10.15929413 16.66990471 -0.9824194908 0.924792707 
-10.99622822 16.35837173 -0.9919309616 0.9240928292 
-12.79201889 17.3133316 -1.083307266 0.9173972607 
-23.34264755 20.14399147 -1.551644921 0.8838329911 
-23.10522079 16.59917641 -1.431715965 0.8923090696 
-23.13930893 15.10988998 -1.3907547 0.8952224851 
-23.45508575 12.49505615 -1.337402344 0.8990314007 
-23.16331673 11.04618835 -1.291442871 0.9023259878 
-34.55197525 12.84743404 -1.85512197 0.8627421856 
-23.2074585 7.472121239 -1.226942301 0.9069697261 
-27.84553909 7.616349697 -1.452782393 0.8908140063 
-34.81010818 7.875309944 -1.796071172 0.8668060899 
-39.8146286 3.552746534 -2.011609316 0.8520640135 
-14.66825867 0.653137207 -0.7389047146 0.9428901672 
-14.68120861 -2.441406195e-06 -0.7388243079 0.9428961277 
-14.6940155 -0.6542944312 -0.7402008772 0.9427927732 
-14.70673084 -1.312307119 -0.7430480719 0.9425791502 
-39.61555862 -5.320119381 -2.011527777 0.8520695567 
-39.33816528 -7.076926231 -2.011453867 0.8520748019 
-35.14414215 -11.31539726 -1.858019471 0.8625429869 
-26.18549919 -12.48744869 -1.459938288 0.890306592 
-18.55537796 -13.3305006 -1.149781346 0.9125564694 
-12.5844698 -12.98267269 -0.9099122286 0.9301447272 
-11.39751148 -12.85625744 -0.8646238446 0.9335031509 
-10.40763664 -12.84845448 -0.8321018219 0.935921967 
-10.30647659 -15.33226776 -0.929712832 0.9286801219 
-10.50270748 -23.91332245 -1.314379573 0.9006806612 
-3.743239641 -13.00090027 -0.6808415055 0.9472571611 
-2.587751389 -13.35866928 -0.684764564 0.9469614625 
-1.440165997 -14.02232647 -0.7093798518 0.9451083541 
-0.174660638 -13.08255386 -0.6584304571 0.9489481449 
2.241457462 -13.49058819 -0.6882136464 0.9467015862 
2.866384268 -13.50488949 -0.6947678924 0.9462080598 
4.833359241 -13.54989433 -0.7239742875 0.9440110922 
8.64761734 -13.63716984 -0.8126332164 0.9373736978 
11.50943565 -13.70264339 -0.9005550146 0.9308376312 
12.28259754 -13.36758041 -0.9135743976 0.9298737645 
17.66260147 -17.58420563 -1.254254222 0.9050008059 
30.46021652 -25.35445023 -1.994448304 0.8532288671 
32.58494186 -22.54102325 -1.993942857 0.8532631993 
33.55148697 -21.06692123 -1.993713617 0.8532786965 
35.28380203 -17.99776649 -1.993304253 0.8533067703 
36.73757172 -14.78796577 -1.992963195 0.8533297777 
37.90116119 -11.46264648 -1.992679 0.8533488512 
38.37136078 -9.764770508 -1.992570639 0.8533565402 
39.08437347 -6.315217018 -1.99241209 0.853366971 
39.48922729 -2.816572189 -1.992327809 0.8533729911 
39.57514191 -1.057268023 -1.992314458 0.8533739448 
39.51317596 2.46481204 -1.992345095 0.853371501 
11.94950199 3.498195648 -0.6265925169 0.9513558149 
37.47306061 12.80565929 -1.992887378 0.8533348441 
35.04311371 13.74487305 -1.894328713 0.8600543737 
36.19246674 16.08822441 -1.993210673 0.85331285 
34.626091 19.24510002 -1.993602872 0.8532863259 
32.78607941 22.25154305 -1.994060874 0.8532553315 
31.7678566 23.69095612 -1.994313598 0.8532381058 
30.68667221 25.08403778 -1.994581461 0.8532198668 
25.77617455 30.13929939 -1.995792985 0.8531376719 
10.76609612 16.64850616 -0.9977480173 0.9236652851 
9.425466537 16.10394096 -0.9390314817 0.9279918075 
8.554606438 16.23184967 -0.9233601689 0.9291496873 
8.076046944 17.13085747 -0.9530995488 0.9269531965 
12.49119949 34.05709839 -1.825554252 0.8647750616 
6.911874771 21.79944038 -1.150870204 0.9124776721 
5.852385044 21.77676392 -1.134788871 0.913646102 
5.875866413 33.51738358 -1.712469935 0.8725927472 
3.063425303 36.14651871 -1.825574279 0.8647731543 
1.452736735 36.25349808 -1.825903773 0.8647506833 
-1.776074171 36.25660324 -1.8267802 0.864690125 
-3.383747578 36.10559082 -1.824956059 0.8648157716 
-9.499067307 34.13105774 -1.782911897 0.8677146435 
-12.83933353 34.06528091 -1.832037807 0.8643283844 
-15.83417225 32.82658005 -1.834121943 0.864185214 
-10.05108166 18.66665268 -1.066912413 0.9185949564 
-10.07995319 16.87586212 -0.9892320633 0.9242914915 
-10.79822445 16.37672615 -0.9871800542 0.9244424701 
-12.80357647 17.65566063 -1.097552776 0.9163578153 
-14.47063732 16.6183567 -1.108931661 0.9155282378 
-22.93389893 24.08494377 -1.673652887 0.8752921224 
-22.97984123 22.07755661 -1.603677034 0.8801803589 
-23.02217484 20.22756958 -1.542241812 0.8844944835 
-23.09815598 16.90769196 -1.440538883 0.891682446 
-23.13264847 15.40092468 -1.398537755 0.8946681619 
-23.16523552 13.97676945 -1.3615309 0.8973069191 
-24.41504669 13.28673077 -1.398832321 0.8946473002 
-23.18588066 10.060359 -1.271921515 0.9037291408 
-28.43651581 10.86253643 -1.531903863 0.8852222562 
-26.67584229 7.552194595 -1.395208716 0.8949052095 
-36.28462219 6.861481667 -1.858364224 0.8625193834 
-39.56723404 5.672595024 -2.011557102 0.8520675302 
-14.69146252 -0.523249507 -0.7398071289 0.9428222179 
-39.39997101 -6.726643085 -2.011470318 0.852073431 
-39.05996704 -8.472248077 -2.011381149 0.8520796299 
-34.71715164 -12.55833244 -1.857911229 0.8625503182 
-34.14832687 -14.10020733 -1.859231234 0.8624599576 
-26.7681179 -12.47411823 -1.486180186 0.8884496689 
-25.27419662 -13.17676926 -1.434390187 0.89211905 
-17.26489067 -13.36002159 -1.09860301 0.9162810445 
-15.80242443 -13.39348316 -1.042459488 0.9203842878 
-13.66615486 -12.6695137 -0.9378185868 0.9280810952 
-12.63056374 -12.80037308 -0.9049746394 0.9305102229 
-12.42896748 -13.77091026 -0.9335377812 0.9283972979 
-10.59479713 -12.84417248 -0.8379032016 0.935490489 
-10.26779747 -13.64130592 -0.8592272997 0.933904171 
-10.29958916 -15.03136921 -0.9169890881 0.9296209812 
-10.37843704 -18.47900581 -1.066576838 0.9186195135 
-10.48905945 -23.31643295 -1.286650658 0.9026703835 
-12.7029171 -31.96751595 -1.731110334 0.8712992072 
-3.86803937 -12.99804401 -0.6824687123 0.9471344948 
-3.309733868 -13.25222111 -0.6873974204 0.9467632174 
-2.706672192 -13.33567619 -0.6847935319 0.9469592571 
-2.199028254 -14.00496769 -0.7134296894 0.9448037744 
-1.566098571 -14.01944542 -0.7099116445 0.9450683594 
-0.9381493926 -14.03381062 -0.7078216672 0.9452255368 
-0.2909692228 -13.07702351 -0.6582565308 0.9489613175 
0.2913915813 -13.09321976 -0.6590722799 0.9488997459 
1.505144 -13.47374249 -0.6822775006 0.9471490383 
2.117827177 -13.48775578 -0.6870821714 0.9467869997 
3.37574935 -13.51655006 -0.7011054754 0.9457307458 
4.026777267 -13.53143787 -0.7104763389 0.9450258017 
4.69677496 -13.5467701 -0.7215470672 0.944193542 
5.389377117 -13.56261921 -0.7344461679 0.9432248473 
6.859181881 -13.59624767 -0.7663664222 0.9408317208 
7.646242619 -13.61425495 -0.7857933044 0.939378202 
8.475925446 -13.63324451 -0.8078733087 0.9377290606 
9.355373383 -13.65336132 -0.8329231143 0.9358612895 
10.29302025 -13.67481136 -0.86134094 0.9337473512 
12.06044674 -13.36249924 -0.9058558941 0.9304450154 
17.34389305 -17.57691574 -1.242678404 0.9058349729 
29.0684433 -26.9485569 -1.99478054 0.8532061577 
30.23423958 -25.62526512 -1.994502425 0.8532249331 
31.33999634 -24.25170135 -1.994238853 0.8532431722 
33.36338425 -21.36512947 -1.993758202 0.8532757759 
34.27703857 -19.85769272 -1.993541837 0.8532904983 
35.89946365 -16.7293911 -1.993159413 0.8533163667 
37.23834991 -13.47032928 -1.992843747 0.8533378839 
37.79808426 -11.79969501 -1.992703557 0.8533472419 
39.02680206 -6.662890434 -1.992424607 0.853366375 
39.46269989 -3.167912483 -1.992333055 0.8533726335 
39.58791733 0.3522216678 -1.992317319 0.8533731699 
39.5333519 2.113071203 -1.992338777 0.8533721566 
39.40098953 3.869633675 -1.992378354 0.853369534 
38.53998184 9.080519676 -1.992614388 0.8533533812 
36.99581909 14.13211441 -1.993008256 0.8533265591 
36.33355331 15.76513863 -1.993175149 0.8533153534 
35.59957504 17.36737442 -1.993359447 0.853302896 
31.97654915 23.40677261 -1.994261861 0.8532416224 
29.77775764 26.16337395 -1.99480629 0.8532045484 
28.58864021 27.46608162 -1.995099902 0.8531847596 
27.34281731 28.71509552 -1.995407224 0.8531636 
26.04249954 29.90773392 -1.995727539 0.8531421423 
12.44003868 15.64009285 -1.005694509 0.923081398 
11.38554859 15.70024776 -0.9759963751 0.9252657294 
10.94683552 16.60209465 -1.000765204 0.9234434962 
10.83081055 18.13294983 -1.062921047 0.9188868999 
8.555188179 15.88851738 -0.9081249833 0.9302769899 
7.953959942 18.55692673 -1.016038537 0.9223217964 
6.065739632 21.79476738 -1.138497114 0.9133766294 
6.17820549 33.48744202 -1.713680983 0.8725086451 
4.980937481 35.87926865 -1.822923541 0.8649558425 
-2.894470215 34.15293503 -1.724889159 0.8717305064 
-7.862917423 35.48799896 -1.829225421 0.8645219803 
-9.437902451 35.11853027 -1.830032706 0.8644666672 
-10.99602795 34.68059158 -1.830905676 0.8644061685 
-12.53423023 34.17448807 -1.831842899 0.8643421531 
-14.04968452 33.60143661 -1.83284235 0.8642733097 
-15.53946972 32.96222687 -1.833902717 0.8642004728 
-10.03342056 19.03790665 -1.082981706 0.9174208045 
-12.78385448 17.96257973 -1.109514952 0.9154856205 
-12.99082279 16.63422012 -1.06214273 0.9189437032 
-14.17278576 16.57171631 -1.097363353 0.9163716435 
-24.99341011 26.71986961 -1.841227531 0.8636963964 
-22.97096443 22.46543121 -1.616944194 0.8792516589 
-19.78707695 14.75627136 -1.242179036 0.9058704376 
-23.15885353 14.25562668 -1.368562579 0.8968051076 
-23.88388824 13.27458191 -1.375113964 0.8963375092 
-23.15176964 11.55090523 -1.302059293 0.9015640616 
-23.18030548 10.30408382 -1.276593804 0.9033929706 
-22.83743858 7.804279804 -1.214535356 0.9078658819 
-31.28974724 7.666720867 -1.621219039 0.8789525628 
-36.22182465 7.183952332 -1.858350158 0.8625205159 
-39.50299835 6.022521973 -2.010928392 0.852109611 
-14.67604733 0.2612426579 -0.7386822104 0.9429068565 
-14.68890858 -0.3922875822 -0.7394744158 0.9428472519 
-14.70165253 -1.048508286 -0.7417301536 0.9426779151 
-39.70443344 -4.614279747 -2.011552095 0.8520679474 
-35.34091568 -10.68833256 -1.858069539 0.862539649 
-23.29834747 -13.22198486 -1.348126531 0.8982648253 
-19.2472477 -13.31466484 -1.17778039 0.910525322 
-16.08279991 -13.38706779 -1.053055525 0.9196084738 
-13.77872753 -12.54778004 -0.9378461838 0.9280791283 
-12.60506535 -13.71852779 -0.9375569224 0.9281005263 
-10.78469944 -12.83982658 -0.8438489437 0.9350479245 
-10.29289246 -14.73849773 -0.9046744108 0.9305323958 
-10.32832527 -16.2876091 -0.9705705047 0.9256651402 
-10.36940193 -18.08398247 -1.049063206 0.919900775 
-10.47597122 -22.74406433 -1.260163546 0.9045753479 
-11.79810238 -33.07518387 -1.767211914 0.8687990308 
-2.229909658 -13.42124748 -0.684677422 0.9469681382 
-1.063427687 -14.03094959 -0.7081263661 0.945202589 
2.614965677 -13.49913788 -0.6919646859 0.946418941 
3.895141602 -13.52842522 -0.708468318 0.9451767802 
6.706371784 -13.59274673 -0.7627758384 0.941100657 
8.306303978 -13.62936211 -0.8032311797 0.9380754828 
9.175172806 -13.64924049 -0.8276602626 0.9362534881 
10.10042667 -13.67040253 -0.8553695679 0.934191227 
11.09182358 -13.69308853 -0.8868094683 0.9318563938 
11.84189224 -13.35749722 -0.8983364105 0.9310020804 
28.82816505 -27.20697403 -1.99483788 0.8532025814 
31.12369728 -24.53031921 -1.994290233 0.8532397151 
32.18002701 -23.11872673 -1.994039059 0.8532565832 
34.09973907 -20.16249275 -1.993583798 0.8532872796 
37.69215393 -12.13571262 -1.992729425 0.8533452749 
38.19229889 -10.4463501 -1.992611289 0.8533537388 
38.61728287 -8.736657143 -1.992515326 0.8533603549 
38.96624374 -7.009904861 -1.99243784 0.8533654213 
39.43313599 -3.518718243 -1.992338657 0.8533720374 
39.58929443 -9.277343634e-05 -1.992315531 0.8533738256 
38.61883163 8.736994743 -1.992594004 0.8533549309 
37.69393921 12.13643074 -1.99283123 0.8533387184 
36.47177124 15.44100094 -1.99314034 0.8533176184 
31.99884033 17.0466156 -1.824575186 0.8648420572 
34.10223007 20.16397476 -1.993733644 0.8532773256 
32.18286514 23.12068748 -1.99421072 0.8532447815 
27.59647942 28.46985817 -1.995344639 0.8531674147 
26.3068161 29.67375374 -1.995662332 0.8531466126 
23.06469917 28.47385979 -1.84406352 0.8635018468 
11.52270699 15.59538078 -0.9758170247 0.9252790809 
10.82668781 17.76492691 -1.046954155 0.920055151 
8.731467247 15.8758688 -0.91180861 0.9300044775 
8.108132362 18.46126175 -1.014711857 0.9224193096 
13.0973053 33.83445358 -1.825826645 0.8647562265 
6.273810863 21.78993607 -1.141116977 0.9131863117 
5.373276234 22.35942841 -1.157261372 0.9120135903 
6.485969067 33.48230743 -1.716305614 0.8723264337 
5.30659914 35.87734222 -1.825148582 0.8648023605 
0.4844091833 36.28403854 -1.826136231 0.8647344708 
-1.130390644 36.27845764 -1.826581836 0.8647040129 
-4.35294199 36.0562706 -1.827687383 0.8646277785 
-7.546076298 35.55357361 -1.829071879 0.8645326495 
-9.10669136 35.13017273 -1.826342463 0.8647204041 
-10.68597412 34.77357101 -1.830726027 0.864418745 
-12.22842979 34.28112411 -1.831650376 0.8643550873 
-13.7486639 33.72138596 -1.832637548 0.8642871976 
-15.24378109 33.09529495 -1.833685875 0.8642153144 
-9.886164665 19.17008018 -1.085456848 0.9172403216 
-10.53071499 16.60678864 -0.989592731 0.924265027 
-22.96193123 22.86000633 -1.6305691 0.8782988787 
-23.08376694 17.5367012 -1.458881855 0.8903816342 
-23.37062645 13.26283455 -1.352301359 0.8979662061 
-23.17469025 10.54949474 -1.281405449 0.9030472636 
-24.41068459 9.826032639 -1.324241757 0.8999738097 
-22.92487526 8.062644005 -1.2229532 0.9072579741 
-24.43290138 7.389338017 -1.284575462 0.9028195143 
-29.5898838 7.530045986 -1.536554933 0.8848948479 
-36.1562767 7.506037235 -1.858335495 0.862521112 
-39.70520782 4.61433363 -2.011586666 0.8520653248 
-14.6604023 1.045559049 -0.7396492362 0.9428340793 
-14.6863451 -0.2614233196 -0.7391999364 0.9428679347 
-14.69911385 -0.9168920517 -0.741161406 0.9427206516 
-39.51413345 -6.024270058 -2.011500597 0.852071166 
-38.81876755 -9.511711121 -2.011318684 0.8520835042 
-33.75883865 -15.00643253 -1.859181166 0.8624633551 
-23.76978302 -13.21118832 -1.36854732 0.8968062401 
-21.54479599 -13.26210213 -1.273175359 0.9036385417 
-19.60610008 -13.30645275 -1.192446589 0.909463346 
-17.89546585 -13.34558773 -1.123431563 0.9144721627 
-16.3690834 -13.3805151 -1.063962102 0.9188107252 
-14.26498222 -12.7601881 -0.9631764293 0.9262102246 
-13.07308769 -12.78538322 -0.9202257395 0.9293815494 
-11.00625229 -12.86924076 -0.8521871567 0.934427619 
-10.32083511 -15.96004105 -0.9564855099 0.9267033935 
-10.36066151 -17.70188141 -1.032203555 0.9211359024 
-10.40745544 -19.7476387 -1.123356581 0.9144777656 
-11.78757572 -32.13870621 -1.722772956 0.8718812466 
-3.495436907 -13.006567 -0.6777740121 0.9474885464 
-1.818520427 -14.01367378 -0.7111439109 0.9449755549 
-1.188876867 -14.02807808 -0.7084860206 0.9451754093 
0.6417797804 -13.10123253 -0.6601040363 0.9488219023 
1.262277842 -13.46818542 -0.6807502508 0.9472641349 
3.764292002 -13.52543163 -0.706530273 0.9453226328 
5.109386921 -13.55621338 -0.7290564775 0.9436293244 
6.554906845 -13.58927917 -0.759275496 0.9413627386 
7.326679707 -13.60694504 -0.7777214646 0.9399819374 
8.997133255 -13.64516354 -0.8225224614 0.9366362691 
9.910392761 -13.66605663 -0.849542737 0.9346244335 
10.88768768 -13.6884203 -0.8801954389 0.9323469996 
11.62691593 -13.35258007 -0.8910083771 0.9315450788 
14.87267303 -15.61912823 -1.085371256 0.9172466397 
18.31846809 -17.59921074 -1.27838099 0.9032648206 
29.77500153 -26.16070557 -1.99461174 0.8532176018 
31.97391701 -23.4046402 -1.994088054 0.8532531857 
18.48437691 -12.30625248 -1.117518902 0.9149029851 
33.91963196 -20.46546555 -1.993626356 0.8532847166 
34.79283905 -18.93436241 -1.993420005 0.8532987833 
35.59738922 -17.3663063 -1.993230581 0.8533112407 
36.33148956 -15.76425457 -1.993058085 0.8533230424 
36.99388885 -14.13140392 -1.992902756 0.8533335924 
37.5830574 -12.47085953 -1.992756963 0.8533437848 
38.53835297 -9.080145836 -1.992533088 0.8533591032 
38.90257645 -7.356530666 -1.992451906 0.8533644676 
39.5876236 -0.3524560332 -1.992314458 0.8533741832 
39.56451416 1.409157634 -1.992327809 0.8533727527 
39.46324539 3.167753935 -1.992360234 0.8533707857 
39.2843895 4.920236588 -1.992411137 0.8533669114 
12.13626194 3.203732729 -0.6316736937 0.9509711266 
34.27954865 19.85915947 -1.993689418 0.8532805443 
31.34280968 24.25386429 -1.994419098 0.8532310724 
30.23708153 25.62765884 -1.994692683 0.8532122374 
29.07140541 26.95127869 -1.994980693 0.8531924486 
26.56904221 29.43768501 -1.995597839 0.8531504869 
10.75267887 15.69259834 -0.9572727084 0.9266414046 
10.82545662 17.41238213 -1.031813979 0.9211645126 
8.150495529 16.15589523 -0.910641253 0.9300906658 
13.39900875 33.71919632 -1.825966597 0.8647463322 
11.8813982 34.26914978 -1.825292349 0.8647928834 
6.476183891 21.76234818 -1.142647386 0.9130752087 
6.796681881 33.48699951 -1.719576359 0.8720992208 
5.625558853 35.82751465 -1.825093627 0.8648064733 
0.8071655035 36.27661896 -1.826055884 0.8647402525 
-4.031716347 36.09121704 -1.827564001 0.864636004 
-5.63515377 35.8886528 -1.828208327 0.8645921946 
-7.228859901 35.61634064 -1.828921318 0.8645430803 
-8.809809685 35.27464294 -1.829701781 0.8644891381 
-13.4465065 33.83875275 -1.832435131 0.8643009067 
-14.94690132 33.22589111 -1.833471298 0.8642296195 
-9.828026772 19.4811058 -1.098068476 0.9163199663 
-10.3660078 16.67337036 -0.9880186319 0.9243805408 
-19.65639877 21.77849388 -1.476379871 0.8891425729 
-23.17780495 13.42755604 -1.348006725 0.8982731104 
-23.14002228 12.06408882 -1.313268065 0.9007601738 
-23.16902542 10.7969017 -1.286354661 0.9026916027 
-23.63985634 9.761144638 -1.287089109 0.9026388526 
-22.84220886 8.262770653 -1.222419143 0.9072965384 
-34.86222839 7.561720848 -1.795220494 0.8668649197 
-14.67086124 0.5224536061 -0.7387714982 0.9429000616 
-14.68378162 -0.1307104528 -0.7389824986 0.9428842068 
-14.87957287 -1.461364746 -0.752409935 0.9418772459 
-39.56634903 -5.672507286 -2.011514425 0.85207057 
-38.90218735 -9.165881157 -2.01134038 0.8520824909 
-35.52654648 -10.05796146 -1.858116984 0.8625360131 
-25.71112442 -12.54326916 -1.439660907 0.8917448521 
-21.96477699 -13.25248718 -1.290974379 0.9023596644 
-12.84805393 -13.49287796 -0.9376167655 0.928096056 
-11.20042229 -12.86279964 -0.8583257198 0.9339712262 
-10.25055885 -12.88739967 -0.8286873698 0.9361767769 
-10.31355 -15.6416626 -0.9428705573 0.927708149 
-10.35220432 -17.33168221 -1.015951395 0.9223281741 
-12.05949402 -31.9962368 -1.720765948 0.8720166087 
-11.45233154 -35.03420258 -1.85488534 0.8627582788 
-1.314416528 -14.02520752 -0.7089051604 0.9451439977 
-0.687739253 -14.03954315 -0.7073803544 0.945258677 
-0.05820800737 -13.08522224 -0.6585139036 0.948941946 
0.5248803496 -13.09855938 -0.6597067118 0.9488518238 
1.749186993 -13.47932816 -0.6840286255 0.947017014 
2.992863655 -13.5077858 -0.6962580681 0.946095705 
4.292292595 -13.53751183 -0.7146927714 0.9447087049 
4.970876217 -13.55303955 -0.7264788747 0.9438230395 
6.404809475 -13.58585167 -0.7558687925 0.9416180253 
9.722995758 -13.66176987 -0.8438642621 0.9350468516 
10.68664742 -13.68381596 -0.8737512827 0.9328253269 
12.5086937 -13.372756 -0.9215006232 0.929287374 
17.98748779 -17.59164238 -1.266156912 0.9041440487 
30.68384933 -25.08172607 -1.994395137 0.8532323241 
18.3037529 -12.42256069 -1.113239646 0.9152145386 
33.73684311 -20.76701355 -1.993669748 0.8532818556 
35.44197464 -17.68276978 -1.993267059 0.8533090353 
36.19023514 -16.08725739 -1.993091226 0.853321135 
37.471138 -12.80509949 -1.992785573 0.8533416986 
38.00125122 -11.12469006 -1.992656112 0.8533504605 
38.45638657 -9.422748566 -1.992551565 0.8533578515 
39.13876724 -5.967031002 -1.992400289 0.8533679247 
39.58291626 -0.7047021389 -1.992313981 0.8533741832 
39.4897728 2.816342592 -1.992352247 0.8533711433 
39.08543015 6.315378189 -1.992465377 0.8533633351 
38.76756668 8.048161507 -1.992555141 0.8533571959 
37.35815048 13.1388073 -1.992916465 0.8533329368 
35.05083466 14.1089983 -1.901460886 0.8595666289 
19.95721054 9.084843636 -1.103500843 0.9159240127 
33.43289566 17.05374336 -1.888740063 0.8604371548 
34.45414352 19.55294228 -1.993645787 0.8532835245 
20.24551201 12.71218204 -1.203041553 0.9086969495 
30.46310806 25.35697174 -1.994636774 0.853215754 
29.30913734 26.69078064 -1.994922042 0.8531965017 
26.82913208 29.19905663 -1.995533705 0.8531549573 
12.02360344 15.6814909 -0.9944368601 0.9239088297 
10.96297455 15.69797421 -0.9635713696 0.926181078 
10.84635639 17.10453415 -1.019251823 0.9220858812 
9.274542809 16.17455292 -0.9382946491 0.9280458689 
8.356223106 16.20339966 -0.9174762368 0.9295849204 
8.09453392 17.57375908 -0.9736966491 0.9254350662 
13.69965267 33.60113144 -1.82610929 0.864736855 
12.18668938 34.16453171 -1.825422049 0.8647838831 
6.688488483 21.76549911 -1.145888209 0.9128394723 
5.648051739 21.78837204 -1.132728577 0.9137958884 
4.347331524 36.00974655 -1.82533133 0.864790082 
1.130012155 36.26647568 -1.825978398 0.8647455573 
-0.483923316 36.24656296 -1.824252248 0.8648642898 
-2.098850012 36.24131775 -1.826883793 0.8646833301 
-3.710051298 36.12321091 -1.8274436 0.864644587 
-5.315097332 35.93473434 -1.828073859 0.8646014333 
-6.910991192 35.67645264 -1.828773141 0.8645530343 
-8.494704247 35.34843063 -1.829540372 0.8645006418 
-11.6138401 34.48628616 -1.83127284 0.8643810153 
-16.12772751 32.68835068 -1.834343314 0.8641696572 
-10.06284428 18.29643822 -1.050832629 0.9197713733 
-10.99628162 16.3583622 -0.9919350147 0.9240927696 
-12.79201889 17.3133316 -1.083307266 0.9173972607 
-13.42137432 16.56895256 -1.073058248 0.918145597 
-24.26216507 27.36737442 -1.84054327 0.8637435436 
-22.9885807 21.69577408 -1.590746999 0.8810865879 
-23.34264755 20.14399147 -1.551644921 0.8838329911 
-23.06900024 18.18197441 -1.478168726 0.8890160322 
-23.10522079 16.59917641 -1.431715965 0.8923090696 
-23.13930893 15.10996342 -1.390756488 0.8952223063 
-23.17154884 13.70086193 -1.354683995 0.8977960348 
-23.16331673 11.04613972 -1.291441917 0.9023260474 
-23.35320473 9.886892319 -1.276221752 0.9034199119 
-34.55200958 12.84736061 -1.85512197 0.862742126 
-23.20750237 7.472087383 -1.226943731 0.9069696069 
-27.8455925 7.616296291 -1.452783942 0.8908138871 
-34.81010818 7.875309944 -1.796071172 0.8668060899 
-39.8146286 3.552746534 -2.011609316 0.8520640135 
-14.66825867 0.653137207 -0.7389047146 0.9428901672 
-14.6940155 -0.6542944312 -0.7402008772 0.9427927732 
-14.70673084 -1.312307119 -0.7430480719 0.9425791502 
-39.61555862 -5.320119381 -2.011527777 0.8520695567 
-38.98267746 -8.81932354 -2.011361122 0.8520809412 
-35.14412689 -11.31546593 -1.858019471 0.8625429869 
-34.60342026 -12.86665249 -1.85788238 0.8625524044 
-34.02110672 -14.40345383 -1.859214902 0.8624613285 
-22.39650154 -13.24261475 -1.30937624 0.9010394216 
-18.55537796 -13.3305006 -1.149781346 0.9125564694 
-14.77288818 -12.7485714 -0.9819895029 0.9248242974 
-13.53604221 -12.77479267 -0.9366590381 0.9281669855 
-12.5844698 -12.98267269 -0.9099122286 0.9301447272 
-11.39751148 -12.85625744 -0.8646238446 0.9335031509 
-10.40763664 -12.84845448 -0.8321018219 0.935921967 
-10.30647469 -15.33218956 -0.9297097325 0.9286803603 
-10.34399128 -16.9729023 -1.000278115 0.9234793186 
-10.50271225 -23.91347885 -1.314386129 0.9006801248 
-12.37746334 -31.97496223 -1.725482345 0.8716897964 
-3.743239641 -13.00090027 -0.6808415055 0.9472571611 
-3.185703039 -13.25644016 -0.6861189008 0.9468596578 
-1.440165997 -14.02232647 -0.7093798518 0.9451083541 
1.626979947 -13.47653008 -0.6831243634 0.9470851421 
3.504631281 -13.51949406 -0.7028492689 0.945599556 
5.530983925 -13.56585217 -0.7372590303 0.9430137873 
6.256120682 -13.58244801 -0.7525532246 0.9418665767 
7.013515472 -13.59977722 -0.7700523138 0.9405556917 
7.808588505 -13.61797619 -0.7899869084 0.9390646219 
11.50943565 -13.70264339 -0.9005550146 0.9308376312 
12.28259754 -13.36758041 -0.9135743976 0.9298737645 
33.55153656 -21.06685257 -1.993713617 0.8532786369 
34.45171738 -19.55137825 -1.99350059 0.8532933593 
35.28383636 -17.99768829 -1.993304253 0.8533067703 
36.73757172 -14.78796577 -1.992963195 0.8533297777 
37.90116119 -11.46264648 -1.992679 0.8533488512 
38.37136078 -9.764770508 -1.992570639 0.8533565402 
38.76613235 -8.04786396 -1.992482066 0.8533622026 
39.32558823 -4.570304871 -1.992360473 0.8533704877 
39.57514191 -1.057268023 -1.992314458 0.8533739448 
39.58321381 0.7044751048 -1.992320061 0.8533731699 
39.51317978 2.464731455 -1.992345095 0.853371501 
39.13977814 5.967348576 -1.992450714 0.8533643484 
38.83726883 7.702858925 -1.992536545 0.8533585072 
38.45800018 9.423304558 -1.992635608 0.8533520699 
35.04311371 13.74487305 -1.894328713 0.8600543737 
34.626091 19.24510002 -1.993602872 0.8532863259 
32.78607941 22.25154305 -1.994060874 0.8532553315 
31.7678566 23.69095612 -1.994313598 0.8532381058 
30.68667221 25.08403778 -1.994581461 0.8532198668 
11.16042614 15.68163586 -0.9686231017 0.9258086681 
10.7660923 16.64857864 -0.9977509975 0.9236651063 
8.554562569 16.23184967 -0.9233582616 0.9291497469 
8.076046944 17.13085747 -0.9530995488 0.9269531965 
7.966081142 19.05176544 -1.039205432 0.9206225872 
6.911874771 21.79944038 -1.150870204 0.9124776721 
5.376262188 24.26488495 -1.25073266 0.9052544832 
5.875866413 33.51738358 -1.712469935 0.8725927472 
4.667526722 35.9683609 -1.825267553 0.8647944927 
3.063425303 36.14651871 -1.825574279 0.8647731543 
-0.1614501923 36.2902565 -1.826305747 0.8647229075 
-3.383893967 36.10556412 -1.824956059 0.8648158312 
-6.592773438 35.73365784 -1.828627944 0.8645631671 
-8.179179192 35.41957855 -1.829381704 0.8645114303 
