# .PCD v0.7 - Point Cloud Data file format
VERSION 0.7
FIELDS x y z intensities
SIZE 4 4 4 4
TYPE F F F F
COUNT 1 1 1 1
WIDTH 915
HEIGHT 1
VIEWPOINT 0 0 0 1 0 0 0
POINTS 915
DATA ascii
-2.95715332 9.326577187 -0.2236610353 0.9616094828 
-6.071899414 10.37417412 -0.2747816443 0.9530438185 
-9.83161068 15.20343208 -0.4138799906 0.9301211238 
-10.52582455 12.30749035 -0.3702012599 0.9372590184 
-10.64166451 11.37678242 -0.3561074734 0.9395741224 
-9.833857536 9.617460251 -0.3144305348 0.946452558 
-10.77991199 9.642767906 -0.3306237757 0.9437739253 
-13.01023388 9.702421188 -0.3710027933 0.9371276498 
-19.56562042 13.27897453 -0.5405412316 0.909727931 
-19.17707443 11.80459976 -0.5147747397 0.9138399363 
-20.03153229 11.13342762 -0.5238848925 0.9123840332 
-17.29611778 7.688407898 -0.4326821864 0.9270650148 
-20.07164574 7.872617245 -0.4928585589 0.9173520207 
-87.5216217 -2.337250948 -2.001413107 0.7044747472 
-87.33095551 -6.228334904 -2.001413107 0.7044748664 
-86.96749878 -10.10695744 -2.001413107 0.7044747472 
-79.85035706 -12.90216255 -1.849013209 0.7235189676 
-49.38811874 -14.93674278 -1.179487109 0.8134722114 
-49.56036377 -19.94958496 -1.22126472 0.8075459599 
-49.58255386 -22.57090187 -1.2453444 0.8041497469 
-49.56173325 -28.1264782 -1.302685261 0.7961197495 
-18.08599091 -13.73985291 -0.5192108154 0.913130641 
-47.18690872 -46.97735596 -1.522087336 0.7661272287 
-46.17190933 -50.25051117 -1.55997467 0.7610630989 
-41.27536392 -59.10257339 -1.647909164 0.7494393587 
-10.11607361 -15.95293903 -0.4318154752 0.9272058606 
-8.252729416 -16.0027771 -0.4115956128 0.9304930568 
-6.543149471 -16.04848671 -0.3961799443 0.9330070615 
-3.981074095 -12.95501423 -0.3098129332 0.9472181797 
-2.897695303 -13.65252399 -0.3190422058 0.9456893206 
0.1833740175 -13.73493576 -0.3140017688 0.9465239644 
0.7963818312 -13.75133801 -0.3148753345 0.9463792443 
1.414033175 -13.76786137 -0.3163818419 0.9461296797 
2.673554659 -13.80153751 -0.3213615417 0.9453055263 
3.320868969 -13.81886196 -0.3248856962 0.9447225332 
3.983871937 -13.83658695 -0.3291470408 0.9440181851 
5.370517254 -13.87367153 -0.3400781155 0.9422138333 
6.101894379 -13.89325142 -0.346874088 0.9410937428 
6.864648342 -13.91365719 -0.3546638489 0.9398114681 
7.452690125 -13.55067825 -0.3535201848 0.93999964 
8.092119217 -13.27793884 -0.3554534912 0.9396816492 
9.60399437 -14.28719711 -0.3935290575 0.9334400892 
10.57530785 -14.31316853 -0.4068115056 0.9312725067 
11.47617626 -14.16760254 -0.4167863429 0.9296482205 
11.86072731 -13.37875462 -0.4087075591 0.9309630394 
18.32378578 -17.29331589 -0.575959444 0.9041058421 
18.36248779 -15.84626389 -0.5544479489 0.9075163603 
18.39847374 -14.500844 -0.5355070233 0.9105299115 
29.80045128 -14.21135235 -0.754719913 0.8762561083 
33.82156754 -14.31889629 -0.8395784497 0.8633375764 
64.06786346 -23.82229424 -1.562525868 0.7607235909 
40.64678574 -13.08708954 -0.9761382341 0.842946887 
86.77380371 -11.65326118 -2.001413107 0.7044748068 
87.20626068 -7.781625748 -2.001413107 0.704474926 
87.5528183 -2.441406104e-05 -2.001413107 0.7044747472 
80.53102112 7.186059475 -1.84821403 0.7236202359 
42.66708374 11.6703949 -1.011175036 0.8377934694 
63.87845612 27.04396248 -1.585690856 0.7576437593 
33.30280304 15.88156414 -0.8434197903 0.8627573252 
30.60157204 16.30221939 -0.7926079631 0.8704644442 
27.99037933 22.06079483 -0.8146899343 0.8671066165 
43.46139908 44.83662033 -1.427423954 0.7789253592 
11.99249458 16.2312355 -0.4613276422 0.9224287868 
8.660400391 17.55335426 -0.4474407732 0.9246734977 
9.941723824 34.52902603 -0.8213824034 0.866091609 
16.18951225 83.57414246 -1.945978045 0.711343348 
8.698261261 84.68228149 -1.945978045 0.7113431692 
3.733227491 64.46318054 -1.47606194 0.7723231316 
0.7954834104 59.58567429 -1.362220168 0.7878668308 
-2.413915873 9.312046051 -0.2199044824 0.962241888 
-9.428730011 26.43264008 -0.6415281296 0.893789351 
-9.547391891 20.72808456 -0.5216805935 0.9127360582 
-10.45813942 18.23875427 -0.4806068242 0.9193213582 
-10.542202 15.09549809 -0.4208955169 0.9289796948 
-10.33325672 12.30234337 -0.367264688 0.9377408028 
-10.636343 11.57589817 -0.359362632 0.9390389323 
-9.715551376 9.672426224 -0.3133688271 0.9466252923 
-19.16800308 12.03554153 -0.5173860192 0.9134223461 
-20.02535629 11.36445332 -0.5263473392 0.9119908214 
-19.20890617 9.798192978 -0.492932111 0.9173403382 
-19.34205055 7.785776138 -0.4766255021 0.9199621081 
-21.80509758 7.668793678 -0.5283817649 0.9116660357 
-79.9066925 24.16658592 -1.908336282 0.7160452604 
-47.32358932 9.824408531 -1.104614735 0.8241679668 
-67.89256287 7.890190125 -1.562434793 0.7607355714 
-87.53894043 -1.558413029 -2.001413107 0.7044747472 
-87.0539856 -9.332641602 -2.001413107 0.7044747472 
-72.95031738 -14.46857834 -1.700089931 0.7426258922 
-59.41565704 -14.55839348 -1.398390174 0.7828947902 
-49.67300034 -19.48303223 -1.21971941 0.8077644706 
-49.82003403 -22.14592171 -1.246309519 0.8040139079 
-49.81716156 -37.15127182 -1.420597553 0.7798576951 
-49.17588425 -40.19761276 -1.451913714 0.7755947113 
-48.45091248 -43.33986664 -1.486015439 0.7709794044 
-46.23999405 -49.43427277 -1.547349334 0.7627467513 
-42.67921448 -49.90353775 -1.501066566 0.7689508796 
-39.55921173 -61.17364502 -1.665318847 0.7471593618 
-9.349081993 -15.97344685 -0.4230900407 0.928622961 
-7.568364143 -14.36051273 -0.3710741997 0.9371159673 
-7.553085804 -16.02147865 -0.4049015641 0.931583941 
-6.708471298 -16.04406166 -0.3975291252 0.9327868223 
-5.89250946 -16.06589317 -0.3911808729 0.9338237643 
-2.395751953 -13.6659565 -0.3171609342 0.9460006952 
-1.775546789 -13.68254852 -0.3153985441 0.9462925792 
-1.160991192 -13.69897938 -0.3142745793 0.9464787841 
0.06111327931 -13.73166943 -0.3139022887 0.9465404749 
2.545693398 -13.79811954 -0.320741564 0.9454080462 
3.849853516 -13.83300304 -0.3282336295 0.9441691637 
5.227597713 -13.86985302 -0.3388304114 0.9424195886 
5.953276157 -13.88927746 -0.34543854 0.9413301945 
6.709350586 -13.90949631 -0.3530216813 0.940081656 
7.445287704 -13.82723141 -0.3589921594 0.9390997887 
7.928300381 -13.27356434 -0.3534350395 0.9400139451 
10.3757906 -14.30783176 -0.4040189981 0.9317278266 
18.31567574 -17.59646034 -0.5806040764 0.9033711553 
18.39147186 -14.76257801 -0.5391070247 0.9099564552 
25.92350578 -14.10765076 -0.6746667624 0.8886201978 
29.09150314 -14.19238281 -0.739934504 0.878526628 
32.94649887 -14.29549313 -0.8209815025 0.8661522865 
63.47318268 -21.06174278 -1.528769016 0.7652328014 
76.23311615 -17.96151733 -1.79036665 0.7309838533 
79.47925568 -15.02963352 -1.84905529 0.7235136628 
87.1335907 -8.557385445 -2.001413107 0.7044748068 
87.42802429 -4.672883034 -2.001413107 0.7044747472 
87.54936981 -0.7791454792 -2.001413107 0.7044746876 
80.62132263 6.471392632 -1.848890781 0.7235344648 
42.60892487 9.241909027 -0.9966669083 0.8399236202 
42.8347168 17.68691444 -1.059368372 0.8307561278 
30.64803123 15.97842026 -0.7900964022 0.8708472252 
30.57915306 17.71539497 -0.807851553 0.8681444526 
66.85478973 42.81222534 -1.814769506 0.7278684974 
28.20596886 21.82659531 -0.8152791262 0.8670172095 
27.99328232 23.72603989 -0.8388375044 0.8634495735 
61.49505234 62.32149887 -2.001428366 0.7044728994 
28.15629578 34.13395691 -1.011491895 0.8377470374 
12.18367672 16.18658257 -0.4631210268 0.9221391082 
20.39674568 32.8074913 -0.8830866218 0.8567880988 
8.848637581 17.53977585 -0.4490841627 0.9244076014 
8.233163834 18.30172348 -0.4587518275 0.922844708 
20.08201218 50.53730774 -1.243127227 0.8044621348 
11.51531219 33.21324539 -0.8035745025 0.8687949777 
24.28057098 81.59160614 -1.945978045 0.7113434076 
8.619956017 34.51440048 -0.8132177591 0.8673303723 
13.20452595 84.09739685 -1.945978045 0.7113434672 
5.677841663 84.9382019 -1.945978045 0.7113434076 
1.894228458 85.10669708 -1.945978045 0.711343348 
-1.04499507 9.354804039 -0.2151763886 0.9630385637 
-1.465595722 9.333930016 -0.2159831226 0.9629025459 
-2.325087786 9.309672356 -0.2193511873 0.9623351097 
-9.260668755 26.71029663 -0.6462405324 0.8930523992 
-10.5347414 15.37448215 -0.4260433912 0.928143084 
-9.798480988 13.0177393 -0.3724568188 0.9368892312 
-10.63091755 11.77868652 -0.3627068996 0.9384894967 
-10.65708447 10.80030727 -0.3468473852 0.941098094 
-11.39654255 9.659267426 -0.3415046632 0.9419785142 
-13.79182625 9.723324776 -0.385748595 0.9347121119 
-19.1587944 12.26882744 -0.5200640559 0.9129943252 
-20.01911545 11.59765625 -0.5288755894 0.9115873575 
-21.72149277 10.12235355 -0.5478106737 0.9085711837 
-18.5286808 7.650668621 -0.458242029 0.9229269624 
-20.87287521 7.550375938 -0.5074005127 0.9150201082 
-80.54673767 17.47064018 -1.884072781 0.7190928459 
-48.67778778 8.310463905 -1.128789783 0.8207145333 
-63.1235466 7.905883789 -1.454245687 0.7752782106 
-80.62666321 6.471801758 -1.849013209 0.7235189676 
-87.49734497 3.116127968 -2.001413107 0.7044747472 
-87.427948 -4.672934532 -2.001413107 0.7044749856 
-76.17084503 -14.40400887 -1.772087097 0.7333265543 
-49.42477036 -18.87987709 -1.209450126 0.8092176914 
-49.56951523 -24.18275833 -1.260787725 0.8019790053 
-49.64007187 -29.95054054 -1.325289845 0.7929754257 
-49.53956604 -32.98186111 -1.360470533 0.7881080508 
-49.58649826 -36.29708481 -1.40475297 0.7820233703 
-49.52511215 -39.75312805 -1.451721787 0.7756208181 
-47.58991623 -45.7211647 -1.508593082 0.7679386139 
-45.2069664 -51.91663361 -1.573661208 0.7592427731 
-43.81589127 -55.08703613 -1.609026313 0.7545573711 
-40.13438797 -60.86826706 -1.666662216 0.7469836473 
-9.537929535 -15.96840763 -0.4251878262 0.9282820225 
-6.87498045 -16.03960419 -0.3989193738 0.9325599074 
-6.053627968 -16.06157684 -0.3923722804 0.9336290956 
-3.608281136 -12.96498489 -0.3076371551 0.9475789666 
-3.151078939 -13.64575672 -0.3201437294 0.9455069304 
-0.6717236042 -13.71207523 -0.3138268888 0.9465528727 
1.787914991 -13.7778511 -0.3175956607 0.9459287524 
3.06022954 -13.81187916 -0.3233898878 0.9449699521 
3.716586828 -13.82944298 -0.3273513615 0.9443149567 
4.390561581 -13.84746552 -0.3320765495 0.9435343146 
5.085673809 -13.8660593 -0.3376185596 0.9426195025 
5.805864334 -13.88533688 -0.3440414369 0.9415603876 
6.555473328 -13.90537548 -0.3514225781 0.9403448105 
9.232680321 -14.27726078 -0.3886671364 0.934234798 
11.4956007 -13.44144058 -0.404309541 0.9316803813 
18.26407433 -19.52569771 -0.6111782789 0.8985498548 
18.38437653 -15.02784634 -0.5427967906 0.909368813 
21.5207901 -14.6059227 -0.5945587158 0.9011676908 
22.18274879 -13.65479946 -0.5954571366 0.9010257125 
25.35540771 -14.09245586 -0.663120091 0.8904178739 
32.10931015 -14.2730999 -0.8032532334 0.8688440919 
65.04125214 -22.22652817 -1.571226001 0.759565711 
79.96201324 -12.19105244 -1.849013209 0.7235189676 
87.53890228 -1.558227539 -2.001413107 0.7044748664 
87.52159882 2.337346077 -2.001413107 0.7044748068 
64.34711456 7.478113651 -1.48084271 0.7716775537 
71.83005524 11.60624981 -1.663298011 0.7474238873 
78.79178619 16.35723686 -1.839544296 0.7247191072 
77.84806824 19.81084251 -1.836286902 0.7251324058 
42.74765015 15.03439426 -1.035864234 0.8341809511 
74.13563538 29.84195709 -1.826849461 0.7263311744 
33.32269287 15.16913033 -0.8369514942 0.8637344837 
29.93109703 20.70532417 -0.8319667578 0.8644885421 
62.6149826 57.02117538 -1.935924172 0.7125962377 
62.04721069 61.77171326 -2.001428366 0.7044730783 
59.22509766 64.45669556 -2.000993729 0.7045265436 
11.34873009 16.25036049 -0.4530969262 0.9237588048 
19.48734093 33.98559189 -0.8955488205 0.8549212813 
8.239433289 17.88845634 -0.4502131641 0.9242249727 
19.9304924 48.88381577 -1.20676744 0.8095977902 
11.80164051 33.08483124 -0.8029777408 0.8688858747 
11.64739704 54.8764534 -1.282392383 0.7989521027 
6.43347168 84.88432312 -1.945978045 0.711343348 
2.65079093 85.08647919 -1.945978045 0.7113434076 
-0.3578564227 26.80357933 -0.6127709746 0.898299396 
-9.241137505 27.44055557 -0.6618930101 0.8906091452 
-9.591147423 24.77682114 -0.6073405147 0.8991535306 
-9.557729721 15.68281746 -0.4198319912 0.9291526675 
-10.52709484 15.66047287 -0.4313546717 0.9272806644 
-9.637172699 13.04342747 -0.3707235754 0.9371735454 
-9.957133293 12.29227543 -0.3616189361 0.9386683702 
-10.62539482 11.98528767 -0.366142869 0.9379252791 
-10.65203571 10.98909664 -0.3498521447 0.9406033158 
-18.56528282 7.859877586 -0.4608584344 0.9225043058 
-80.65558624 14.50969219 -1.873343468 0.7204445004 
-58.95244598 7.916947842 -1.35972023 0.7882114649 
-80.56586456 7.1890769 -1.849013209 0.7235190272 
-87.20630646 -7.781606197 -2.001413107 0.7044748068 
-79.40854645 -14.28554153 -1.844380498 0.7241059542 
-53.6274147 -14.6682663 -1.270926833 0.8005572557 
-49.58695602 -15.96559048 -1.190837264 0.811858058 
-49.50964355 -20.9606781 -1.22901547 0.8064513206 
-49.41571808 -26.32493591 -1.279912829 0.7992993593 
-49.65861893 -32.42704391 -1.355762124 0.7887579799 
-49.73831558 -35.73281479 -1.399987936 0.7826756239 
-48.72233963 -42.0459137 -1.471152782 0.7729876637 
-44.12547302 -54.47379303 -1.60252893 0.7554166317 
-42.52237701 -57.55202484 -1.635755897 0.7510355115 
-9.728661537 -15.96330547 -0.4273403883 0.9279323816 
-7.900029182 -16.01220131 -0.4081562757 0.9310534 
-6.21578598 -16.05724144 -0.3936025798 0.9334281087 
-3.731957912 -12.96167946 -0.3083352447 0.9474633336 
-3.278437376 -13.64234352 -0.3207357824 0.9454089999 
-2.645976543 -13.65926266 -0.3180485368 0.9458537698 
-0.793915987 -13.70879364 -0.3139016628 0.9465405941 
0.4281640649 -13.74147892 -0.3142759502 0.9464785457 
1.042758822 -13.7579298 -0.3154012859 0.9462921023 
2.930800676 -13.80842209 -0.3226852417 0.9450864792 
4.254199028 -13.84381294 -0.3310682476 0.94370085 
6.40293932 -13.90130329 -0.3498651087 0.9406011105 
7.179721355 -13.92206955 -0.3580798209 0.939249754 
9.984828949 -14.29738235 -0.3986425698 0.9326050878 
18.25492859 -19.86749458 -0.6167660356 0.8976714611 
18.37718391 -15.29679203 -0.5465826392 0.9087665081 
21.09757996 -14.59460449 -0.586430788 0.9024505019 
24.80649567 -14.07777309 -0.652015388 0.8921502829 
27.75335312 -14.15659618 -0.7121964693 0.882802248 
34.7580719 -13.99115658 -0.8565072417 0.8607832789 
69.33094788 -20.96810532 -1.655766726 0.7484095097 
69.41927338 -17.6658535 -1.637467265 0.7508103848 
79.21968842 -16.4460392 -1.849534392 0.7234529853 
79.85034943 -12.90215588 -1.849013209 0.7235189676 
86.96749878 -10.10693836 -2.001413107 0.7044747472 
87.33099365 -6.228310585 -2.001413107 0.7044747472 
80.72905731 5.035847187 -1.849013209 0.7235190272 
80.33165741 8.611964226 -1.846864223 0.7237912416 
71.8722229 10.95766449 -1.661948562 0.7476002574 
42.40755463 8.410888672 -0.9882978797 0.8411548138 
42.68687057 12.49647903 -1.016754508 0.8369756937 
75.77626038 25.89499855 -1.8305583 0.7258598208 
74.423172 29.19081879 -1.827460885 0.7262533903 
33.73591614 14.99625301 -0.8439449668 0.8626779318 
31.27142715 15.60199451 -0.7988835573 0.8695092201 
65.97742462 44.77817917 -1.822764277 0.7268506289 
27.9961586 22.88476181 -0.8265841007 0.8653033376 
62.58778 55.98544693 -1.919599414 0.714635253 
62.5944519 61.21719742 -2.001428366 0.7044728994 
28.32772064 33.1227684 -0.9963129759 0.8399758339 
8.314926147 17.63757324 -0.4457434118 0.9249482155 
11.31392097 35.68312836 -0.8557164669 0.8609021902 
12.06352997 54.44680405 -1.274810672 0.8000130653 
10.96850109 84.41950989 -1.945978045 0.7113395929 
7.188715458 84.82369232 -1.945978045 0.7113434076 
-0.1532812417 34.45231247 -0.7875704765 0.8712323308 
-0.6951806545 14.19146442 -0.324798584 0.9447368979 
-9.028486252 27.61932564 -0.6642407179 0.8902432323 
-9.345463753 24.79535675 -0.6057323813 0.8994067311 
-9.681679726 17.9805851 -0.466824472 0.9215417504 
-9.773300171 12.28736305 -0.3588986099 0.9391150475 
-10.64689922 11.18124962 -0.3529382348 0.940095365 
-10.01557636 9.622328758 -0.31749174 0.9459457994 
-19.18601036 11.5758934 -0.5122283697 0.914247334 
-16.43169403 8.016259193 -0.4179356396 0.929461062 
-18.67101479 8.101327896 -0.4652543664 0.9217947721 
-23.02583504 7.640453815 -0.5545785427 0.9074953794 
-47.13772964 13.34517097 -1.119896173 0.8220016956 
-87.54933167 0.7793212533 -2.001413107 0.7044748068 
-87.49732208 -3.116313457 -2.001413107 0.7044748068 
-82.24867249 -10.30136204 -1.8948524 0.7177372575 
-79.73233795 -13.61243629 -1.849013209 0.7235189676 
-70.07846832 -15.20026779 -1.639210224 0.7505815029 
-55.15563965 -14.55996513 -1.304020643 0.7959333658 
-49.49507141 -15.45123482 -1.18527925 0.8126479387 
-49.44073486 -17.88433075 -1.201861501 0.8102933168 
-49.43222046 -20.41108894 -1.222534776 0.8073664308 
-49.41046143 -23.0255909 -1.246120095 0.8040406108 
-49.60286331 -25.86058044 -1.278746724 0.7994622588 
-49.68090057 -31.81448746 -1.348589301 0.7897492647 
-49.73762131 -38.48824692 -1.437635422 0.7775350809 
-47.97829437 -44.4793396 -1.495565057 0.7696917057 
-47.05345917 -47.68605042 -1.531411409 0.7648773789 
-44.4916153 -53.93750381 -1.598331213 0.7559714317 
-42.77061081 -56.82289505 -1.625784993 0.7523471117 
-40.99433136 -59.82769012 -1.657886982 0.7481318116 
-9.92134285 -15.95815372 -0.429549098 0.9275737405 
-7.211484432 -16.03062057 -0.4018241763 0.9320858121 
-6.378935337 -16.05288506 -0.3948715031 0.9332208037 
-3.856235266 -12.95834923 -0.3090597391 0.9473430514 
-3.375585794 -13.51590347 -0.3184605241 0.9457861781 
-0.9161962867 -13.70552254 -0.314000845 0.9465241432 
0.3057421744 -13.73821259 -0.314126581 0.9465032816 
1.538364172 -13.77118587 -0.31676054 0.9460670352 
2.164951086 -13.78793907 -0.3190470934 0.9456884861 
2.801923752 -13.80497551 -0.3220092654 0.9451982975 
7.459863186 -13.28240681 -0.3482394218 0.9408687949 
9.793139458 -14.29226017 -0.3960529864 0.9330278039 
10.77758312 -14.31857872 -0.4096760452 0.9308059216 
12.08041191 -13.3846283 -0.4121575952 0.9304013252 
18.29053879 -18.53627396 -0.5952859521 0.9010527134 
18.36989021 -15.56952572 -0.5504650474 0.9081492424 
27.12117767 -14.13968754 -0.6991752386 0.8848164678 
30.53840256 -14.23108387 -0.7701711655 0.8738895655 
33.88219833 -13.99032688 -0.837959826 0.8635822535 
86.87409973 -10.88031483 -2.001413107 0.7044748664 
87.27211761 -7.005036354 -2.001413107 0.7044748068 
87.4973526 -3.11594224 -2.001413107 0.7044747472 
87.54933167 0.7793042064 -2.001413107 0.7044748068 
71.85467529 10.30155849 -1.659356594 0.7479394078 
63.42841721 11.9943943 -1.47563839 0.7723807693 
42.67694855 12.08229446 -1.013916969 0.8373914957 
34.49081421 14.96557808 -0.859464705 0.8603379726 
33.32024384 16.2553997 -0.8474914432 0.8621426821 
30.55266571 16.62685776 -0.7951421142 0.8700785041 
27.96281433 22.44544792 -0.8196709156 0.866351068 
27.99074364 24.5932579 -0.8517453074 0.8615009785 
62.69927597 60.23743439 -1.98756063 0.7061849236 
60.37611008 63.40619659 -2.001428366 0.7044727802 
28.78514671 33.05745697 -1.002010584 0.8391380906 
28.17360687 35.42093658 -1.034602523 0.8343651891 
19.61864662 32.84556198 -0.874574244 0.8580658436 
19.54341507 36.29561996 -0.9423319101 0.8479495049 
20.66395187 48.20988083 -1.199020982 0.810696125 
11.28515625 34.52274704 -0.8302672505 0.8647457361 
9.563105583 34.36107635 -0.815331459 0.8670094609 
7.943573952 84.75636292 -1.945978045 0.7113432884 
-0.8008691072 9.449721336 -0.2167901546 0.9627665877 
-1.637123942 9.33852005 -0.2167292684 0.9627768397 
-2.071669817 9.350141525 -0.2189230323 0.9624072313 
-2.503203154 9.314437866 -0.2204783559 0.9621452689 
-9.315302849 25.39808464 -0.6184063554 0.8974137306 
-9.416264534 22.52007294 -0.557988286 0.9069543481 
-9.664355278 18.33759689 -0.4738412499 0.9204106927 
-6.071884632 10.37419891 -0.2747819424 0.9530437589 
-10.54949188 14.82308578 -0.4159019291 0.9297919869 
-10.64166927 11.37675762 -0.3561070263 0.939574182 
-10.77994156 9.642763138 -0.3306249976 0.9437738061 
-12.33910084 10.08629417 -0.3643108904 0.938225925 
-19.56562042 13.27897453 -0.5405412316 0.909727931 
-19.66309547 9.810346603 -0.5023269653 0.9158331156 
-20.07162476 7.872626781 -0.4928579628 0.9173520803 
-51.94326401 7.919203758 -1.201116562 0.8103988171 
-87.53894043 1.558217764 -2.001413107 0.7044747472 
-87.52159882 -2.337368011 -2.001413107 0.7044748068 
-87.33095551 -6.228334904 -2.001413107 0.7044748664 
-48.16110611 -12.25606918 -1.136027575 0.8196840286 
-49.38825607 -14.93674278 -1.17948854 0.8134717345 
-49.44761276 -17.39062881 -1.198217511 0.8108102679 
-49.58263016 -22.57084465 -1.245345473 0.8041495681 
-49.49925995 -25.24902725 -1.270233393 0.8006542921 
-49.56173325 -28.12661552 -1.302687526 0.7961195111 
-18.0859623 -13.73985767 -0.5192105174 0.9131307602 
-49.0802269 -40.85361862 -1.459773421 0.7745290995 
-47.18682861 -46.97740555 -1.522085786 0.7661272883 
-46.17190933 -50.25051117 -1.55997467 0.7610630989 
-43.36446762 -56.55702591 -1.629158854 0.7519031167 
-8.252753258 -16.00276756 -0.4115957618 0.9304930568 
-7.381655216 -16.02606392 -0.4033410549 0.9318383932 
-6.543188095 -16.04848671 -0.3961802721 0.9330070615 
-3.981049776 -12.95501423 -0.3098124564 0.9472182393 
-3.362524271 -12.97156239 -0.3063256741 0.947796762 
-2.897685528 -13.6525383 -0.3190422058 0.945689261 
-2.271113157 -13.66929626 -0.3167565763 0.9460676312 
-1.03851068 -13.70226002 -0.314125061 0.94650352 
-0.4274511635 -13.71860313 -0.3137525916 0.9465652108 
1.414033175 -13.76786137 -0.3163818419 0.9461296797 
3.320859194 -13.81885719 -0.3248855472 0.9447225928 
3.983857393 -13.83659172 -0.3291471899 0.9440181851 
6.101933479 -13.89325619 -0.3468748331 0.9410936236 
7.452685356 -13.55062008 -0.3535189629 0.9399998188 
8.092133522 -13.27793884 -0.3554537892 0.9396816492 
10.57533646 -14.31317329 -0.4068128765 0.9312724471 
11.86072731 -13.37875462 -0.4087075591 0.9309630394 
18.36248779 -15.84626389 -0.5544479489 0.9075163603 
18.39847374 -14.50087357 -0.5355073214 0.9105298519 
18.88396835 -13.56656265 -0.5315295458 0.9111640453 
23.76173019 -14.04982853 -0.6310287118 0.8954333067 
26.51152992 -14.12337589 -0.6866725087 0.8867548704 
33.8217926 -14.31890583 -0.8395830393 0.8633368611 
64.06787109 -23.82215691 -1.562525034 0.7607237101 
40.64681244 -13.08700657 -0.9761378765 0.842946887 
78.92485046 -17.85570717 -1.849777222 0.7234221101 
79.60806274 -14.32124519 -1.849013209 0.7235190272 
87.20626068 -7.781625748 -2.001413107 0.704474926 
87.46614075 -3.89465332 -2.001413107 0.7044747472 
87.46613312 3.894650698 -2.001413107 0.7044748068 
80.53103638 7.185954571 -1.84821403 0.7236202359 
75.17365265 10.09532833 -1.733902454 0.7382495999 
71.9252243 12.93912792 -1.670567751 0.7464731336 
42.66707993 11.67028046 -1.011174083 0.8377935886 
74.98138428 27.88039207 -1.828691959 0.7260969281 
33.302845 15.88167286 -0.8434212804 0.8627570271 
30.58632088 18.08509254 -0.8122662306 0.867474556 
64.27529907 41.97178268 -1.754821301 0.7355459332 
65.49510956 47.05175781 -1.843497276 0.7242194414 
27.99037933 22.06079483 -0.8146899343 0.8671066165 
62.67070007 59.14620972 -1.969885468 0.7083730102 
43.46139908 44.83662033 -1.427423954 0.7789253592 
28.16423225 34.76934433 -1.022852421 0.8360829353 
10.95148373 16.29173279 -0.4487431347 0.9244628549 
8.240004539 18.76152229 -0.4684203863 0.9212843776 
12.84286118 33.17715454 -0.8132529855 0.8673247695 
9.941689491 34.52904892 -0.8213824034 0.8660915494 
8.648877144 35.98992157 -0.8461355567 0.8623475432 
16.18951225 83.57414246 -1.945978045 0.711343348 
12.45558071 84.21160126 -1.945978045 0.7113434076 
8.698261261 84.68228149 -1.945978045 0.7113431692 
3.733227491 64.46318054 -1.47606194 0.7723231316 
0.7954834104 59.58567429 -1.362220168 0.7878668308 
-0.5783203244 18.56066895 -0.4244935513 0.9283949137 
-1.551196218 9.336220741 -0.2163468897 0.9628412724 
-2.865322113 9.324120522 -0.2229817212 0.9617238045 
-9.428803444 26.43265152 -0.6415289044 0.8937892318 
-9.547397614 20.72804642 -0.5216799974 0.9127361178 
-9.646464348 18.70528793 -0.4811050296 0.91924119 
-10.45813465 18.2387104 -0.4806059301 0.919321537 
-9.985024452 13.02272892 -0.3751272559 0.9364513755 
-10.636343 11.57589817 -0.359362632 0.9390389323 
-9.715551376 9.672426224 -0.3133688271 0.9466252923 
-10.58293915 9.637495041 -0.3272013664 0.9443395734 
-12.76270485 9.695800781 -0.3663908243 0.93788445 
-19.1680069 12.03550243 -0.5173854232 0.9134224653 
-19.20902824 9.798202515 -0.4929344058 0.917339921 
-19.34205437 7.785727501 -0.4766250551 0.9199621081 
-21.80509758 7.668793678 -0.5283817649 0.9116660357 
-47.16821671 12.0033741 -1.112607837 0.8230509758 
-47.32358932 9.824408531 -1.104614735 0.8241679668 
-49.59740448 8.013911247 -1.148476124 0.817900002 
-67.89256287 7.890190125 -1.562434793 0.7607355714 
-80.68106842 5.754047871 -1.849013209 0.7235189676 
-87.53892517 -1.558217764 -2.001413107 0.7044748068 
-79.96202087 -12.19088364 -1.849013209 0.7235189676 
-49.406147 -16.88366699 -1.193524241 0.8114764094 
-49.67306137 -19.48315811 -1.219723225 0.8077641129 
-49.82003403 -22.14592171 -1.246309519 0.8040139079 
-49.71601105 -30.60316849 -1.334536672 0.791693151 
-49.17588425 -40.19761276 -1.451913714 0.7755947113 
-48.45091248 -43.33986664 -1.486015439 0.7709794044 
-43.46755219 -55.65893936 -1.614366055 0.7538526654 
-41.72573471 -58.62929916 -1.64499855 0.7498212457 
-39.55910492 -61.17376328 -1.665319324 0.7471592426 
-9.349038124 -15.97344685 -0.4230894446 0.9286230803 
-4.106537819 -12.95166016 -0.3105943203 0.9470886588 
-3.485156059 -12.96827126 -0.306967169 0.9476901293 
-2.395751953 -13.6659565 -0.3171609342 0.9460006952 
-1.775546789 -13.68254852 -0.3153985441 0.9462925792 
0.06108886749 -13.73166466 -0.3139021099 0.9465404749 
2.545717716 -13.79813004 -0.320741564 0.9454079866 
3.849887609 -13.83300781 -0.3282339275 0.9441691041 
4.527802467 -13.85114193 -0.3331181407 0.9433622956 
5.953276157 -13.88927746 -0.34543854 0.9413301945 
7.445287704 -13.82723141 -0.3589921594 0.9390997887 
7.928300381 -13.27356434 -0.3534350395 0.9400139451 
10.3757906 -14.30783176 -0.4040189981 0.9317278266 
11.40220165 -14.33528805 -0.4187162817 0.9293341041 
11.64466763 -13.37296867 -0.4053561389 0.9315105677 
18.31567574 -17.59653854 -0.5806054473 0.9033709764 
18.39147758 -14.76251411 -0.5391053557 0.9099565744 
18.52044487 -13.55683804 -0.5246716142 0.9122583866 
21.95602798 -14.61756325 -0.6029624939 0.8998428583 
32.94649887 -14.29549313 -0.8209815025 0.8661522865 
69.36650848 -19.63840866 -1.648007274 0.7494267225 
76.23311615 -17.96151733 -1.79036665 0.7309838533 
82.09835815 -11.77013874 -1.895915747 0.7176036835 
87.42800903 -4.673071384 -2.001413107 0.7044747472 
87.54934692 -0.7793310285 -2.001413107 0.7044747472 
80.62129211 6.471555233 -1.848890662 0.723534584 
42.60892487 9.242006302 -0.9966674447 0.8399235606 
77.64133453 20.49577141 -1.835641265 0.7252143621 
76.5193634 23.88758087 -1.832446814 0.7256199718 
42.8347168 17.68691444 -1.059368372 0.8307561278 
30.64803123 15.97842026 -0.7900964022 0.8708472252 
28.20607758 21.82657623 -0.8152807355 0.8670169711 
27.99328041 23.72593117 -0.8388361335 0.8634498119 
61.49491882 62.32162857 -2.001428366 0.7044728994 
28.15630341 34.13412857 -1.011494994 0.8377465606 
19.50131798 34.722435 -0.9103562832 0.8527085185 
8.848637581 17.53977585 -0.4490841627 0.9244076014 
8.233163834 18.30172348 -0.4587518275 0.922844708 
20.08201218 50.53730774 -1.243127227 0.8044621348 
11.51531219 33.21324539 -0.8035745025 0.8687949777 
24.28057098 81.59160614 -1.945978045 0.7113434076 
11.71780777 57.73317719 -1.346654892 0.7900153995 
9.450737 84.60154724 -1.945978045 0.711343348 
5.677656174 84.93821716 -1.945978045 0.711343348 
-0.4881249964 21.93301201 -0.5015019178 0.9159653783 
-1.89680171 9.345463753 -0.2179884315 0.9625646472 
-2.774003744 9.321679115 -0.2223240584 0.9618344903 
-9.379843712 23.60482407 -0.5806353688 0.9033662081 
-10.44837856 18.60350037 -0.4877485633 0.9181729555 
-9.753432274 15.68805122 -0.4222788811 0.9287548065 
-10.5347414 15.37455082 -0.4260446131 0.9281428456 
-9.79843235 13.01773453 -0.372456193 0.9368893504 
-10.65708447 10.8002634 -0.3468466103 0.9410982132 
-10.39005852 9.632343292 -0.3238735795 0.9448895454 
-20.01911545 11.59765625 -0.5288755894 0.9115873575 
-21.72149277 10.12235355 -0.5478106737 0.9085711837 
-18.5286808 7.650668621 -0.458242029 0.9229269624 
-47.10683823 14.70566845 -1.128094196 0.8208236098 
-63.1235466 7.905756474 -1.454245567 0.7752782702 
-80.6266861 6.471664906 -1.849013209 0.7235189676 
-87.49734497 3.115952015 -2.001413107 0.7044747472 
-87.42798615 -4.673080921 -2.001413107 0.7044748664 
-87.1335907 -8.557534218 -2.001413107 0.7044747472 
-80.06733704 -11.47899914 -1.849013209 0.7235189676 
-76.17084503 -14.40400887 -1.772087097 0.7333265543 
-52.26557922 -14.79692841 -1.241721869 0.804659605 
-49.42477036 -18.87987709 -1.209450126 0.8092176914 
-49.46544266 -21.46308136 -1.23261106 0.8059439659 
-49.64011002 -29.95044327 -1.325290918 0.7929754853 
-49.53958511 -32.98172379 -1.360469818 0.7881082296 
-49.52507401 -39.75324631 -1.451722264 0.7756206989 
-48.50362778 -42.61633301 -1.475946784 0.7723395228 
-47.58985901 -45.72132111 -1.508594275 0.7679384351 
-46.69438934 -49.03794479 -1.547888756 0.7626745701 
-45.2069664 -51.91663361 -1.573661208 0.7592427731 
-7.732460976 -14.36054611 -0.3728387356 0.9368265867 
-6.053671837 -16.06157112 -0.3923727274 0.9336290956 
-3.608305693 -12.96498966 -0.3076379299 0.9475789666 
-2.520659208 -13.66261673 -0.317591399 0.9459294677 
-1.899018526 -13.67924786 -0.3156994581 0.9462426901 
-0.6716992259 -13.71207047 -0.3138268888 0.9465529323 
-0.06107421592 -13.72839355 -0.3138275146 0.9465528727 
2.418325186 -13.7947216 -0.3201495409 0.9455060363 
5.805830002 -13.88532639 -0.3440414369 0.9415604472 
7.339506626 -13.92634201 -0.359854877 0.9389579892 
7.766371727 -13.26922321 -0.3514657617 0.9403380752 
11.19102001 -14.32964325 -0.4156265259 0.9298368096 
11.4956007 -13.44138145 -0.4043070972 0.9316805005 
18.26407433 -19.52569771 -0.6111782789 0.8985498548 
18.38437653 -15.02784634 -0.5427967906 0.909368813 
21.5207901 -14.6059227 -0.5945587158 0.9011676908 
22.18274879 -13.65479946 -0.5954571366 0.9010257125 
28.40955925 -14.17413998 -0.7257698774 0.8807073832 
69.34877014 -20.30154228 -1.651811838 0.7489278316 
79.9620285 -12.19086933 -1.849013209 0.7235189676 
87.38296509 -5.45070076 -2.001413107 0.7044748068 
87.52159882 2.337346077 -2.001413107 0.7044748068 
80.68106079 5.754050255 -1.849013209 0.7235189676 
71.83005524 11.60624981 -1.663298011 0.7474238873 
78.79178619 16.35723686 -1.839544296 0.7247191072 
74.1357193 29.8418026 -1.82684958 0.7263311148 
33.32275772 15.16907406 -0.8369532824 0.8637343645 
30.57674408 17.35250473 -0.8036820889 0.868778944 
29.93106842 20.70540047 -0.8319672346 0.8644884825 
62.04721069 61.77171326 -2.001428366 0.7044730783 
28.12363625 33.48285675 -0.999573946 0.8394962549 
43.76172638 57.07519531 -1.644081593 0.7499414086 
19.4873333 33.98542023 -0.8955454826 0.8549218178 
9.043012619 17.53515625 -0.4510092139 0.9240962267 
8.239442825 17.88835907 -0.4502111673 0.9242252707 
11.27282238 36.68371201 -0.8772723079 0.857660532 
13.95244598 83.9765625 -1.945978045 0.7113434076 
10.20311546 84.51412201 -1.945978045 0.7113432884 
6.43347168 84.88432312 -1.945978045 0.711343348 
-0.3578564227 26.80357933 -0.6127709746 0.898299396 
-0.7398583889 12.77545357 -0.2925289869 0.9500878453 
-0.9640282989 9.386288643 -0.2156945765 0.9629512429 
-1.809892535 9.343139648 -0.2175497413 0.962638557 
-9.241132736 27.44073105 -0.6618968248 0.8906085491 
-9.591200829 24.77682114 -0.6073412895 0.899153471 
-9.914901733 22.5748291 -0.5636285543 0.9060592651 
-9.557778358 15.68282223 -0.4198324382 0.9291525483 
-10.52709484 15.66040039 -0.4313533008 0.9272809029 
-9.957133293 12.29227543 -0.3616189361 0.9386683702 
-11.18653774 9.653647423 -0.3377729654 0.9425939918 
-12.34856415 9.732602119 -0.3594181836 0.9390296936 
-19.14937401 10.20136738 -0.4959860146 0.91685009 
-16.7022953 7.965009689 -0.422998637 0.9286378622 
-20.6558342 7.680370808 -0.5037660003 0.9156024456 
-23.28794289 7.497988224 -0.5592619181 0.9067517519 
-80.18153381 21.9312439 -1.900236368 0.7170613408 
-47.19831467 10.67797375 -1.106234074 0.8239750266 
-80.65558624 14.50969219 -1.873343468 0.7204445004 
-87.55281067 -1.464843717e-05 -2.001413107 0.7044747472 
-87.20630646 -7.781606197 -2.001413107 0.7044748068 
-80.1663208 -10.76584435 -1.849013209 0.7235189676 
-79.40893555 -14.28539562 -1.844389319 0.7241049409 
-78.78122711 -17.82322693 -1.846411824 0.7238484621 
-49.58700562 -15.96569824 -1.190839052 0.8118578196 
-49.54403687 -18.42200661 -1.208310366 0.80937922 
-26.05051231 -12.42313004 -0.6597495675 0.8909432292 
-49.4157753 -26.32509232 -1.279913783 0.7992989421 
-49.65861893 -32.42704391 -1.355762124 0.7887579799 
-47.92752457 -45.23218155 -1.506473064 0.7682234645 
-46.80779648 -48.28894806 -1.537336349 0.7640843391 
-45.68095016 -51.52753448 -1.574132204 0.7591803074 
-44.12547302 -54.47379303 -1.60252893 0.7554166317 
-42.5224762 -57.55188751 -1.635754943 0.7510356307 
-40.44543457 -60.1677475 -1.657273173 0.7482122183 
-9.728700638 -15.9633007 -0.4273408353 0.927932322 
-8.793300629 -15.98831463 -0.4171142578 0.9295947552 
-7.899990082 -16.01220703 -0.4081559777 0.9310534 
-6.21574688 -16.05724525 -0.3936021328 0.9334281683 
-4.359414101 -12.9448967 -0.3122434914 0.9468153119 
-3.278437376 -13.64234352 -0.3207357824 0.9454089999 
-2.022797823 -13.67593193 -0.3160261512 0.9461886287 
-1.406284094 -13.69242668 -0.3146484196 0.9464167953 
0.4281640649 -13.74147892 -0.3142759502 0.9464785457 
2.291396379 -13.79132271 -0.3195843399 0.9455994964 
2.930771351 -13.80842209 -0.3226850927 0.9450864792 
4.94481945 -13.8622942 -0.3364422619 0.9428135753 
5.659638405 -13.8814106 -0.3426831067 0.9417843223 
6.402973652 -13.90130329 -0.3498654068 0.9406010509 
7.606156826 -13.26494122 -0.3495449722 0.9406542182 
9.984828949 -14.29738235 -0.3986425698 0.9326050878 
18.25492859 -19.86749458 -0.6167660356 0.8976714611 
18.2990551 -18.21783638 -0.5902645588 0.9018449783 
18.33962059 -16.70123482 -0.5670226812 0.9055210948 
18.41219902 -13.98771477 -0.5285763144 0.9116351008 
21.09767723 -14.59460449 -0.5864317417 0.9024502039 
22.0201149 -13.82632256 -0.5943723917 0.9011971354 
27.75349236 -14.15659618 -0.7121993899 0.8828017712 
31.30742455 -14.25165462 -0.7863350511 0.8714207411 
34.7580719 -13.99115658 -0.8565072417 0.8607832789 
79.21968842 -16.4460392 -1.849534392 0.7234529853 
71.87223053 10.95784187 -1.661948919 0.7476001382 
74.423172 29.19081879 -1.827460885 0.7262533903 
33.73591614 14.99625301 -0.8439449668 0.8626779318 
67.64679718 41.64059448 -1.815860152 0.7277295589 
65.97742462 44.77817917 -1.822764277 0.7268506289 
62.59458542 61.21704865 -2.001428366 0.7044728994 
28.17985725 36.08345032 -1.046586394 0.8326170444 
42.64409256 65.94445038 -1.795189381 0.7303671837 
9.258374214 17.56729507 -0.4539367557 0.9236228466 
20.17134476 48.2420311 -1.195309758 0.8112232089 
11.31392097 35.68312836 -0.8557164669 0.8609021902 
9.235673904 34.36598587 -0.8134637475 0.8672927618 
10.96850109 84.41950989 -1.945978045 0.7113395929 
-0.1532812417 34.45231247 -0.7875704765 0.8712323308 
-0.8826708794 9.417920113 -0.2162322998 0.9628605843 
-1.288608313 9.28194809 -0.2142158449 0.9632005095 
-2.148730516 9.304955482 -0.2183042914 0.9625114799 
-2.592983246 9.316835403 -0.2210726887 0.9620451927 
-9.028486252 27.61932564 -0.6642407179 0.8902432323 
-9.345463753 24.79535675 -0.6057323813 0.8994067311 
-9.464062691 22.08006859 -0.5491504073 0.9083581567 
-9.59641552 19.89478493 -0.5049267411 0.9154163003 
-10.35475063 15.70414066 -0.4300021231 0.9275001884 
-10.61975574 12.19593239 -0.3696742058 0.937345624 
-10.64689922 11.18124962 -0.3529382348 0.940095365 
-10.0156641 9.622328758 -0.3174946606 0.9459455609 
-12.3438673 9.908207893 -0.361833185 0.9386329055 
-13.26408195 9.709218979 -0.3757617176 0.9363473058 
-20.03212357 13.336689 -0.5501263142 0.908202827 
-18.67101479 8.101327896 -0.4652543664 0.9217947721 
-47.18832397 11.11815929 -1.108237147 0.8236806393 
-47.86753464 9.051831245 -1.113400578 0.8229051232 
-55.27606964 7.924750805 -1.276502252 0.7997761965 
-79.90626526 7.847797871 -1.835405231 0.7252442837 
-87.49732208 -3.116313457 -2.001413107 0.7044748068 
-87.27207184 -7.005434513 -2.001413107 0.7044748664 
-82.24867249 -10.30136204 -1.8948524 0.7177372575 
-79.73233795 -13.61243629 -1.849013209 0.7235189676 
-55.15563965 -14.55996513 -1.304020643 0.7959333658 
-49.49507141 -15.45123482 -1.18527925 0.8126479387 
-49.43222046 -20.41108894 -1.222534776 0.8073664308 
-49.41046143 -23.0255909 -1.246120095 0.8040406108 
-49.4388504 -28.64139175 -1.306100011 0.795643568 
-49.62256241 -34.98421478 -1.38791132 0.7843319774 
-49.73762131 -38.48824692 -1.437635422 0.7775350809 
-48.89456558 -41.44102097 -1.465158343 0.7737992406 
-47.05345917 -47.68605042 -1.531411409 0.7648773789 
-45.74113846 -50.67982864 -1.560602069 0.7609797716 
-44.4916153 -53.93750381 -1.598331213 0.7559714317 
-42.77061081 -56.82289505 -1.625784993 0.7523471117 
-9.92134285 -15.95815372 -0.429549098 0.9275737405 
-8.976830482 -15.98340321 -0.4190545678 0.9292791486 
-8.075624466 -16.00750923 -0.4098524451 0.9307770133 
-7.211484432 -16.03062057 -0.4018241763 0.9320858121 
-3.856235266 -12.95834923 -0.3090597391 0.9473430514 
-3.375585794 -13.51590347 -0.3184605241 0.9457861781 
-2.146840811 -13.67262173 -0.3163784742 0.9461302757 
-0.3053222597 -13.7218647 -0.3137525916 0.9465652108 
1.538364172 -13.77118587 -0.31676054 0.9460670352 
2.164951086 -13.78793907 -0.3190470934 0.9456884861 
3.452128887 -13.82236767 -0.3256779313 0.9445915818 
4.118652344 -13.84019947 -0.3300918639 0.9438620806 
4.804868221 -13.85854912 -0.3353001475 0.9430021048 
7.459863186 -13.28240681 -0.3482394218 0.9408687949 
12.08041191 -13.3846283 -0.4121575952 0.9304013252 
18.36989021 -15.56952572 -0.5504650474 0.9081492424 
18.40537834 -14.24268532 -0.5319993496 0.9110891223 
22.01288223 -14.09666443 -0.5975399613 0.9006972909 
27.12148666 -14.13969231 -0.6991813779 0.8848155141 
33.88220215 -13.99017048 -0.8379584551 0.8635824323 
66.98960114 -20.91229439 -1.604230165 0.7551908493 
87.4973526 -3.11594224 -2.001413107 0.7044747472 
80.77069855 4.317216873 -1.849013209 0.7235189676 
42.67695236 12.0824995 -1.0139184 0.8373913169 
76.02972412 25.22826767 -1.83118546 0.7257802486 
74.70502472 28.537117 -1.828074932 0.7261753678 
33.32024765 16.25558472 -0.8474936485 0.8621423841 
30.55266571 16.62685776 -0.7951421142 0.8700785041 
66.14781189 44.03952408 -1.816568732 0.7276382446 
65.26877594 47.77663422 -1.849024296 0.7235175967 
27.9628334 22.44527817 -0.8196687698 0.866351366 
27.99074364 24.5932579 -0.8517453074 0.8615009785 
62.6992569 60.23692703 -1.987552285 0.7061859965 
60.37611008 63.40619659 -2.001428366 0.7044727802 
28.78536224 33.05741882 -1.002015352 0.8391376734 
28.17360687 35.42093658 -1.034602523 0.8343651891 
11.32805157 17.18027306 -0.4704208374 0.9209618568 
19.54341507 36.29561996 -0.9423319101 0.8479495049 
8.477216721 17.57470703 -0.4460433722 0.9248996973 
20.66395187 48.20988083 -1.199020982 0.810696125 
12.56018543 54.39129639 -1.276078343 0.7998356223 
15.44489193 83.71495056 -1.945978045 0.711343348 
-1.637123942 9.33852005 -0.2167292684 0.9627768397 
-2.957187414 9.326581955 -0.2236611843 0.9616094232 
-9.416274071 22.51980972 -0.5579826236 0.9069551826 
-9.568603516 20.29687881 -0.5129510164 0.9141317606 
-9.83164978 15.20341301 -0.4138799906 0.9301211238 
-10.5257473 12.30747986 -0.370200336 0.9372592568 
-10.77994156 9.642763138 -0.3306249976 0.9437738061 
-13.01023388 9.702421188 -0.3710027933 0.9371276498 
-19.17707443 11.80459976 -0.5147747397 0.9138399363 
-22.10544395 7.554013729 -0.5340092182 0.9107685089 
-26.25390053 7.685830116 -0.6253387332 0.8963254094 
-80.39472198 19.69862747 -1.892146111 0.7180773616 
-47.33220291 9.387700081 -1.103239894 0.8244265914 
-87.53894043 1.558608413 -2.001413107 0.7044747472 
-79.85029602 -12.90248489 -1.849013209 0.7235189676 
-70.0871582 -14.55016041 -1.636317372 0.7509614229 
-48.16106796 -12.25627422 -1.136027694 0.819683969 
-49.38825607 -14.93674278 -1.17948854 0.8134717345 
-49.58245468 -22.57099152 -1.245343804 0.8041499257 
-49.56173325 -28.12661552 -1.302687526 0.7961195111 
-49.49241638 -31.07609749 -1.335911632 0.7915037274 
-49.0802269 -40.85361862 -1.459773421 0.7745290995 
-47.18682861 -46.97740555 -1.522085786 0.7661272883 
-46.17189026 -50.25089264 -1.559981346 0.761062324 
-44.64736557 -53.15534592 -1.586863995 0.7574898601 
-43.36385345 -56.55673218 -1.629144907 0.7519049644 
-10.11600113 -15.95294857 -0.4318147302 0.9272059798 
-9.162094116 -15.97845173 -0.4210461378 0.9289551973 
-8.252670288 -16.00277328 -0.4115949869 0.930493176 
-7.381655216 -16.02606392 -0.4033410549 0.9318383932 
-6.543105125 -16.04849052 -0.3961797953 0.9330071211 
-3.981049776 -12.95501423 -0.3098124564 0.9472182393 
-3.362587929 -12.97155762 -0.306325227 0.9477967024 
-2.897685528 -13.6525383 -0.3190422058 0.945689261 
-1.652236342 -13.68584442 -0.3151229918 0.9463381767 
-1.038574219 -13.70225525 -0.3141253591 0.94650352 
0.1834277362 -13.73493576 -0.3140019178 0.9465239644 
0.7963818312 -13.75133801 -0.3148753345 0.9463792443 
3.320859194 -13.81885719 -0.3248855472 0.9447225928 
3.983925581 -13.83658695 -0.3291473389 0.9440181255 
5.370546818 -13.87368584 -0.3400787413 0.9422137737 
6.101860046 -13.89324665 -0.3468739092 0.9410938025 
6.864687443 -13.91365242 -0.3546639979 0.9398114681 
7.452685356 -13.55074692 -0.3535215557 0.9399994016 
10.57533646 -14.31317329 -0.4068128765 0.9312724471 
11.47617626 -14.16769028 -0.4167867899 0.9296479821 
18.2818718 -18.86021042 -0.600441277 0.9002400041 
18.36249161 -15.84614182 -0.554446578 0.9075165987 
18.39847374 -14.50087357 -0.5355073214 0.9105298519 
18.88414955 -13.56656742 -0.5315327048 0.9111635089 
23.7619648 -14.0498333 -0.6310335994 0.8954325914 
64.06787109 -23.82215691 -1.562525034 0.7607237101 
40.64676285 -13.08718204 -0.9761381149 0.842946887 
86.77378082 -11.65351295 -2.001413107 0.7044748068 
87.20626068 -7.781625748 -2.001413107 0.704474926 
87.5528183 -2.441406104e-05 -2.001413107 0.7044747472 
87.46611023 3.8950243 -2.001413107 0.7044748068 
80.53103638 7.185954571 -1.84821403 0.7236202359 
75.17366791 10.09566116 -1.733904123 0.7382494211 
71.9252243 12.93912792 -1.670567751 0.7464731336 
42.61850357 9.642072678 -0.9988595247 0.8396013379 
42.66707993 11.67028046 -1.011174083 0.8377935886 
76.27738953 24.55927467 -1.831814885 0.7257001996 
74.98149109 27.88010406 -1.828692317 0.7260969281 
63.87853241 27.04415512 -1.585694432 0.7576432824 
33.30276108 15.8814621 -0.8434178233 0.8627576232 
30.60156631 16.30226517 -0.7926081419 0.8704644442 
30.58631516 18.08491135 -0.812264204 0.867474854 
27.99037933 22.06079483 -0.8146899343 0.8671066165 
62.67070007 59.14620972 -1.969885468 0.7083730102 
29.29329109 33.04248047 -1.009422898 0.8380504847 
28.16423988 34.76965332 -1.022858024 0.8360821009 
11.05975056 18.14736366 -0.4858216643 0.9184847474 
8.240004539 18.76152229 -0.4684203863 0.9212843776 
12.84302711 33.17716599 -0.8132546544 0.8673245311 
11.26163578 33.44040298 -0.806614995 0.8683330417 
9.941825867 34.52898407 -0.8213821054 0.8660916686 
8.648877144 35.98992157 -0.8461355567 0.8623475432 
8.698271751 84.68231964 -1.945978045 0.71134305 
3.733227491 64.46318054 -1.47606194 0.7723231316 
0.795263648 59.5856781 -1.36221993 0.7878668308 
-0.7434276938 9.808246613 -0.2248542756 0.9614085555 
-1.120034099 9.277436256 -0.2136178613 0.9633013606 
-2.413935423 9.312046051 -0.2199047804 0.962241888 
-2.865273476 9.324120522 -0.2229815573 0.9617238641 
-9.46390152 23.21244049 -0.5730319023 0.9045692086 
-9.547397614 20.72804642 -0.5216799974 0.9127361178 
-9.646464348 18.70545769 -0.4811085463 0.9192406535 
-9.802758217 15.45864677 -0.4184371829 0.9293795228 
-9.98511219 13.02273369 -0.3751284778 0.9364511967 
-10.636343 11.57580566 -0.3593617082 0.9390392303 
-9.715551376 9.672426224 -0.3133688271 0.9466252923 
-10.58303642 9.637495041 -0.3272029161 0.9443392754 
-12.76282692 9.695800781 -0.3663932681 0.9378840327 
-14.06633759 9.730669022 -0.3909895122 0.9338551164 
-19.1680069 12.03550243 -0.5173854232 0.9134224653 
-17.67037582 8.04391098 -0.4438183606 0.925259769 
-19.34205437 7.785727501 -0.4766250551 0.9199621081 
-79.9066925 24.16658592 -1.908336282 0.7160452604 
-47.16822815 12.00316906 -1.112603784 0.823051095 
-49.59732819 8.01368618 -1.148473501 0.8179003596 
-67.89256287 7.890190125 -1.562434793 0.7607355714 
-80.68108368 5.753725529 -1.849013209 0.7235189676 
-87.53892517 -1.558598638 -2.001413107 0.7044748068 
-87.0539856 -9.332798004 -2.001413107 0.7044747472 
-79.96202087 -12.19088364 -1.849013209 0.7235189676 
-49.82034683 -14.58492661 -1.186663508 0.8124510646 
-49.67306137 -19.48315811 -1.219723225 0.8077641129 
-49.82017899 -22.14574623 -1.246311545 0.8040137291 
-49.52041245 -27.52358818 -1.295112848 0.7971755862 
-49.71601105 -30.60316849 -1.334536672 0.791693151 
-49.69413376 -33.72718048 -1.372908115 0.7863942981 
-49.17579651 -40.19787598 -1.451916575 0.7755944133 
-47.4239769 -46.3807373 -1.516361356 0.766894877 
-42.67914581 -49.90367508 -1.501067758 0.7689507008 
-39.55932999 -61.17354965 -1.665318012 0.7471594214 
-7.568398476 -14.36051273 -0.3710745275 0.9371159077 
-7.553046703 -16.02147865 -0.4049012661 0.9315840006 
-6.708554745 -16.04405785 -0.3975297511 0.9327867627 
-5.89250946 -16.06589317 -0.3911808729 0.9338237643 
-4.1064744 -12.95166016 -0.3105937243 0.9470887184 
-3.485156059 -12.96827126 -0.306967169 0.9476901293 
-1.160991192 -13.69897938 -0.3142745793 0.9464787841 
1.913242102 -13.78120041 -0.3180528283 0.9458530545 
3.190278292 -13.81536102 -0.3241233826 0.9448486567 
4.527802467 -13.85114193 -0.3331181407 0.9433622956 
7.445287704 -13.82723141 -0.3589921594 0.9390997887 
7.928378582 -13.27356434 -0.3534341455 0.9400138259 
9.417167664 -14.28219223 -0.3910671771 0.9338424206 
10.37588882 -14.30783653 -0.4040206671 0.9317275882 
11.40220165 -14.33528805 -0.4187162817 0.9293341041 
11.64477062 -13.37296867 -0.4053529203 0.9315103292 
18.39147758 -14.76251411 -0.5391053557 0.9099565744 
18.52027512 -13.55683804 -0.5246682763 0.9122588634 
21.95602798 -14.61756325 -0.6029624939 0.8998428583 
22.65218163 -13.6673584 -0.6047701836 0.8995581865 
25.92350578 -14.10765076 -0.6746667624 0.8886201978 
29.09116554 -14.19237804 -0.7399275303 0.8785277009 
64.05063629 -24.46656609 -1.567351699 0.7600813508 
76.23311615 -17.96151733 -1.79036665 0.7309838533 
79.47931671 -15.02929211 -1.849055171 0.7235136628 
87.49734497 3.115925312 -2.001413107 0.7044747472 
80.62129211 6.471555233 -1.848890662 0.723534584 
79.55084991 9.963104248 -1.832699418 0.7255878448 
71.8400116 12.26498127 -1.665986776 0.747071743 
77.64133453 20.49577141 -1.835641265 0.7252143621 
76.5194931 23.88724518 -1.832447171 0.7256199121 
30.64800072 15.97857857 -0.7900974751 0.8708470464 
65.65593719 46.28784943 -1.836354613 0.7251237631 
27.99328041 23.72593117 -0.8388361335 0.8634498119 
61.49519348 62.32136536 -2.001428366 0.7044728994 
28.15628624 34.13379288 -1.011488914 0.8377475142 
11.1213522 16.23049736 -0.4497645497 0.9242973924 
20.39674568 32.8074913 -0.8830866218 0.8567880988 
24.28057098 81.59160614 -1.945978045 0.7113434076 
8.619848251 34.51461029 -0.8132206798 0.8673297763 
-1.045019507 9.354799271 -0.2151760757 0.9630386233 
-1.465556622 9.333925247 -0.2159829736 0.9629026055 
-2.774003744 9.321679115 -0.2223240584 0.9618344903 
-9.379843712 23.60482407 -0.5806353688 0.9033662081 
-10.38996601 9.632338524 -0.3238745034 0.9448897839 
-20.01911545 11.59765625 -0.5288755894 0.9115873575 
-15.26752853 7.959653378 -0.3935888708 0.933430016 
-18.52881241 7.650624752 -0.4582438469 0.9229265451 
-47.10683823 14.70543385 -1.128092051 0.8208238482 
-80.54676819 17.4704628 -1.884072065 0.7190929055 
-63.1235466 7.905756474 -1.454245567 0.7752782702 
-87.49734497 3.115952015 -2.001413107 0.7044747472 
-87.54933167 -0.7789697051 -2.001413107 0.7044748068 
-80.06733704 -11.47899914 -1.849013209 0.7235189676 
