# .PCD v0.7 - Point Cloud Data file format
VERSION 0.7
FIELDS x y z intensities
SIZE 4 4 4 4
TYPE F F F F
COUNT 1 1 1 1
WIDTH 940
HEIGHT 1
VIEWPOINT 0 0 0 1 0 0 0
POINTS 940
DATA ascii
-10.25675011 99.86133575 27.74987411 0.6592805386 
-14.68889332 99.30997467 27.75089264 0.6592703462 
-18.53363419 -13.31483841 6.084284306 0.9098540545 
-14.21465015 -13.41524887 5.211083412 0.9222740531 
-13.2305584 -13.64922333 5.068099976 0.9243238568 
-11.93996048 -13.46814442 4.79870224 0.9281984568 
-9.984562874 -13.51360321 4.479653358 0.932807982 
-9.097824097 -13.53422832 4.34788847 0.9347183704 
-7.46451664 -13.57219696 4.129700184 0.93789047 
-5.747421741 -13.08616161 3.810620546 0.9425486326 
-5.040920258 -13.02225304 3.722959518 0.9438324571 
-3.780976534 -13.13188648 3.643371582 0.944999516 
-1.354504347 -13.18829536 3.534675837 0.946595788 
-0.7645556331 -13.2020092 3.525732279 0.9467272162 
0.4122216702 -13.22936726 3.528840303 0.9466815591 
1.003730416 -13.24312019 3.54092288 0.9465039372 
2.819772959 -13.28534412 3.620956898 0.945328474 
6.117560863 -13.28166676 3.898643732 0.9412612915 
7.682672977 -13.39839363 4.117780685 0.9380640388 
9.38462162 -13.43795395 4.369939327 0.9343984723 
10.25734615 -13.37790966 4.494484901 0.9325931668 
18.69515038 -18.61213875 7.033349037 0.8965446353 
16.22125626 -4.127997875 4.462648392 0.933054328 
16.23168564 -3.369702101 4.41986084 0.9336744547 
16.26558495 -2.628178596 4.392873287 0.9340658188 
16.32281876 -1.896953106 4.381177902 0.9342354536 
55.9840126 31.11574364 17.07658958 0.7670913935 
44.03950119 32.84260559 14.64703369 0.7965816855 
44.11441803 36.06026459 15.19094086 0.7898827195 
45.67743683 40.85908508 16.33948898 0.7759210467 
44.32741928 43.35201263 16.53072166 0.7736207247 
44.37955856 47.4452095 17.32083511 0.7641877532 
44.5502243 52.09123993 18.27462769 0.7529537082 
44.60476303 57.11480331 19.32106972 0.7408183813 
5.727045536 21.31034088 5.883220673 0.9126989841 
15.50702381 88.4553299 23.94302368 0.6895161867 
11.49084187 88.5486908 23.80620766 0.690982461 
7.512497425 88.64115143 23.71764374 0.6919334531 
-0.3949096501 88.8249588 23.68214798 0.6923148036 
-4.355573654 88.91703033 23.73490334 0.6917480826 
-8.34173584 89.00969696 23.83517075 0.6906719804 
-32.34352112 -13.35496998 9.329410553 0.8651447892 
-31.50810814 -14.68297863 9.267843246 0.8659722805 
-21.03114891 -13.46787548 6.658360481 0.9017798901 
-16.02739906 -13.58419895 5.601469994 0.916700542 
-14.68636894 -13.61537075 5.339381695 0.9204386473 
-11.29600525 -13.69419861 4.732902527 0.9291472435 
-10.3246479 -13.71678638 4.577282429 0.9313949943 
-9.271008492 -13.53019524 4.37293148 0.9343550205 
-8.424118042 -13.54989243 4.253846169 0.9360842705 
-7.620585918 -13.56856441 4.149065971 0.9376084208 
-5.885454178 -13.08295155 3.824786901 0.9423413277 
-2.06817627 -13.17170143 3.554777861 0.9463003278 
-1.472927213 -13.18554401 3.537310123 0.946557045 
-0.8823315501 -13.19927216 3.526957989 0.9467092156 
0.8850878477 -13.24035835 3.537938833 0.9465478063 
3.320905685 -13.29699707 3.654049635 0.9448428154 
5.302124023 -13.34305191 3.82801199 0.9422941208 
6.009875298 -13.35950184 3.905637741 0.9411591291 
9.204948425 -13.43377876 4.341768742 0.934807241 
10.06622505 -13.37346172 4.462720394 0.9330533147 
12.24533463 -14.8450489 5.130654335 0.9234265685 
18.35757828 -18.60429573 6.968367577 0.8974496722 
16.22348022 -4.282656193 4.473571301 0.9328961372 
16.25694275 -2.775444269 4.397034645 0.9340054393 
57.12776184 31.08915901 17.34036064 0.7639560699 
44.09899139 35.39764023 15.07654667 0.7912870049 
44.52748871 51.1361618 18.0778904 0.7552573681 
5.929255009 21.30447388 5.89592886 0.9125187993 
4.922770977 21.31804657 5.833246708 0.913407445 
12.29051018 88.53009796 23.82967567 0.6907307506 
-3.561950684 88.89858246 23.72058105 0.6919019818 
-7.5417943 88.99111176 23.81127167 0.6909282207 
-17.97364044 102.5258102 27.75162506 0.6499230266 
-20.01616478 90.33974457 24.66991615 0.6817778945 
-32.55190659 -13.10315895 9.355501175 0.8647943139 
-30.89453316 -14.0637598 9.050186157 0.8689037561 
-21.43419647 -13.45850563 6.747771263 0.900528729 
-19.51956177 -13.50300789 6.328038692 0.9064169526 
-12.5558033 -13.66491222 4.947656631 0.9260540605 
-11.49837875 -13.68949223 4.766456127 0.9286632538 
-10.51381302 -13.71238708 4.606858253 0.9309673905 
-9.446212769 -13.52612305 4.398615837 0.9339824915 
-8.589809418 -13.54602528 4.276464939 0.9357556105 
-7.778129578 -13.56490231 4.168950081 0.9373190403 
-5.339240551 -13.09565353 3.770519257 0.9431357384 
-4.648398399 -13.03138351 3.688762665 0.9443336725 
-4.033615589 -13.12600517 3.661081553 0.9447396994 
-3.406364679 -13.14059067 3.619258404 0.9453533888 
-1.000192881 -13.19653511 3.528464317 0.9466870427 
0.176550284 -13.22389126 3.525982618 0.9467235208 
1.360996008 -13.25142574 3.551594257 0.9463471174 
2.572451115 -13.27958488 3.606334686 0.9455431104 
3.817285061 -13.25800514 3.67835927 0.9444862604 
4.459863186 -13.24312973 3.72563839 0.9437931776 
5.163874626 -13.33983612 3.813754082 0.942502737 
7.364875317 -13.39100075 4.074569702 0.9386936426 
8.172463417 -13.40977001 4.186860085 0.9370584488 
9.877775192 -13.36908436 4.431743145 0.9335021377 
12.9238987 -15.95485783 5.474247456 0.9185131788 
16.45413208 -18.56005287 6.612953186 0.9024159908 
18.0261879 -18.59659195 6.905119419 0.8983314037 
19.74709702 -18.63659668 7.239282608 0.8936824203 
16.24801064 -2.922983408 4.401481152 0.9339409471 
48.02702713 31.36159897 15.2928915 0.7886333466 
44.21976852 31.76810455 14.51660824 0.7981966138 
44.08378983 34.74489212 14.96503258 0.7926582098 
45.59431458 39.34656525 16.05668831 0.7793359756 
44.50523376 50.20145035 17.88676071 0.757502079 
44.55561829 55.00495148 18.87265778 0.7459943891 
-2.769235849 88.88015747 23.70814705 0.6920354962 
-6.743112564 88.97252655 23.78930283 0.6911640167 
-17.06027985 102.6809464 27.75141335 0.6499251723 
-19.49520302 91.85118103 25.03428459 0.6779314876 
-32.45664597 -12.73031712 9.295192719 0.8656045198 
-31.63629532 -14.06292439 9.230447769 0.8664751649 
-21.51776123 -13.24544907 6.736707687 0.9006835818 
-19.88327408 -13.49456024 6.406761169 0.9053096771 
-18.14927483 -13.53487778 6.036242485 0.9105329514 
-16.60192108 -13.57083988 5.716919899 0.9150586724 
-13.88144779 -13.57602024 5.176719189 0.9227663279 
-11.70363712 -13.68472099 4.800870419 0.9281671643 
-8.757299423 -13.5421381 4.299674034 0.935418427 
-7.937226295 -13.5612011 4.189358234 0.9370220304 
-7.156677246 -13.57935047 4.092466831 0.9384328127 
-2.914035559 -13.15203857 3.591549635 0.9457601905 
-0.5292065144 -13.20748234 3.524120331 0.9467509389 
0.05884765461 -13.22115421 3.524973154 0.9467383623 
0.6483569145 -13.23485851 3.532824516 0.9466229677 
2.449499369 -13.27673531 3.599496365 0.9456434846 
4.328049183 -13.24006557 3.713796377 0.9439667463 
5.026630878 -13.33664989 3.799904585 0.942705512 
5.723359108 -13.35284424 3.873291492 0.9416319132 
6.44899416 -13.36971188 3.957561493 0.9404006004 
8.798552513 -13.34398937 4.261450291 0.9359737635 
9.751150131 -13.44648361 4.428453922 0.9335498214 
12.86529541 -16.17473602 5.510186195 0.9180008173 
17.7007122 -18.5890274 6.843547344 0.8991906643 
19.34683037 -18.58711815 7.15290451 0.8948818445 
16.22074699 -3.821821213 4.443089485 0.9333377481 
16.24146461 -3.071279287 4.406937122 0.9338618517 
17.68704033 9.221183777 5.317995548 0.9207442999 
53.79768372 31.16655922 16.57629585 0.7730734348 
48.93896484 31.33935738 15.49384022 0.7861765623 
44.59916306 31.44281006 14.54872799 0.797798574 
44.06881714 34.10170364 14.85634327 0.7939971089 
45.65272522 38.69351578 15.95533085 0.7805631757 
45.46825409 42.15251923 16.53046799 0.7736238241 
44.67378616 49.49700546 17.77672386 0.7587972283 
44.59721756 54.06532288 18.68572426 0.7481629252 
13.89480209 88.49279785 23.88243294 0.6901652217 
-5.946012974 88.95400238 23.76926994 0.6913791895 
-21.93687248 -13.23570728 6.830774784 0.8993690014 
-20.10555458 -13.38564873 6.439745426 0.9048461318 
-16.89819145 -13.56394005 5.777150154 0.9142034054 
-13.002038 -13.65453053 5.02691412 0.9249151945 
-11.82633305 -13.58159637 4.801426888 0.9281591177 
-8.926613808 -13.53820801 4.323477745 0.9350727797 
-8.097880363 -13.55746555 4.210303307 0.936717391 
-6.556838036 -13.59330082 4.023742676 0.9394347072 
-5.61041975 -13.08934498 3.796860933 0.9427500367 
-4.909257889 -13.02531719 3.711194277 0.9440048337 
-2.428574085 -13.16333008 3.568749905 0.9460950494 
-1.829360366 -13.1772604 3.546926737 0.9464156628 
-1.236259699 -13.19104671 3.532322884 0.9466303587 
-0.6468725204 -13.20474625 3.524787426 0.9467411041 
-0.05882812291 -13.21841812 3.524246216 0.9467490911 
1.122595191 -13.24588394 3.544192314 0.9464558959 
1.720688462 -13.25979233 3.564881563 0.9461519122 
2.327023983 -13.27388382 3.592967987 0.9457393885 
4.197009087 -13.23702145 3.702316761 0.9441350102 
4.890339375 -13.33347607 3.786447048 0.9429025054 
7.053600788 -13.3837719 4.033523083 0.9392920732 
9.566677094 -13.44219685 4.398826599 0.9339793324 
13.68597603 -16.00258255 5.614023209 0.9165219069 
16.23662567 -3.220278263 4.413226128 0.9337706566 
16.27393913 -2.481122971 4.388990402 0.9341220856 
17.71927452 9.038360596 5.303378582 0.9209544659 
54.87458801 31.14153099 16.822052 0.7701290846 
49.87513733 31.31652069 15.70136356 0.7836472988 
45.33782959 31.3631897 14.69804573 0.795951128 
44.05405045 33.46759796 14.75035095 0.7953049541 
44.19503784 36.78720856 15.33085155 0.7881686687 
44.39997864 48.32201385 17.49597931 0.7621124983 
10.69270229 88.5672226 23.78466797 0.6912136674 
6.719782352 88.65959167 23.70563507 0.6920624375 
2.765558958 88.75150299 23.67381477 0.6924043894 
-1.185905695 88.8433609 23.68893051 0.6922419071 
-9.143551826 89.02833557 23.8610096 0.6903948784 
-15.2297821 102.966774 27.75099373 0.6499294043 
-19.54014778 100.8715591 27.39373779 0.6535453796 
-32.90392685 -13.93039036 9.526437759 0.8625020981 
-20.63858604 -13.47699165 6.571799755 0.902992785 
-15.74869823 -13.59066868 5.546121597 0.9174886942 
-9.09781456 -13.53422832 4.347887993 0.93471843 
-5.747428894 -13.08615971 3.810621977 0.9425486326 
-5.040932655 -13.02225113 3.722959518 0.9438324571 
-4.405534744 -13.08175278 3.680241585 0.9444586635 
-3.159243107 -13.14633274 3.604780197 0.9455659986 
-2.549357891 -13.16051197 3.574000835 0.9460179806 
-1.936784625 -13.09442329 3.529130697 0.9466772676 
-0.7645605206 -13.20201111 3.525732279 0.9467272162 
-0.1764331013 -13.21568108 3.523795605 0.9467557073 
1.600500464 -13.25699234 3.560159206 0.946221292 
2.204980373 -13.27104473 3.586746693 0.9458307624 
3.426721096 -13.21911335 3.640883684 0.9450359941 
4.727373123 -13.25276375 3.751428843 0.9434152842 
6.117548466 -13.28166962 3.89864254 0.9412612915 
6.90028286 -13.38020515 4.013783455 0.9395800233 
10.25734615 -13.37790489 4.494483471 0.9325932264 
16.20907402 -12.31394768 5.427194118 0.9191845655 
16.22125626 -4.127993107 4.462650776 0.933054328 
16.32281876 -1.896953106 4.381177902 0.9342354536 
55.98394394 31.11574554 17.07657242 0.7670915723 
51.54960251 31.73184204 16.13897514 0.7783406973 
46.18250275 31.34355927 14.88085461 0.7936949134 
44.03950119 32.84260559 14.64703369 0.7965816855 
44.32738113 43.3520546 16.53072166 0.7736207247 
44.5502243 52.09124374 18.27461815 0.7529537082 
15.50702858 88.4553299 23.94302368 0.6895161867 
3.555793285 88.73312378 23.67643738 0.6923763752 
-18.88568497 102.3625565 27.75183296 0.6499208808 
-21.03118324 -13.46787071 6.658369541 0.9017797709 
-19.16474342 -13.51126957 6.251741409 0.9074913859 
-11.29596901 -13.69419861 4.732896805 0.9291473031 
-10.32461166 -13.71678638 4.577276707 0.9313951135 
-9.270986557 -13.53019047 4.372928143 0.9343550801 
-8.424098969 -13.54988289 4.2538414 0.9360843897 
-5.173425198 -13.01917171 3.735095024 0.9436545968 
-3.906994581 -13.12894535 3.652063608 0.9448720813 
-2.67054677 -13.15769482 3.579546452 0.945936501 
-2.068188429 -13.17170143 3.554779053 0.9463003278 
-1.472941875 -13.18554401 3.5373106 0.946557045 
0.2943603396 -13.22663021 3.52726984 0.9467045665 
2.070686102 -13.18759727 3.559067965 0.9462372661 
2.695871592 -13.28246307 3.613488674 0.945438087 
3.320913076 -13.29699421 3.654050112 0.9448428154 
3.937358379 -13.23098564 3.680441141 0.9444557428 
4.592566013 -13.24621582 3.73785758 0.9436141253 
5.302124023 -13.34305191 3.82801199 0.9422941208 
7.477201939 -13.31327629 4.071003914 0.9387456179 
8.339421272 -13.41365433 4.211075306 0.9367061257 
12.2454958 -14.84530258 5.130734921 0.9234253764 
18.35765648 -18.60429573 6.968382359 0.8974494338 
20.06731415 -18.6038723 7.295676231 0.8929002285 
16.03154755 -12.40562439 5.404502869 0.9195084572 
16.22348595 -4.282675743 4.473573685 0.9328961372 
16.25694084 -2.77548337 4.397035599 0.9340054393 
51.93343735 31.33411217 16.17117119 0.7779516578 
44.03250885 32.23175812 14.54876518 0.7977981567 
44.09899139 35.397789 15.07657146 0.7912867069 
45.78609085 40.22864532 16.24966431 0.7770040631 
44.71118164 42.95565414 16.53063774 0.773621738 
44.35954666 46.58589172 17.15055084 0.7662109137 
44.52748871 51.13628387 18.07791901 0.7552570701 
44.57991028 56.04763412 19.09350204 0.7434406281 
5.929299355 21.30447006 5.895943642 0.9125187397 
12.29039764 88.53009796 23.82966995 0.6907308102 
4.34588623 88.71476746 23.68090248 0.6923282146 
-13.39462662 103.2199478 27.7505703 0.6499336362 
-17.97364044 102.5258102 27.75162506 0.6499230266 
-32.55188751 -13.10309505 9.355498314 0.8647944331 
-30.89489937 -14.06387138 9.050290108 0.8689024448 
-19.5195179 -13.50301266 6.328031063 0.9064170718 
-17.55639839 -13.33755302 5.878311634 0.9127685428 
-14.73126221 -13.41523361 5.312090874 0.9208287597 
-11.49837875 -13.68949223 4.766456127 0.9286632538 
-8.589831352 -13.54603481 4.276467323 0.9357555509 
-7.778149128 -13.56490231 4.168952465 0.9373189807 
-5.987941742 -13.00023651 3.81603694 0.942469418 
-4.648364067 -13.03138351 3.688759565 0.9443337321 
-1.000180602 -13.1965332 3.528464317 0.9466870427 
0.176550284 -13.22389126 3.525982618 0.9467235208 
1.360996008 -13.25142574 3.551594257 0.9463471174 
1.962082505 -13.26539803 3.575211048 0.9460001588 
2.572431564 -13.27958488 3.606334209 0.9455431104 
3.194743633 -13.29405689 3.645285606 0.9449714422 
4.45984602 -13.24312973 3.725637674 0.9437931776 
6.598036766 -13.37317848 3.975812912 0.9401341081 
7.364914417 -13.39100075 4.074574947 0.938693583 
8.172487259 -13.40977478 4.186863422 0.9370583296 
9.027570724 -13.42965794 4.314301014 0.935205996 
16.45413208 -18.56005287 6.612953186 0.9024159908 
19.74709702 -18.63659668 7.239282608 0.8936824203 
16.22149467 -3.669902325 4.434168816 0.9334670305 
16.24801254 -2.922963858 4.401480675 0.9339409471 
16.29460335 -2.188251972 4.383364677 0.9342037439 
44.08378983 34.74489212 14.96503258 0.7926582098 
45.59431458 39.34656525 16.05668831 0.7793359756 
44.33991623 45.74297714 16.98487091 0.7681846619 
44.55561829 55.00487137 18.87264061 0.7459945679 
5.137028694 88.69637299 23.68726921 0.6922598481 
-2.769343138 88.88015747 23.70814896 0.6920354962 
-6.743122578 88.97252655 23.78930092 0.6911640167 
-17.06018829 102.6809769 27.75141335 0.6499251127 
-8.779367447 21.53315926 6.199859619 0.9082226753 
-32.45666504 -12.73041439 9.295205116 0.865604341 
-31.63629532 -14.06292439 9.230447769 0.8664751649 
-19.88327408 -13.49456024 6.406761169 0.9053096771 
-18.14927483 -13.53487778 6.036242485 0.9105329514 
-10.70538998 -13.70792961 4.637178898 0.9305292368 
-9.623436928 -13.52200127 4.424939632 0.9336007833 
-6.127206802 -12.99700165 3.830935478 0.9422513247 
-5.47433567 -13.09251213 3.783493042 0.9429457784 
-3.530678749 -13.13770485 3.626972675 0.94524014 
-2.308125019 -13.16613293 3.563800573 0.946167767 
-1.118166447 -13.1937933 3.530254364 0.9466607571 
0.6483276486 -13.23485851 3.532822847 0.9466229677 
1.241699219 -13.24865437 3.547751427 0.9464036226 
1.841237783 -13.26259041 3.569900513 0.9460781813 
5.723359108 -13.35284424 3.873291492 0.9416319132 
6.44899416 -13.36971188 3.957561493 0.9404006004 
7.20844698 -13.3873682 4.053781509 0.9389966726 
9.751150131 -13.44648361 4.428453922 0.9335498214 
16.11963081 -18.51210976 6.544487953 0.9033758044 
19.34674835 -18.58711815 7.152887821 0.8948820829 
16.22074699 -3.821821213 4.443089485 0.9333377481 
17.68704033 9.221183777 5.317995548 0.9207442999 
53.79768372 31.16655922 16.57629585 0.7730734348 
45.46834183 42.15242004 16.53046799 0.7736238241 
44.32066727 44.91650772 16.8237381 0.7701088786 
44.67372894 49.49714661 17.77674484 0.7587970495 
44.59722519 54.06554031 18.68576813 0.7481623888 
13.89502621 88.49279022 23.88244247 0.6901651621 
9.895910263 88.58576202 23.76505089 0.691424191 
1.975314856 88.76987457 23.67309189 0.6924121976 
-1.977673292 88.86175537 23.69760895 0.6921487451 
-5.946325779 88.95401001 23.76926422 0.6913790703 
-9.947116852 89.04701233 23.88879013 0.6900970936 
-16.14583206 102.8279114 27.75120354 0.6499272585 
-18.28036308 -13.3812151 6.040007591 0.910479784 
-16.89812279 -13.56394482 5.777136803 0.9142036438 
-14.00179863 -13.4520359 5.176745892 0.922765851 
-13.00197506 -13.65453053 5.026904106 0.9249153733 
-11.82633305 -13.58159637 4.801426888 0.9281591177 
-8.926613808 -13.53820801 4.323477745 0.9350727797 
-8.097880363 -13.55746555 4.210303307 0.936717391 
-6.556838036 -13.59330082 4.023742676 0.9394347072 
-5.61041975 -13.08934498 3.796860933 0.9427500367 
-4.909291744 -13.02531719 3.711197376 0.9440047741 
-4.288827896 -13.12007332 3.680137157 0.9444601536 
-3.655566216 -13.13480186 3.635006666 0.9451221824 
-3.036379337 -13.14919376 3.598007202 0.9456653595 
-2.428547382 -13.16333008 3.568749428 0.9460950494 
-1.829328537 -13.17725563 3.546925545 0.9464157224 
-1.23623538 -13.19104481 3.532324076 0.9466303587 
-0.0588012673 -13.21841526 3.524245024 0.9467490911 
1.122595191 -13.24588394 3.544192314 0.9464558959 
1.720688462 -13.25979233 3.564881563 0.9461519122 
2.327023983 -13.27388382 3.592967987 0.9457393885 
2.944211245 -13.28823948 3.62874198 0.9452142119 
3.575083017 -13.30289745 3.672579765 0.9445710778 
4.197009087 -13.23702145 3.702316761 0.9441350102 
5.581811428 -13.34955502 3.857772112 0.9418588281 
8.679362297 -13.42156219 4.261395931 0.9359745979 
9.566716194 -13.44219685 4.398834229 0.9339792728 
12.65254593 -16.20106316 5.480583191 0.9184228182 
13.68600845 -16.00255394 5.614023209 0.9165219069 
17.71923828 9.038395882 5.30337429 0.9209545255 
49.87487793 31.31653023 15.70131302 0.7836480141 
45.33761978 31.36319733 14.69799519 0.7959516644 
44.05405045 33.46774673 14.75037479 0.7953045964 
45.59299088 41.51985931 16.44083023 0.7747012973 
44.57345581 53.06730652 18.47715569 0.7505896688 
14.69990921 88.47409058 23.91172981 0.6898511648 
10.69270229 88.5672226 23.78466797 0.6912136674 
6.719782352 88.65959167 23.70563507 0.6920624375 
2.765558958 88.75150299 23.67381477 0.6924043894 
-1.185905695 88.8433609 23.68893051 0.6922419071 
-9.143551826 89.02833557 23.8610096 0.6903948784 
-32.90384293 -13.93043423 9.526423454 0.8625023365 
-20.63858604 -13.47699165 6.571799755 0.902992785 
-18.53360558 -13.31485367 6.084276676 0.9098541141 
-11.09648132 -13.69883728 4.700193882 0.9296192527 
-9.98458004 -13.51360321 4.479656696 0.932807982 
-9.097856522 -13.53422356 4.347894192 0.9347183108 
-8.260185242 -13.55370045 4.231798172 0.9364048243 
-6.704863071 -13.58985329 4.040224552 0.9391943812 
-4.405507565 -13.08175468 3.680241585 0.9444587231 
-3.780961752 -13.13188171 3.643370867 0.9449995756 
-3.159243107 -13.14633274 3.604780197 0.9455659986 
-0.7645605206 -13.20201111 3.525732279 0.9467272162 
1.003718257 -13.24311733 3.54092145 0.9465039968 
1.600471139 -13.25699234 3.560160398 0.946221292 
2.819748402 -13.28534889 3.620953321 0.945328474 
3.42675519 -13.21911144 3.640885592 0.9450359941 
4.06683588 -13.23399353 3.691201687 0.9442979097 
4.727373123 -13.25268078 3.751408577 0.9434155822 
6.117582798 -13.28167248 3.898646116 0.9412612319 
9.384635925 -13.43795109 4.369941711 0.9343984127 
10.25734615 -13.37790489 4.494483471 0.9325932264 
12.30119801 -14.64528751 5.099248409 0.9238769412 
17.06669617 -18.57428741 6.725203037 0.9008445144 
16.32281876 -1.896953106 4.381177902 0.9342354536 
51.54960251 31.73184204 16.13897514 0.7783406973 
44.03950119 32.84260559 14.64703369 0.7965816855 
44.37955475 47.44508362 17.32081032 0.7641880512 
11.49084663 88.54868317 23.80620766 0.690982461 
-0.3949096501 88.8249588 23.68214798 0.6923148036 
-4.355573654 88.91703033 23.73490715 0.6917480826 
-17.42176437 -13.48140621 5.873164654 0.9128414989 
-16.02743912 -13.58419895 5.601477623 0.9167004228 
-14.68629646 -13.61537552 5.339366436 0.9204388261 
-12.15124989 -13.46322727 4.835277081 0.9276714325 
-11.29596901 -13.69419861 4.732896805 0.9291473031 
-10.32461166 -13.71678638 4.577276707 0.9313951135 
-5.885454178 -13.08295155 3.824786901 0.9423413277 
-5.173425198 -13.01917171 3.735095024 0.9436545968 
-4.521809101 -13.04212093 3.680267811 0.9444583058 
-2.67054677 -13.15769482 3.579546452 0.945936501 
-2.068188429 -13.17170143 3.554779053 0.9463003278 
-0.2939916849 -13.21294689 3.523625374 0.9467582107 
1.480620027 -13.25420856 3.555731058 0.9462863207 
3.937358379 -13.23098564 3.680441141 0.9444557428 
5.302124023 -13.34305191 3.82801199 0.9422941208 
6.009865761 -13.35950184 3.905634642 0.9411591291 
8.339421272 -13.41365433 4.211075306 0.9367061257 
10.06619358 -13.37346172 4.462714195 0.9330533743 
16.7579174 -18.5671196 6.668354988 0.901639998 
18.35765648 -18.60429573 6.968382359 0.8974494338 
16.22348595 -4.282675743 4.473573685 0.9328961372 
16.25694084 -2.77548337 4.397035599 0.9340054393 
57.1278801 31.0891571 17.34039307 0.7639557123 
47.04875946 31.32342148 15.06952858 0.7913730741 
45.78609085 40.22864532 16.24966431 0.7770040631 
44.71139145 42.95543671 16.53063774 0.773621738 
44.35954666 46.58589172 17.15055084 0.7662109137 
44.52748108 51.13583374 18.07782936 0.7552581429 
5.929191589 21.30449104 5.895931721 0.9125187993 
8.305670738 88.62271118 23.7315464 0.6917841434 
-3.561843157 88.89858246 23.72057343 0.6919019818 
-7.541901588 88.99111176 23.81127167 0.6909281611 
-13.395051 103.219902 27.7505703 0.6499336362 
-17.97364044 102.5258102 27.75162506 0.6499230266 
-9.019371986 21.57060051 6.233506203 0.907748282 
-32.55188751 -13.10309505 9.355498314 0.8647944331 
-17.55654526 -13.33755302 5.878341675 0.9127680659 
-16.07343864 -13.37926769 5.575731277 0.9170669913 
-14.73126221 -13.41511726 5.312069416 0.9208290577 
-12.55569839 -13.66491222 4.947637081 0.9260543585 
-11.49837875 -13.68949223 4.766456127 0.9286632538 
-9.446212769 -13.52612305 4.398615837 0.9339824915 
-7.004724026 -13.58288574 4.074574471 0.938693583 
-3.406394005 -13.14059258 3.619258404 0.9453533888 
-2.188037157 -13.16892052 3.559144258 0.9462361932 
-0.411606431 -13.21021461 3.523732185 0.9467566609 
0.1766088754 -13.22389126 3.525983095 0.9467235208 
0.7619677782 -13.15716743 3.513754129 0.9469032884 
2.572492599 -13.27958679 3.606337786 0.9455430508 
3.194743633 -13.29405689 3.645285606 0.9449714422 
3.817326546 -13.25799084 3.67835927 0.9444862604 
5.163906097 -13.33983898 3.813757896 0.9425026774 
5.865986347 -13.35615444 3.889238119 0.9413987994 
7.364836216 -13.39100266 4.074563503 0.9386937022 
9.027482986 -13.42965508 4.314287663 0.9352061749 
12.92386913 -15.95492649 5.474256516 0.9185130596 
16.22149467 -3.669970512 4.434172153 0.9334669709 
16.24801254 -2.922963858 4.401480675 0.9339409471 
44.21983337 31.76795769 14.51659489 0.798196733 
44.08378983 34.74489212 14.96503258 0.7926582098 
45.09157944 42.55569839 16.53055191 0.7736227512 
44.33992767 45.74337387 16.98494148 0.7681837678 
44.50523376 50.20137405 17.88674355 0.7575022578 
1.185148954 88.78823853 23.67424774 0.6923998594 
-6.743425369 88.97253418 23.78931427 0.6911639571 
-19.49517822 91.85203552 25.03438187 0.6779292822 
-8.779254913 21.53315163 6.199847221 0.9082228541 
-32.45666504 -12.73041439 9.295205116 0.865604341 
-21.51776123 -13.24544907 6.736707687 0.9006835818 
-19.88310242 -13.49455547 6.406725883 0.9053102136 
-16.60179329 -13.57082939 5.716897011 0.9150590897 
-13.88142776 -13.5760498 5.176719189 0.9227663279 
-11.70359612 -13.68472672 4.800862789 0.9281672835 
-10.70548534 -13.70792484 4.63719368 0.9305289984 
-9.623436928 -13.52200127 4.424939632 0.9336007833 
-8.757338524 -13.5421381 4.299679279 0.9354183674 
-7.937182426 -13.56121063 4.189353466 0.93702209 
-7.156708717 -13.57935524 4.092470646 0.9384327531 
-5.474404335 -13.09250927 3.783499002 0.9429456592 
-4.778429985 -13.02835655 3.699797869 0.9441719055 
-4.160812855 -13.12304878 3.67043519 0.9446024895 
-3.530678749 -13.13770485 3.626972675 0.94524014 
-2.308125019 -13.16613293 3.563800573 0.946167767 
-1.710280776 -13.18002701 3.543433189 0.946467042 
-1.118166447 -13.1937933 3.530254364 0.9466607571 
-0.5291772485 -13.20748234 3.524120331 0.9467509389 
0.05882079899 -13.22115231 3.524973154 0.9467383623 
1.841237783 -13.26259041 3.569900513 0.9460781813 
3.06922102 -13.29114246 3.636852264 0.9450951815 
3.699138165 -13.29155254 3.678386211 0.9444858432 
6.449064732 -13.36971664 3.957570076 0.9404004812 
9.751237869 -13.4464817 4.428469181 0.9335496426 
12.86529541 -16.17473602 5.510186195 0.9180008173 
16.11977196 -18.51211357 6.544512272 0.9033754468 
17.70064163 -18.58902359 6.843533039 0.8991909027 
19.34690857 -18.58712387 7.152918339 0.8948816061 
16.22074699 -3.821821213 4.443089485 0.9333377481 
16.24146461 -3.071210861 4.406934738 0.9338618517 
21.93130302 9.055779457 6.326044083 0.9064450264 
45.46816635 42.15261459 16.53046799 0.7736237645 
44.32065964 44.91610336 16.82366371 0.7701098323 
44.67372894 49.49714661 17.77674484 0.7587970495 
9.895910263 88.58576202 23.76505089 0.691424191 
5.927780628 88.67798615 23.69549561 0.6921713352 
1.975725055 88.76985931 23.67308044 0.6924121976 
-1.977673292 88.86175537 23.69760895 0.6921487451 
-9.947116852 89.04701233 23.88879013 0.6900970936 
-16.14537239 102.8279877 27.75120354 0.6499272585 
-32.57580185 -14.13465309 9.467482567 0.8632919788 
-21.93676949 -13.23571777 6.830751419 0.8993692994 
-20.10555458 -13.38559055 6.439735413 0.904846251 
-16.89825821 -13.56394482 5.777163029 0.9142032266 
-15.4754076 -13.59702587 5.492284298 0.9182559848 
-14.00185776 -13.45196724 5.176745892 0.9227659106 
-7.309895039 -13.57578564 4.110836506 0.9381651878 
-5.61041975 -13.08934498 3.796860933 0.9427500367 
-4.288827896 -13.12007332 3.680137157 0.9444601536 
-3.655507803 -13.13480186 3.635003567 0.945122242 
-3.036437988 -13.14919376 3.598010778 0.9456652999 
-2.428547382 -13.16333008 3.568749428 0.9460950494 
-1.829389572 -13.17725563 3.546927929 0.9464156628 
-1.23623538 -13.19104481 3.532324076 0.9466303587 
0.5301733017 -13.23210907 3.530691385 0.9466543198 
1.720749497 -13.25979424 3.564883947 0.9461518526 
2.327023983 -13.27388382 3.592967987 0.9457393885 
3.575083017 -13.30289745 3.672579765 0.9445710778 
4.890339375 -13.33347607 3.786447048 0.9429025054 
5.581882 -13.34955788 3.85777998 0.9418587089 
8.679362297 -13.42156219 4.261395931 0.9359745979 
16.22094917 -3.974523783 4.452660561 0.9331991673 
17.71930504 9.038329124 5.303382397 0.9209544063 
45.59298706 41.51949692 16.44075966 0.7747020721 
44.39999008 48.32243729 17.49606323 0.762111485 
44.57345581 53.06730652 18.47715569 0.7505896688 
14.70013905 88.47408295 23.91174507 0.6898510456 
10.69270229 88.5672226 23.78466797 0.6912136674 
6.72021246 88.65956879 23.70563698 0.6920624375 
-1.186423302 88.8433609 23.68896103 0.6922418475 
-5.150495529 88.93550873 23.75112724 0.6915737987 
-9.143957138 89.02835083 23.86101913 0.6903947592 
-22.71145248 -13.42880344 6.776733398 0.8967630267 
-20.63862038 -13.47700119 6.331016541 0.9032129049 
-17.20081329 -13.5569191 5.625183105 0.9135220051 
-15.74872303 -13.59066868 5.342919827 0.9176774621 
-11.93996334 -13.46815395 4.622879505 0.9283637404 
-9.984564781 -13.51361275 4.31552124 0.9329630733 
-9.097826958 -13.53422356 4.188585758 0.9348692298 
-7.464523792 -13.57219696 3.978390455 0.9380341768 
-6.704902172 -13.58985329 3.89219594 0.9393351674 
-5.071745396 -13.10186768 3.608481884 0.9436300993 
-4.417417049 -13.11707973 3.554973602 0.9444422722 
-1.936787009 -13.09442806 3.399826527 0.9468012452 
-1.35450685 -13.18829823 3.405165911 0.9467199445 
0.4122216702 -13.22936726 3.399548292 0.9468055367 
1.600493073 -13.25699234 3.42971921 0.946346283 
2.819780111 -13.28533936 3.48828721 0.9454554915 
7.682668209 -13.39839363 3.966904163 0.9382074475 
9.384623528 -13.43796158 4.209828377 0.9345499873 
10.25735283 -13.37790298 4.329812527 0.932748735 
18.6951561 -18.61214828 6.775654316 0.8967785835 
20.48366928 -18.65371513 7.115774155 0.8918876648 
16.20907211 -12.31396484 5.228347778 0.9193696976 
42.56844711 -17.1351223 11.7860384 0.8273655772 
23.05137634 9.041343689 6.359759331 0.9027955532 
55.98403549 31.11573601 16.45091438 0.7675775886 
46.18251801 31.34355354 14.33562946 0.7941333055 
44.03937531 32.84250641 14.11033249 0.7970153093 
45.67744827 40.85907745 15.74083138 0.776391685 
44.8603096 43.8731575 16.11647606 0.7717162371 
44.48584366 52.01593781 17.57960701 0.7537728548 
15.76118374 89.9057312 23.44398689 0.6859449744 
11.74669647 90.52142334 23.44490242 0.685934782 
7.594182014 89.60782623 23.09781456 0.6897736192 
3.654987812 91.21440125 23.44674683 0.6859143972 
-0.4062768519 91.29032135 23.44767952 0.6859041452 
-4.466994762 91.18544769 23.44861031 0.6858940125 
-19.16470337 -13.51127434 6.022672176 0.9077020288 
-17.42181778 -13.48147964 5.65799284 0.9130401611 
-16.02739906 -13.58420372 5.396234512 0.916891098 
-14.68636894 -13.61537552 5.143749714 0.9206210375 
-13.39193058 -13.57191849 4.897193909 0.9242779613 
-9.27100563 -13.53019524 4.212709427 0.9345066547 
-7.620588303 -13.56856441 3.99704814 0.9377527833 
-2.670532227 -13.15769958 3.448396444 0.9460621476 
-2.068173885 -13.17170906 3.424536705 0.9464251399 
-1.472919941 -13.18554688 3.407703876 0.9466813207 
-0.2940209806 -13.21295643 3.394520283 0.9468820095 
0.8850854039 -13.24036312 3.408309937 0.9466720819 
1.480598092 -13.25420666 3.42545104 0.9464111924 
2.070673704 -13.18758774 3.428668022 0.9463623166 
2.695854425 -13.28246307 3.481090546 0.9455648661 
6.748413086 -13.37667942 3.848187685 0.9399999976 
8.339430809 -13.41366196 4.056788921 0.9368525147 
9.204948425 -13.43377209 4.182688713 0.9349578619 
14.03194523 -15.54690361 5.379056931 0.9171444178 
18.35758972 -18.60429573 6.71305418 0.8976817131 
20.11168098 -18.64506721 7.043918133 0.8929187655 
42.58823013 -17.58514214 11.8343792 0.8267226815 
16.22007751 -5.063515663 4.364326 0.9322312474 
51.9332962 31.33410835 15.5786314 0.7784190178 
44.17845535 38.81595993 15.10460663 0.7843747735 
44.35939407 46.58562851 16.52209473 0.7666996717 
44.46364594 51.06285477 17.39056206 0.7560676932 
12.55175495 90.4125824 23.44471931 0.6859368086 
8.517756462 90.88495636 23.44563866 0.685926795 
4.46655035 91.17754364 23.44656181 0.6859164238 
-7.709767818 90.97161865 23.44935226 0.6858857274 
-15.76608562 89.93343353 23.45120621 0.685865283 
-32.11320114 -12.92657661 8.891265869 0.8667857647 
-30.96149063 -14.09425259 8.737494469 0.8689315915 
-23.26815224 -13.20476055 6.871609211 0.8953959942 
-16.07348824 -13.37927246 5.371449947 0.9172565937 
-14.73131084 -13.4152441 5.117471695 0.921010077 
-13.49197006 -13.43205547 4.889867306 0.9243868589 
-11.49837589 -13.68949223 4.591814518 0.9288275242 
-9.446218491 -13.52612782 4.237451077 0.9341349602 
-8.589812279 -13.54603481 4.119777203 0.9359040856 
-7.778131962 -13.56490707 4.016204834 0.9374639988 
-5.987936974 -13.00024128 3.67621994 0.9426028728 
-4.033608437 -13.12600803 3.526941538 0.9448680282 
-2.187990665 -13.16891861 3.428738832 0.9463611841 
-1.000192881 -13.19653511 3.399185658 0.9468110204 
0.7619677782 -13.15716267 3.38501215 0.9470267892 
1.360998511 -13.25142765 3.421466589 0.9464718699 
2.572446346 -13.27958965 3.474199772 0.945669651 
7.364877701 -13.39100552 3.925281286 0.9388355613 
8.172463417 -13.40977764 4.033455849 0.9372040033 
12.81109619 -15.81559086 5.227642536 0.9193800092 
13.88858891 -15.6661377 5.377333164 0.9171698093 
19.74711227 -18.63660049 6.974045277 0.8939224482 
16.18458176 -6.017895222 4.434995651 0.9311726689 
52.84803009 31.24792862 15.76899624 0.7760401368 
47.93693161 31.30277252 14.70492744 0.7894317508 
44.21967697 31.76804352 13.98469448 0.7986270189 
44.08366776 34.74481201 14.41669273 0.7930989861 
44.16202927 38.11050797 14.98242474 0.7859171033 
45.75716782 43.18387604 16.15994453 0.7711771131 
44.33977127 45.74282074 16.36249352 0.7686696649 
44.44192123 50.13002014 17.20687866 0.7583038807 
44.57493973 55.02881622 18.18902969 0.7464223504 
9.326140404 90.80486298 23.44545364 0.685928762 
1.218649864 91.28161621 23.44730568 0.6859083176 
-14.96490955 90.06948853 23.4510231 0.6858673692 
-18.95756531 89.31812286 23.45194054 0.6858571768 
-32.47817612 -12.7387743 8.960562706 0.8658204079 
-19.58254051 -13.29046345 6.078668594 0.9068851471 
-18.14927864 -13.53488731 5.815083504 0.9107369184 
-16.60193062 -13.57083511 5.507459164 0.9152528048 
-13.93944073 -13.63273907 5.007880688 0.9226344824 
-11.70364475 -13.68471622 4.624968052 0.9283325076 
-10.5435276 -13.50061512 4.399721146 0.9317008257 
-8.757302284 -13.54214287 4.142137527 0.935567677 
-7.93722868 -13.56121063 4.03586483 0.9371677041 
-7.156672001 -13.57935524 3.942520142 0.9385753274 
-4.807651043 -13.1080122 3.586035013 0.9439707398 
-4.16087389 -13.12304401 3.535957575 0.9447311163 
-3.530681133 -13.13769722 3.494081974 0.9453673959 
-2.914033175 -13.15204048 3.459957838 0.9458862543 
-2.308122396 -13.1661272 3.433222532 0.9462929368 
-1.710336924 -13.18002701 3.413606405 0.9465914369 
-0.5292089581 -13.20748997 3.394998074 0.9468747377 
0.6483544707 -13.23485851 3.403383017 0.9467470646 
1.241669893 -13.24865437 3.417761803 0.9465282559 
1.841218233 -13.26259041 3.439101458 0.9462035298 
3.703154325 -13.30588341 3.547435284 0.9445567131 
4.354511738 -13.32102013 3.599601984 0.9437648058 
5.688576698 -13.27170181 3.708701611 0.9421106577 
6.44899416 -13.36970901 3.81255722 0.940538764 
8.007375717 -13.40594196 4.010708332 0.9375468493 
9.7511549 -13.44648361 4.266200542 0.9337032437 
12.72337341 -15.99630833 5.249738216 0.9190534353 
13.74533463 -15.78534126 5.376049042 0.9171887636 
21.20410538 -18.63029289 7.249682426 0.8899693489 
16.18614006 -6.182985783 4.450322628 0.9309431314 
17.68698502 9.221151352 5.123136997 0.9209262729 
45.73899841 42.40354538 16.0196209 0.7729191184 
44.3854866 44.98200989 16.23099899 0.7702965736 
44.58520889 49.39887238 17.09143448 0.7597126365 
-2.031027794 91.27005005 23.44804955 0.6859000921 
-6.089274883 91.09299469 23.44898224 0.6858897805 
-10.059021 90.04823303 23.27227783 0.6878412962 
-14.16278076 90.19837952 23.45083618 0.6858693361 
-22.27376747 -13.43897915 6.681556225 0.8981363773 
-16.89819527 -13.56394482 5.565479755 0.9143994451 
-15.24141312 -13.39138126 5.211037636 0.9196255207 
-14.1840353 -13.62705517 5.051972389 0.9219805598 
-13.00205326 -13.65454102 4.84273386 0.9250876904 
-11.82637691 -13.58164978 4.625523567 0.9283242822 
-9.802905083 -13.5178318 4.28883791 0.9333634377 
-8.926609039 -13.53820324 4.165064812 0.9352228045 
-5.610414982 -13.08935261 3.657746553 0.9428828955 
-4.288786411 -13.1200676 3.545300245 0.9445892572 
-3.036411047 -13.14919662 3.466181517 0.9457916021 
-0.6468725204 -13.20475578 3.39564085 0.9468649626 
-0.0588305667 -13.21842289 3.395118237 0.94687289 
0.5302318931 -13.23211384 3.401328564 0.946778357 
1.122595191 -13.24588585 3.414334536 0.94658041 
1.720695734 -13.2597847 3.434267521 0.946277082 
2.327023983 -13.27388382 3.461322546 0.9458655119 
2.944218636 -13.28823471 3.495787859 0.9453414679 
3.575080395 -13.30290508 3.538018703 0.9446997643 
4.890341759 -13.3334856 3.647714853 0.9430349469 
5.547929764 -13.26842976 3.693843365 0.9423357844 
6.301335335 -13.36627865 3.795436859 0.9407976866 
7.844138145 -13.40214348 3.988529682 0.9378812909 
12.58412552 -16.11351967 5.251241207 0.9190312028 
13.60214043 -15.90455532 5.375200748 0.9172012806 
17.34256554 -18.5405407 6.520605087 0.9004637599 
20.82277107 -18.62620163 7.175690651 0.8910287619 
54.97904968 31.20085144 16.2365551 0.7702277303 
49.78482437 31.25982666 15.09868145 0.7844493985 
45.33780289 31.36318207 14.1595068 0.7963854671 
44.05392456 33.4675293 14.20987034 0.7957408428 
45.84399414 41.74843597 15.92563438 0.7740880251 
44.36700058 44.17005157 16.07985497 0.7721709013 
44.39982224 48.32182693 16.85486221 0.7626082301 
44.57329941 53.067173 17.8001194 0.7511051297 
14.87513351 89.52859497 23.31018257 0.6874221563 
10.94059277 90.62306213 23.44508553 0.6859328747 
-1.201223135 89.97234344 23.11099815 0.689627409 
-9.327858925 90.8214035 23.4497261 0.6858816743 
-17.36446571 89.64000702 23.45157242 0.6858612299 
-22.71140289 -13.42880344 6.776721478 0.8967632055 
-20.63859177 -13.47699642 6.331009865 0.9032130241 
-17.20078278 -13.55692387 5.625177383 0.9135220647 
-13.23056412 -13.64921856 4.882409096 0.9244977236 
-11.93998051 -13.46814919 4.622882366 0.9283636808 
-10.92865181 -13.49165535 4.459496498 0.9308057427 
-9.984536171 -13.51361275 4.315517426 0.9329631329 
-9.097817421 -13.53422356 4.188585281 0.9348692298 
-8.260146141 -13.55370045 4.076741695 0.9365519285 
-7.464523792 -13.57219696 3.978390455 0.9380341768 
-6.704902172 -13.58985329 3.89219594 0.9393351674 
-5.071755409 -13.10186481 3.608482599 0.9436300993 
-4.41742897 -13.11707973 3.554974794 0.9444422722 
-3.780956984 -13.13188648 3.509877205 0.9451273084 
-1.936779737 -13.09442616 3.399826527 0.9468012452 
-1.354504347 -13.18830013 3.405165434 0.9467199445 
-0.7645654082 -13.20201874 3.396553278 0.9468510747 
-0.1764379889 -13.21568775 3.394685507 0.9468795061 
6.117548466 -13.28166962 3.755800009 0.9413974881 
6.900280476 -13.38020515 3.866720438 0.939719975 
8.50838089 -13.41758537 4.080717087 0.9364920855 
9.384635925 -13.43795872 4.209830284 0.9345499277 
10.25735569 -13.37790489 4.32981205 0.932748735 
12.28758526 -14.62907219 4.906975746 0.9241325855 
17.06669807 -18.57429695 6.478795052 0.9010693431 
18.69513321 -18.61214828 6.775650024 0.8967786431 
20.48372841 -18.65372086 7.115786076 0.891887486 
42.56843567 -17.13506889 11.78602505 0.8273656368 
44.03937531 32.84250641 14.11033249 0.7970153093 
44.11428452 36.06013489 14.63431644 0.7903286815 
45.67757797 40.85907745 15.74085426 0.776391387 
44.48584366 52.01596069 17.57961273 0.7537727952 
15.76120281 89.9057312 23.44398689 0.6859449744 
11.7467165 90.52142334 23.44490242 0.685934782 
7.594289303 89.60782623 23.0977993 0.6897736192 
3.655104876 91.2143631 23.44674683 0.6859145164 
-0.4061401188 91.29032135 23.44767952 0.6859041452 
-8.518977165 90.90007782 23.44953728 0.6858838201 
-12.55502129 90.43470764 23.45046616 0.6858734488 
-16.56612015 89.79025269 23.45139122 0.6858632565 
-22.81151581 -13.2153759 6.771221638 0.8968424797 
-19.16474342 -13.51127911 6.02268219 0.9077019095 
-16.02744293 -13.58419895 5.396244526 0.9168909788 
-14.6864233 -13.61538029 5.143758297 0.9206208587 
-13.39193535 -13.57197762 4.897206306 0.9242777824 
-10.16846943 -13.50933075 4.342880726 0.9325527549 
-8.42410183 -13.54988766 4.097987175 0.93623209 
-6.854194164 -13.58638668 3.908518076 0.9390886426 
-5.878959656 -13.06850338 3.680577993 0.9425367713 
-3.90699935 -13.12895966 3.518251896 0.9450000525 
-2.670544386 -13.15770435 3.44839716 0.946062088 
-1.472941875 -13.18554211 3.407704353 0.9466813207 
-0.2939916849 -13.21295643 3.394520283 0.9468820095 
0.8851098418 -13.24036312 3.408310413 0.9466720819 
1.480615258 -13.25420666 3.425452232 0.9464111924 
2.695868969 -13.28245831 3.481091738 0.9455648661 
3.320913076 -13.29699707 3.52016902 0.9449709654 
3.961435556 -13.31188679 3.567271709 0.9442555308 
5.288134575 -13.30783463 3.678022385 0.9425755143 
5.973339558 -13.27831745 3.739671469 0.9416416883 
6.748400688 -13.37667656 3.848187208 0.9400000572 
7.477204323 -13.31327152 3.921846151 0.9388874173 
8.339416504 -13.4136591 4.056785583 0.9368525147 
10.12774181 -13.45523453 4.325488091 0.9328135848 
18.35766411 -18.60430145 6.713067055 0.8976815343 
20.11175537 -18.64506721 7.043931007 0.8929185271 
16.03151131 -12.40559292 5.206473827 0.9196930528 
42.58823013 -17.58514214 11.8343792 0.8267226815 
16.1831398 -5.853969574 4.420148373 0.9313949347 
16.2200737 -5.063529968 4.364329338 0.9322312474 
51.93335724 31.33406639 15.57863998 0.7784188986 
44.03242493 32.23166275 14.01566124 0.7982294559 
44.09886169 35.3976593 14.52412701 0.7917301059 
44.46364975 51.0629425 17.39057541 0.7560674548 
4.924955845 21.32730675 5.621962547 0.9135692716 
12.55155945 90.41261292 23.44471931 0.6859368086 
8.517560959 90.88498688 23.44563866 0.6859267354 
-3.655363798 91.22088623 23.44842148 0.685896039 
-7.709889889 90.97161865 23.44935226 0.6858856678 
-15.76608562 89.93343353 23.45120621 0.685865283 
-19.78039742 89.27558136 23.48604774 0.6854810119 
-30.96191597 -14.09438419 8.737610817 0.8689299822 
-23.26804352 -13.20477486 6.871584892 0.8953962922 
-17.55640793 -13.33755875 5.662937641 0.9129676223 
-12.5558033 -13.66491222 4.766381264 0.9262241125 
-8.589828491 -13.54603481 4.119779587 0.935904026 
-5.339272499 -13.09564877 3.632372856 0.9432676435 
-4.648368835 -13.03137875 3.553608418 0.9444630146 
-3.406340361 -13.14058304 3.486650229 0.9454804063 
-2.187978506 -13.16891575 3.428738832 0.9463611841 
-1.591506362 -13.18278313 3.410518646 0.9466385245 
-1.000178218 -13.1965332 3.399185181 0.9468110204 
-0.411606431 -13.21022224 3.394624472 0.9468804002 
0.7619677782 -13.15716267 3.38501215 0.9470267892 
1.360998511 -13.25142765 3.421466589 0.9464718699 
2.572431564 -13.27959442 3.474199772 0.945669651 
3.194743633 -13.29406452 3.511723518 0.9450992346 
3.831921339 -13.30887413 3.557186127 0.9444087148 
5.163840294 -13.33984089 3.674017191 0.9426361918 
5.830405235 -13.27499485 3.723975658 0.9418792725 
6.598042011 -13.37318039 3.830144644 0.9402728081 
8.172487259 -13.40977478 4.033462524 0.9372039437 
9.027570724 -13.42965031 4.156231403 0.9353557229 
12.81110573 -15.81556129 5.227639675 0.9193800688 
18.02619171 -18.59659576 6.652121544 0.8985615969 
19.74711227 -18.63660049 6.974045277 0.8939224482 
16.18458366 -6.017858982 4.434991837 0.9311726689 
52.84794617 31.24793053 15.76897812 0.7760403752 
44.21965408 31.76808929 13.98469925 0.7986270189 
44.08366776 34.74481201 14.41669273 0.7930989861 
45.75716782 43.18387604 16.15994453 0.7711771131 
44.44191742 50.1299324 17.20685959 0.7583041191 
5.277795315 91.13342285 23.44637871 0.6859185696 
-2.843185902 91.24909973 23.44823647 0.685898006 
-6.899763107 91.03592682 23.44916725 0.6858876944 
-10.94295597 90.64245605 23.45009804 0.685877502 
-14.96480656 90.06949615 23.4510231 0.6858673692 
-18.95737457 89.31816101 23.45194054 0.6858571768 
-9.98815918 21.6848774 6.132054329 0.90610677 
-21.51777077 -13.2454586 6.489881992 0.9009087086 
-19.58254051 -13.29046345 6.078668594 0.9068851471 
-18.14927864 -13.53488731 5.815083504 0.9107369184 
-13.9394989 -13.6327343 5.007893085 0.9226343036 
-12.77717495 -13.65976524 4.804067135 0.925663054 
-10.5434885 -13.50061035 4.399715424 0.9317009449 
-9.623439789 -13.52200699 4.262814045 0.9337540865 
-8.757255554 -13.54214287 4.142131805 0.9355677962 
-6.127204418 -12.99699879 3.690572977 0.9423853159 
-4.16087389 -13.12304401 3.535957575 0.9447311163 
-2.308122396 -13.1661272 3.433222532 0.9462929368 
-1.11816895 -13.19379139 3.400906801 0.9467847943 
-0.5292382836 -13.20748711 3.394998789 0.9468747377 
0.05882079899 -13.22115707 3.395822048 0.9468622208 
0.6483252048 -13.23486042 3.40338254 0.9467470646 
1.841245055 -13.26258755 3.439102173 0.9462035298 
3.069223642 -13.29114437 3.503602266 0.9452227354 
4.354511738 -13.32102013 3.599601984 0.9437648058 
5.688576698 -13.27170181 3.708701611 0.9421106577 
6.44899416 -13.36970901 3.81255722 0.940538764 
8.007375717 -13.40594196 4.010708332 0.9375468493 
12.72337341 -15.99630833 5.249738216 0.9190534353 
13.74530506 -15.78536129 5.376048565 0.9171888232 
17.7006321 -18.58902359 6.592788696 0.8994193077 
19.346735 -18.58711815 6.890810966 0.8951196671 
21.20420456 -18.63029289 7.2497015 0.8899690509 
16.27415466 -4.607382774 4.344223499 0.9325326681 
44.06868744 34.10146332 14.31195068 0.7944357395 
45.7389946 42.40335846 16.01959801 0.772919476 
44.58543015 49.39935303 17.09160423 0.7597110271 
14.15885925 90.17343903 23.44434929 0.6859408617 
10.13396263 90.7175827 23.44527054 0.6859306693 
6.08836174 91.08214569 23.44619179 0.6859206557 
-2.031228065 91.27005005 23.44804955 0.6859000921 
-6.089494705 91.09298706 23.44898224 0.6858897805 
-14.16278076 90.19837952 23.45083618 0.6858693361 
-18.16182899 89.48258209 23.45175743 0.6858592033 
-32.14015198 -13.94563484 8.998626709 0.8652907014 
-16.8981266 -13.56395435 5.56546545 0.9143996239 
-14.18396664 -13.62705517 5.051960945 0.9219807386 
-11.82637691 -13.58164978 4.625523567 0.9283242822 
-9.802905083 -13.5178318 4.28883791 0.9333634377 
-6.556833267 -13.59330082 3.876313925 0.9395750165 
-5.610414982 -13.08935261 3.657746553 0.9428828955 
-4.939303875 -13.10495567 3.597082376 0.9438030124 
-3.036381721 -13.14919853 3.466179132 0.9457916021 
-1.82933104 -13.17725563 3.416970253 0.9465402961 
-0.6468432546 -13.20475578 3.39564085 0.9468649626 
-0.0588012673 -13.21842289 3.395118237 0.94687289 
3.575080395 -13.30290508 3.538018703 0.9446997643 
6.301298618 -13.36627865 3.795433283 0.9407977462 
7.053559303 -13.3837719 3.885732889 0.9394327402 
7.844177246 -13.40214825 3.988535166 0.9378811717 
8.679369926 -13.42155933 4.105260372 0.9361225963 
20.82277107 -18.62620163 7.175690651 0.8910287619 
16.24821472 -4.756591797 4.348423958 0.932469666 
54.97879791 31.20085716 16.23650169 0.7702283859 
49.78460312 31.25983047 15.09863281 0.7844499946 
45.33759689 31.3631897 14.15945911 0.7963860035 
44.05392456 33.467659 14.20989323 0.7957405448 
44.12995529 36.73303986 14.74738693 0.7888929844 
45.84399414 41.74843597 15.92563438 0.7740880251 
44.39982224 48.32182693 16.85486221 0.7626082301 
44.57329941 53.067173 17.8001194 0.7511051297 
14.87493896 89.5286026 23.31014824 0.6874222159 
6.898810863 91.02361298 23.44600487 0.6859226823 
2.843029737 91.24399567 23.44693565 0.6859124899 
-5.278361797 91.14286041 23.44879532 0.6858918071 
-13.359231 90.32015228 23.45065117 0.6858713627 
-32.76132965 -13.87012196 9.137633324 0.8633589149 
-22.71140289 -13.42880344 6.776721478 0.8967632055 
-20.63859177 -13.47699642 6.331009865 0.9032130241 
-17.20078278 -13.55692387 5.625177383 0.9135220647 
-15.74871349 -13.59067822 5.342917442 0.9176774621 
-14.43294621 -13.62126923 5.097248554 0.9213096499 
-13.23056412 -13.64921856 4.882409096 0.9244977236 
-11.93998051 -13.46814919 4.622882366 0.9283636808 
-9.984584808 -13.51360798 4.315524578 0.9329630136 
-8.260192871 -13.55370045 4.076746941 0.9365518689 
-7.464482307 -13.57220173 3.978385448 0.9380342364 
-6.704865456 -13.58985329 3.892192364 0.939335227 
-5.071721077 -13.10187244 3.6084795 0.9436300993 
-2.549362659 -13.1605196 3.443049908 0.9461434484 
-1.936779737 -13.09442616 3.399826527 0.9468012452 
-1.354504347 -13.18830013 3.405165434 0.9467199445 
-0.1764379889 -13.21568775 3.394685507 0.9468795061 
0.412211895 -13.22936726 3.399548292 0.9468055367 
4.091699123 -13.31490707 3.57770443 0.9440971613 
5.408395767 -13.26518536 3.679394484 0.9425547123 
6.117582798 -13.28166962 3.755803108 0.9413974285 
6.900280476 -13.38020515 3.866720438 0.939719975 
9.384635925 -13.43795872 4.209830284 0.9345499277 
12.28758526 -14.62907219 4.906975746 0.9241325855 
17.06669807 -18.57429695 6.478795052 0.9010693431 
18.69513321 -18.61214828 6.775650024 0.8967786431 
20.48362923 -18.65371513 7.115767002 0.891887784 
42.56843567 -17.13506889 11.78602505 0.8273656368 
16.18596649 -5.692585468 4.406905651 0.9315932989 
23.05127907 9.041347504 6.359737396 0.9027959108 
