# .PCD v0.7 - Point Cloud Data file format
VERSION 0.7
FIELDS x y z intensities
SIZE 4 4 4 4
TYPE F F F F
COUNT 1 1 1 1
WIDTH 942
HEIGHT 1
VIEWPOINT 0 0 0 1 0 0 0
POINTS 942
DATA ascii
49.14300537 12.04131794 7.218139648 0.8151068687 
87.42150116 34.28898239 13.39657688 0.6842545271 
88.91721344 39.52524948 13.88162327 0.6749167442 
87.57722473 43.69408035 13.96243954 0.6733755469 
84.91030121 47.19289017 13.85855293 0.6753598452 
46.21144485 31.36317253 7.967474937 0.7979900837 
42.63006592 45.57484818 8.902713776 0.7771300673 
42.73207092 49.965271 9.379361153 0.7667095065 
42.84587479 54.86258698 9.930699348 0.7548300624 
8.671977043 102.3251038 14.65005684 0.6603887677 
-9.579389572 102.212944 14.64562321 0.6604716778 
-21.20384789 91.82301331 13.44422054 0.6833320856 
-12.95003414 21.68094635 3.602739811 0.9029943943 
-86.95655823 -18.86101723 12.69370937 0.6980128884 
-82.17179871 -25.65211105 12.2805891 0.7062279582 
-24.34631729 -12.69300556 3.916943789 0.8949944973 
-22.00384712 -12.7475071 3.627803802 0.9023538232 
-18.20668411 -12.83586597 3.177973509 0.9139236808 
-16.63476562 -12.87243366 3.000670195 0.9185246825 
-14.27070045 -14.46249199 2.898555756 0.9211850166 
-14.33872986 -17.38292122 3.214651346 0.9129746556 
-14.37879562 -19.10292244 3.41095829 0.9079127908 
-6.571606159 -13.02621841 2.081413984 0.9427530169 
-5.867307186 -13.04259777 2.040266275 0.9438524246 
-3.27244854 -13.10297775 1.926689863 0.9468934536 
-2.66230464 -13.11717701 1.909452915 0.9473558068 
-1.468386173 -13.1449585 1.886926055 0.9479603767 
-0.2931152284 -13.17230415 1.879628658 0.9481563568 
2.076933622 -13.22745132 1.910151124 0.947337091 
3.310708046 -13.25615692 1.949212432 0.9462895989 
4.606467247 -13.28630352 2.006117105 0.9447657466 
5.285864353 -13.30211926 2.04201889 0.9438055158 
5.991440296 -13.31853771 2.083427906 0.9426992536 
6.768735409 -13.41695976 2.143849373 0.9410874248 
7.545602798 -13.4350462 2.198246241 0.9396386147 
21.58380318 -21.8738842 4.383937836 0.8832347989 
24.21801758 -18.74056816 4.368575573 0.8836191893 
26.66274834 -18.79746819 4.65397501 0.8765054345 
29.52028275 -18.90411758 5.00087738 0.8679359555 
32.76114273 -18.97951889 5.401374817 0.8581464291 
36.57459259 -19.06824875 5.884279251 0.8464893103 
41.14667892 -19.17462158 6.476074696 0.8324193954 
40.12861252 -16.56954765 6.193583965 0.8391062617 
61.6693573 -19.25170135 9.21648407 0.7702544928 
48.46036148 13.71965027 7.185082436 0.8158703446 
91.35255432 30.31269264 13.73111153 0.6778021455 
88.80857849 38.53416824 13.81068325 0.6762761474 
84.92889404 46.21866989 13.79390621 0.6765976548 
51.76564407 31.23293304 8.624962807 0.7832676768 
42.92388916 31.42007828 7.588772297 0.8065952063 
42.42456818 34.05361176 7.760882854 0.802672863 
42.50272369 37.34366226 8.071377754 0.7956451774 
44.03089905 42.30197525 8.710666656 0.7813687921 
0.4568603337 102.6769409 14.6480608 0.6604260206 
-4.110713005 102.5878677 14.64695168 0.6604467034 
-8.669491768 102.2957764 14.64584446 0.660467267 
-17.72456932 101.1050873 14.64364624 0.6605087519 
-77.00312042 22.5424881 11.44635201 0.7231134772 
-86.93764496 -18.04828262 12.66699886 0.6985411644 
-82.15303802 -24.84604645 12.2442503 0.7069551945 
-82.24800873 -28.92664337 12.43805599 0.7030853629 
-27.71130371 -12.61471367 4.343641758 0.8842434287 
-22.30836296 -12.66008472 3.659288168 0.9015495777 
-16.93499947 -12.86545658 3.034053326 0.9176566005 
-14.26462173 -14.20127201 2.871533632 0.9218902588 
-14.29624462 -15.55910397 3.014381647 0.9181679487 
-14.33125973 -17.06220818 3.178808451 0.9139020443 
-14.41461372 -20.64043236 3.591552019 0.9032807946 
-13.02055645 -20.53329277 3.468583822 0.9064322114 
-6.715969086 -13.02285576 2.090344906 0.9425145984 
-5.322778225 -13.05527115 2.011317015 0.9446265697 
-4.662402153 -13.07063484 1.979740977 0.9454718232 
-4.021183968 -13.08555603 1.952942252 0.9461895823 
-2.181254864 -13.12837124 1.898572206 0.94764781 
-1.586621046 -13.14220715 1.888484955 0.9479185939 
0.1760034114 -13.18321991 1.88088727 0.948122561 
0.7642748952 -13.19690895 1.885829568 0.947989881 
3.184946299 -13.25323009 1.94453752 0.9464148879 
5.848022461 -13.31519699 2.074684143 0.9429327846 
14.26016045 -17.60450935 3.232036591 0.9125252962 
22.36044312 -25.22228622 4.808630466 0.8726745844 
14.34256363 -12.37719727 2.702665329 0.9263100028 
26.14851952 -18.78549957 4.593214035 0.8780150414 
28.86483765 -18.84869766 4.918061256 0.8699740171 
35.75811386 -19.04924965 5.779968262 0.8489938378 
28.15209961 -13.42527771 4.449484825 0.8815965652 
51.1150856 -19.00608635 7.779866219 0.8022415638 
94.80963898 30.52592468 14.20936394 0.6686833501 
87.3787384 32.48994446 13.29929638 0.6861425638 
86.68244171 46.1778717 14.01141548 0.6724424362 
52.78456116 31.21039963 8.748101234 0.7805405855 
47.96394348 31.3203907 8.172212601 0.793376267 
42.34653091 33.37566757 7.691968441 0.8042411208 
42.48659897 36.66469574 8.006031036 0.7971190214 
44.16859436 41.6846199 8.664153099 0.7823987007 
42.6575737 44.00738525 8.74347496 0.7806429863 
42.68999481 48.15386581 9.180528641 0.7710394263 
-7.758905888 102.3703308 14.64606571 0.6604633927 
-12.14521503 100.5998993 14.45584202 0.664031744 
-16.82426643 101.260437 14.64386559 0.6605044007 
-82.22875977 -28.10002136 12.39682388 0.7039067745 
-33.81374741 -13.26261902 5.181665421 0.8635030389 
-20.7559948 -12.77655506 3.477081776 0.9062139988 
-18.88931656 -12.81997776 3.256774187 0.9118861556 
-15.76727009 -12.88857174 2.905237913 0.921010673 
-14.35982418 -12.84503365 2.748574257 0.9251064658 
-14.2586422 -13.94493389 2.845241547 0.9225770235 
-14.32395267 -16.74858093 3.144002676 0.9148033857 
-14.36219406 -18.39029503 3.328834057 0.9100270271 
-14.40530777 -20.24097443 3.544208288 0.9044927359 
-6.145685673 -13.03612232 2.056041002 0.9434307814 
-5.457456112 -13.05213833 2.018237352 0.9444414377 
-4.14804697 -13.08260441 1.957937121 0.9460558295 
-2.301018 -13.12558365 1.901053905 0.947581172 
-1.705070734 -13.13945007 1.890193343 0.9478726983 
-1.114726543 -13.15319061 1.883163571 0.9480614662 
0.6463598609 -13.19416428 1.884539247 0.9480245113 
1.835556626 -13.22182846 1.904319525 0.9474935532 
2.441972494 -13.23594189 1.920111179 0.9470698833 
3.059765577 -13.25031662 1.940038204 0.9465355277 
6.429218769 -13.32872295 2.111129522 0.9419599771 
7.230165958 -13.42769718 2.17564249 0.9402403831 
10.61830521 -16.10384941 2.751834631 0.9250208735 
21.95448685 -25.21284866 4.769389629 0.8736448884 
20.81148911 -21.85590935 4.305402279 0.8852014542 
22.79732323 -21.90212631 4.510002136 0.88008672 
23.32132339 -18.7197094 4.266259193 0.8861834407 
25.6474514 -18.77384567 4.534377575 0.8794795871 
34.89312363 -18.98895645 5.667242527 0.8517087698 
39.70513153 -17.22806931 6.174571514 0.8395581245 
35.93841553 -13.72821522 5.488310337 0.8560360074 
57.74285507 -19.1603241 8.67927742 0.7820637822 
37.98807526 8.239645958 5.545408249 0.8546528816 
48.93284988 12.91729546 7.219912529 0.8150661588 
96.52095795 30.13160896 14.42505455 0.6646103263 
87.35759735 31.60008049 13.25274849 0.6870476604 
88.87559509 41.41656113 13.98811531 0.6728861332 
53.7297554 31.12721634 8.858482361 0.7781041861 
49.67718124 31.81208229 8.41553688 0.7879273295 
42.33217239 32.75784683 7.636104584 0.8055146337 
42.47072601 35.99657059 7.942358017 0.7985578179 
11.40099049 102.0617294 14.65071964 0.6603764296 
5.989824295 89.60509491 12.81161118 0.6956856847 
-6.847602367 102.4368744 14.64628601 0.66045928 
-15.92280197 101.4075851 14.64408302 0.6605004668 
-86.99463654 -20.49707222 12.75051403 0.696890831 
-34.16925812 -13.05241394 5.218138218 0.8626115322 
-28.82781219 -12.50839043 4.483035088 0.8807592988 
-25.94182968 -12.6558857 4.117794514 0.8899176717 
-21.13655663 -12.75283909 3.521685123 0.9050700068 
-19.24351501 -12.81174564 3.298056602 0.910820663 
-17.55609894 -12.85100269 3.10385251 0.9158442616 
-16.053545 -12.8859539 2.936737061 0.920189321 
-14.25277519 -13.6931076 2.819634438 0.9232463241 
-14.2832222 -15.00002193 2.954861879 0.9197170734 
-14.31680393 -16.44172096 3.110193968 0.9156798124 
-14.39624977 -19.85188675 3.498374462 0.9056676626 
-14.4441061 -21.90610504 3.743331194 0.8994061947 
-7.763984203 -12.99847412 2.159970284 0.9406577945 
-7.008503437 -13.01605225 2.108943939 0.9420182109 
-4.924050331 -13.06455326 1.991776824 0.9451494813 
-3.027058125 -13.10868835 1.919303656 0.9470915794 
-1.823730469 -13.13669205 1.892057896 0.94782269 
-1.232458472 -13.15044689 1.884267092 0.9480318427 
-0.6448827982 -13.16411877 1.880247951 0.9481397271 
-0.05864746124 -13.17776108 1.879961371 0.9481474161 
0.5285986066 -13.19142342 1.883401036 0.9480550289 
1.119140625 -13.20516109 1.890606761 0.9478616714 
3.564101458 -13.26205254 1.959099174 0.9460246563 
4.875334263 -13.29256535 2.019845009 0.9443984628 
5.564726353 -13.30861092 2.057896852 0.9433811903 
7.051176548 -13.37917233 2.157525778 0.9407229424 
11.37887669 -15.9885273 2.799602509 0.9237703085 
20.43553734 -21.84716415 4.26768446 0.8861476183 
22.38515663 -21.89252663 4.466832161 0.8811635375 
27.73341179 -18.82237434 4.781618118 0.873342514 
34.20890045 -19.01320457 5.583375931 0.8537341952 
38.29932404 -19.10837555 6.106068611 0.84118855 
40.14639664 -15.74644279 6.152081013 0.8400930166 
55.29161072 -18.89479637 8.335771561 0.7897094488 
87.5206604 30.78108597 13.23541355 0.6873852611 
88.85306549 40.44761276 13.92737293 0.6740448475 
15.98512459 9.071620941 2.622071981 0.9284268022 
45.36761093 31.38377953 7.869827271 0.8001999855 
44.13385773 40.19109726 8.515662193 0.7856962681 
43.93884659 43.74381256 8.845098495 0.7783993483 
42.87027359 55.91251755 10.0512867 0.7522563934 
3.538322687 21.29601479 3.079744816 0.9164698124 
12.3089838 101.9577789 14.65093994 0.6603722572 
7.760795593 102.3967819 14.64983463 0.660392642 
-1.370688438 102.6657028 14.64761639 0.6604343057 
-5.935830116 102.4953079 14.64650726 0.6604551077 
-21.71003914 90.33961487 13.25480175 0.6870079637 
-83.16721344 -26.77744293 12.46447754 0.7025594115 
-33.72005844 -14.27591991 5.22386694 0.8624715209 
-21.57600594 -12.75746822 3.575844765 0.9036827087 
-19.60685921 -12.80327892 3.340668201 0.9097220898 
-17.8775444 -12.84352303 3.140350342 0.9148980379 
-14.87087822 -12.83313656 2.802221537 0.9237018228 
-14.30980682 -16.14128685 3.077336311 0.9165323377 
-14.34636688 -17.71088982 3.251571655 0.9120206237 
-14.38741207 -19.47269249 3.453978777 0.9068071842 
-14.43400097 -21.47250748 3.691041231 0.9007391334 
-13.73794651 -22.54195976 3.765990019 0.8988291025 
-7.156747818 -13.01260185 2.118620634 0.9417600632 
-1.942631841 -13.13392067 1.894072652 0.947768569 
-1.350334406 -13.14770222 1.885520697 0.9479981661 
-0.762209475 -13.1613884 1.880754828 0.9481261969 
1.000659108 -13.20240211 1.888861179 0.9479085207 
1.595585942 -13.2162447 1.899124265 0.947633028 
4.079106331 -13.27404308 1.981075525 0.9454360604 
4.740441799 -13.28943062 2.012877941 0.9445847869 
6.136074066 -13.32190609 2.092414379 0.9424593449 
6.921061993 -13.42050552 2.154174328 0.9408122301 
8.482323647 -13.37649918 2.259624243 0.9380065799 
11.0481348 -15.81994343 2.752757549 0.9249967337 
20.06601524 -21.83856583 4.230944157 0.8870702386 
21.98068237 -21.88310814 4.424816132 0.8822128177 
24.08368111 -21.93205261 4.64695406 0.8766797185 
24.68276787 -18.75138474 4.422130108 0.8822799325 
27.19087791 -18.80975723 4.716751099 0.8749483824 
30.12954521 -18.918293 5.075358391 0.8661068082 
33.47304535 -18.99608612 5.490651131 0.8559792638 
40.78211212 -16.41601753 6.27163887 0.8372531533 
63.77320099 -19.28726768 9.504875183 0.7639887929 
88.88034821 30.37305832 13.39961147 0.6841958761 
88.91723633 39.52537155 13.88178825 0.6749165058 
50.77474594 31.25485229 8.505868912 0.7859139442 
46.21144485 31.36317253 7.967474937 0.7979900837 
42.53360748 31.7195549 7.569372177 0.8070383668 
42.43972015 34.69128799 7.819828987 0.8013340235 
43.96166992 39.32422256 8.414560318 0.7879491448 
42.63006592 45.57493973 8.90272522 0.7771298885 
42.84587479 54.86258698 9.930699348 0.7548300624 
13.21626472 101.8457794 14.65116024 0.6603679657 
8.672075272 102.3251648 14.65005684 0.6603885889 
4.111386776 102.6017685 14.64894867 0.6604095697 
-0.4567871094 102.6753616 14.64783764 0.6604301929 
-18.62353516 100.9418945 14.64342785 0.6605125666 
-21.20385742 91.82240295 13.4441309 0.6833337545 
-12.95003414 21.68094635 3.602739811 0.9029943943 
-86.95655823 -18.86113548 12.69370365 0.6980128288 
-82.07904053 -21.66724777 12.11053467 0.7096375227 
-82.17179871 -25.65215111 12.28059196 0.7062279582 
-34.47531128 -12.47086143 5.230146408 0.8623181581 
-16.63479424 -12.87243366 3.000673056 0.9185246229 
-14.30295658 -15.8472681 3.045422316 0.9173611403 
-14.37880135 -19.10297966 3.410964966 0.907912612 
-7.350905418 -13.08841801 2.141531467 0.9411491752 
-5.867307186 -13.04259777 2.040266275 0.9438524246 
-4.532736778 -13.07365227 1.974007726 0.9456253052 
-3.272455931 -13.10298061 1.926689863 0.946893394 
-2.061818838 -13.13114929 1.896245837 0.9477102757 
-1.468408227 -13.14495373 1.886926413 0.9479604363 
-0.8796362281 -13.15865898 1.881407619 0.9481086135 
0.2934521437 -13.18595219 1.881577253 0.9481040239 
1.476066828 -13.21346378 1.896762252 0.9476963878 
2.687590361 -13.24165726 1.927574515 0.9468696713 
8.364547729 -13.45410347 2.26006484 0.9379948378 
10.80849075 -15.77406502 2.727922201 0.9256475568 
11.54867649 -15.34301949 2.739598274 0.9253416061 
20.77477074 -25.18538857 4.657579422 0.8764160275 
21.58389091 -21.8738842 4.383948326 0.8832346201 
23.64631844 -21.92187691 4.600030422 0.8778457046 
14.54085159 -12.32420158 2.719251156 0.9258750081 
24.21806526 -18.74056816 4.368582249 0.8836190104 
26.66280746 -18.79746819 4.653982639 0.8765052557 
29.52030182 -18.90411758 5.000880241 0.8679358959 
40.12861252 -16.56954765 6.193583965 0.8391062617 
48.46036148 13.71965027 7.185082436 0.8158703446 
87.72145081 42.79519272 13.92416 0.6741061807 
42.92379379 31.42014503 7.588768005 0.8065953255 
42.42457581 34.05376434 7.760899067 0.8026725054 
44.03089905 42.30205154 8.710672379 0.7813686132 
-4.110835075 102.5878906 14.64695168 0.6604466438 
-17.72456932 101.1050873 14.64364624 0.6605087519 
-77.0029068 22.54260445 11.44632435 0.7231138945 
-84.53217316 -21.5118084 12.44374752 0.7029719949 
-82.24799347 -28.92652512 12.43805027 0.7030855417 
-33.81389236 -13.61110115 5.200041771 0.8630537391 
-27.71143532 -12.61471367 4.343658924 0.8842430115 
-24.86045265 -12.68103695 3.981352568 0.8933634162 
-20.36257744 -12.78569508 3.430107355 0.907420516 
-16.93496132 -12.86545658 3.034049034 0.9176567197 
-14.37039566 -18.74224281 3.369260073 0.9089856744 
-14.41461372 -20.64043236 3.591552019 0.9032807946 
-13.02057552 -20.5332737 3.468583345 0.9064322114 
-5.322814941 -13.05527306 2.011318684 0.9446265101 
-4.021154881 -13.08555889 1.95294106 0.946189642 
-2.181240082 -13.12837124 1.898571849 0.94764781 
-1.586606383 -13.14220428 1.888484955 0.9479185939 
-0.9971020222 -13.1559248 1.882210493 0.9480870366 
0.1760034114 -13.18321991 1.88088727 0.948122561 
0.7642748952 -13.19690895 1.885829568 0.947989881 
1.356813908 -13.2106905 1.894554853 0.9477556348 
1.956057072 -13.22463322 1.907154918 0.947417438 
2.564531088 -13.23879147 1.923758626 0.9469720721 
4.473342419 -13.2832222 1.999557257 0.9449412227 
5.147997856 -13.298913 2.03441143 0.9440088868 
5.848056316 -13.31519699 2.07468605 0.942932725 
7.387096882 -13.43135452 2.186803341 0.939943254 
8.197118759 -13.45019722 2.247071028 0.9383401871 
10.76152325 -16.00913811 2.751912117 0.9250189066 
11.48428154 -15.5433712 2.757017136 0.9248851538 
14.26018524 -17.60451317 3.232039213 0.9125252366 
22.36044312 -25.22228622 4.808630466 0.8726745844 
21.19417 -21.86481667 4.344142914 0.8842307329 
23.21757317 -21.91189575 4.554386616 0.8789812326 
23.7643261 -18.73001099 4.316650867 0.8849199414 
28.86474991 -18.84869766 4.918047428 0.8699743152 
32.07190704 -18.96348763 5.31535244 0.860239625 
28.15193367 -13.42526627 4.449463367 0.8815971017 
58.94079971 -18.97710609 8.833584785 0.7786530256 
87.37874603 32.49015427 13.29930496 0.6861423254 
86.68211365 46.1778717 14.01137447 0.6724432707 
52.78443146 31.21040154 8.74808979 0.7805409431 
47.96382141 31.32039452 8.172196388 0.793376565 
43.65388489 31.36163902 7.668184757 0.8047830462 
44.16859436 41.6846199 8.664153099 0.7823987007 
42.6575737 44.00738525 8.74347496 0.7806429863 
42.68999481 48.15374756 9.180513382 0.7710396647 
13.24180126 89.52638245 12.91080856 0.6937339902 
5.936972618 102.5155182 14.64939213 0.6604011059 
1.370688438 102.6702423 14.64828205 0.6604222059 
-7.758803368 102.3703461 14.64606571 0.6604633927 
-12.14506817 100.5998993 14.45578861 0.6640318036 
-21.3103714 100.4043655 14.64277554 0.6605247259 
-76.65870667 23.18426514 11.42536831 0.7235432267 
-87.01381683 -21.32087135 12.78064156 0.6962965131 
-82.13438416 -24.04486465 12.20910263 0.7076593637 
-28.25873566 -12.56153584 4.411752701 0.8825392723 
-18.88931656 -12.81997776 3.256774187 0.9118861556 
-17.13757706 -12.78040218 3.049837589 0.9172462225 
-15.76727009 -12.88857174 2.905237913 0.921010673 
-14.35982418 -12.84503365 2.748574257 0.9251064658 
-14.2586422 -13.94488525 2.845234871 0.9225771427 
-14.32395267 -16.74849319 3.143992901 0.9148036838 
-14.36219978 -18.39038277 3.328843355 0.9100267291 
-7.653544903 -13.07659912 2.161546707 0.9406158328 
-6.145649433 -13.03612232 2.056038618 0.943430841 
-5.457456112 -13.05213833 2.018237352 0.9444414377 
-4.792824745 -13.06760025 1.985662341 0.9453132153 
-3.519797325 -13.09722424 1.934749246 0.9466772676 
-2.905058622 -13.11152267 1.915856123 0.9471840262 
-2.301018 -13.12558365 1.901053905 0.947581172 
-1.705070734 -13.13945007 1.890193343 0.9478726983 
0.05863769352 -13.18048763 1.880352259 0.9481369853 
0.6463329792 -13.19416237 1.884538651 0.9480245113 
1.835585952 -13.22182846 1.904320478 0.9474935532 
4.341147423 -13.28013897 1.993201137 0.9451113343 
5.01120615 -13.29572964 2.027023315 0.9442064166 
5.705802917 -13.31189156 2.066174507 0.9431600571 
6.429218769 -13.32872295 2.111129522 0.9419599771 
7.230165958 -13.42769718 2.17564249 0.9402403831 
10.61830521 -16.10384941 2.751834631 0.9250208735 
10.72896481 -14.79485607 2.607203245 0.9288178086 
13.99765873 -17.59840012 3.207914352 0.9131489396 
22.79722595 -21.90211678 4.509992599 0.880087018 
25.64756775 -18.77384949 4.534379005 0.8794792891 
34.89312363 -18.98895645 5.667242527 0.8517087698 
27.57187843 -13.45103264 4.37653017 0.8834201694 
39.70513153 -17.22806931 6.174571514 0.8395581245 
35.93841553 -13.72821522 5.488310337 0.8560360074 
57.74285507 -19.1603241 8.67927742 0.7820637822 
48.93284988 12.91729546 7.219912529 0.8150661588 
87.35759735 31.60008049 13.25274849 0.6870476604 
44.54410934 31.40388107 7.775147438 0.8023486137 
42.33216858 32.75769806 7.636091709 0.8055149913 
42.4707222 35.99641418 7.94234705 0.7985581756 
43.96353912 40.75733185 8.552707672 0.7848784328 
42.66960907 47.27661133 9.085309029 0.7731215358 
42.77605057 51.85771179 9.590130806 0.7621461749 
42.8952713 56.98861313 10.17569351 0.7496106625 
2.284150362 102.6557083 14.64850426 0.6604175568 
-2.236606359 100.4993896 14.34080982 0.6661980748 
-4.243940353 37.99098206 5.453518391 0.8568800688 
-15.92280197 101.4075851 14.64408302 0.6605004668 
-20.41650772 100.5913391 14.64299297 0.6605210304 
-86.99463654 -20.49707222 12.75051403 0.696890831 
-82.20965576 -27.27891731 12.35685253 0.7047040462 
-34.16925812 -13.05241394 5.218138218 0.8626115322 
-25.94194794 -12.6558857 4.117810726 0.8899172544 
-21.13655663 -12.75278091 3.521678448 0.9050701261 
-16.05347633 -12.88596439 2.936728477 0.9201894999 
-14.25278091 -13.69316578 2.819639921 0.9232461452 
-14.2832222 -15.00010014 2.954868078 0.9197168946 
-14.31680393 -16.44172096 3.110193968 0.9156798124 
-14.4441061 -21.90610504 3.743331194 0.8994061947 
-5.59311533 -13.04897881 2.025367737 0.9442507625 
-4.275602818 -13.07963848 1.963109851 0.9459171891 
-3.64430666 -13.09432602 1.939036369 0.9465623498 
-1.823703527 -13.13669205 1.8920573 0.94782269 
-1.232429147 -13.15045166 1.884268284 0.9480318427 
1.119140625 -13.20516109 1.890606761 0.9478616714 
2.935175657 -13.24741936 1.935713291 0.9466514587 
4.209716797 -13.27708244 1.98703897 0.94527632 
4.875334263 -13.29256535 2.019845009 0.9443984628 
5.564697266 -13.30860806 2.057894945 0.9433812499 
8.652788162 -13.38046646 2.273216009 0.9376455545 
11.37888622 -15.98846912 2.799595356 0.9237704873 
13.73911095 -17.59239006 3.184406042 0.9137570858 
22.38515663 -21.89252663 4.466832161 0.8811635375 
24.53009796 -21.94244385 4.695223331 0.8754819632 
22.88850021 -18.70963669 4.217373371 0.8874112368 
34.20890045 -19.01320457 5.583375931 0.8537341952 
38.29932404 -19.10837555 6.106068611 0.84118855 
40.10361862 -17.82680893 6.260969162 0.8375062346 
40.14652252 -15.7465992 6.152104855 0.8400924206 
48.80288315 12.41938114 7.184137821 0.8158923388 
99.4079361 30.06443596 14.815938 0.6572932601 
88.85305786 40.4473877 13.92735958 0.6740451455 
50.07575226 31.44262695 8.435339928 0.7874857187 
42.45510483 35.33895111 7.88031292 0.7999624014 
44.13385773 40.19109726 8.515662193 0.7856962681 
43.93884659 43.74381256 8.845098495 0.7783993483 
42.64963913 46.41702652 8.992721558 0.7751515508 
42.75381851 50.90090561 9.483190536 0.7644580603 
7.760795593 102.3967819 14.64983463 0.660392642 
-15.01975536 101.5468216 14.64430237 0.6604963541 
-86.97555542 -19.6770916 12.72154045 0.6974629164 
-82.09737396 -22.45526505 12.14224815 0.7090005875 
-33.4946022 -12.4543581 5.097986221 0.8655520678 
-33.71989822 -14.27593517 5.223846912 0.8624719977 
-21.57600594 -12.75746822 3.575844765 0.9036827087 
-17.8775444 -12.84352303 3.140350342 0.9148980379 
-14.87087822 -12.83313656 2.802221537 0.9237018228 
-14.27690411 -14.7286644 2.926324368 0.9204608202 
-14.30980682 -16.14128685 3.077336311 0.9165323377 
-14.3874073 -19.47260475 3.453971386 0.9068074822 
-14.4339962 -21.47240829 3.691029549 0.9007394314 
-13.73794174 -22.54183388 3.765975952 0.8988294601 
-6.428420067 -13.02954578 2.072720766 0.9429852366 
-3.149504423 -13.10583687 1.922912955 0.9469947815 
-1.942631841 -13.13392067 1.894072652 0.947768569 
-0.762209475 -13.1613884 1.880754828 0.9481261969 
0.4109423757 -13.18868828 1.882414937 0.948081553 
1.000629902 -13.20240211 1.888860941 0.9479085207 
3.437124014 -13.25909615 1.954066277 0.946159482 
4.079135418 -13.27404308 1.981076479 0.9454360008 
4.740473747 -13.28943348 2.012880087 0.9445847273 
6.136108398 -13.32190418 2.092416763 0.9424592853 
6.921061993 -13.42050552 2.154174328 0.9408122301 
7.705834866 -13.43876457 2.209992886 0.9393261075 
8.482323647 -13.37649918 2.259624243 0.9380065799 
20.06601524 -21.83856583 4.230944157 0.8870702386 
24.68266106 -18.75137901 4.42211771 0.8822802305 
30.12968254 -18.918293 5.07537508 0.866106391 
33.47322845 -18.99608994 5.490673065 0.8559786677 
40.78211212 -16.41601753 6.27163887 0.8372531533 
53.9467659 -18.97303009 8.158155441 0.793692112 
88.87985229 30.37306786 13.39954567 0.6841971278 
88.91723633 39.52537155 13.88178825 0.6749165058 
87.57722473 43.69419861 13.96245098 0.6733754277 
84.91030121 47.19292068 13.8585577 0.6753597856 
50.77474594 31.25485229 8.505868912 0.7859139442 
42.53360748 31.7195549 7.569372177 0.8070383668 
42.43972015 34.69128799 7.819828987 0.8013340235 
42.6300621 45.57475662 8.902703285 0.7771303058 
42.73206329 49.96510696 9.379343033 0.7667098641 
42.8458786 54.86286926 9.930731773 0.7548294067 
4.111386776 102.6017685 14.64894867 0.6604095697 
-0.4567871094 102.6753616 14.64783764 0.6604301929 
-5.023320198 102.5456009 14.64672947 0.6604510546 
-9.579668045 102.2129211 14.64562321 0.6604716182 
-14.1159277 101.6779633 14.64452267 0.6604922414 
-18.62353516 100.9418945 14.64342785 0.6605125666 
-12.95003414 21.68094635 3.602739811 0.9029943943 
-82.17179871 -25.65215111 12.28059196 0.7062279582 
-27.100317 -12.62892818 4.265323162 0.8862071037 
-22.00388145 -12.7475214 3.627808809 0.902353704 
-19.85876465 -12.71708202 3.364167929 0.9091168046 
-18.20672798 -12.83586597 3.177978992 0.9139235616 
-14.27070045 -14.46256065 2.89856267 0.9211848378 
-14.33872986 -17.38297081 3.214658737 0.9129744768 
-14.37880135 -19.10297966 3.410964966 0.907912612 
-14.42417717 -21.05084229 3.640481472 0.9020299315 
-13.72717285 -22.07969856 3.709025145 0.900280416 
-7.350905418 -13.08841801 2.141531467 0.9411491752 
-5.189008713 -13.05838394 2.00460434 0.9448062181 
-4.532736778 -13.07365227 1.974007726 0.9456253052 
-3.894958496 -13.08849621 1.948132753 0.9463185668 
-2.662321806 -13.1171751 1.909453273 0.9473557472 
-1.468408227 -13.14495373 1.886926413 0.9479604363 
-0.2930859327 -13.17230415 1.87962842 0.9481563568 
0.2934521437 -13.18595219 1.881577253 0.9481040239 
1.476066828 -13.21346378 1.896762252 0.9476963878 
2.07695055 -13.22744846 1.910150886 0.947337091 
3.310717583 -13.25615978 1.949213028 0.9462895393 
4.606467247 -13.28630352 2.006117105 0.9447657466 
5.285864353 -13.30211926 2.04201889 0.9438055158 
5.991433144 -13.31853962 2.083426952 0.9426992536 
8.364547729 -13.45410347 2.26006484 0.9379948378 
20.77493668 -25.18539238 4.657590389 0.8764156103 
19.70297241 -21.83010864 4.19518137 0.8879691958 
23.64610863 -21.92187119 4.600007057 0.877846241 
24.2178421 -18.74056816 4.368556023 0.8836196661 
36.57497025 -19.06825447 5.884327888 0.8464881778 
41.14667892 -19.17462158 6.476074696 0.8324193954 
61.67009735 -19.25171089 9.216585159 0.7702522874 
48.46066666 13.71994495 7.185133934 0.8158690929 
91.35255432 30.31269264 13.73111153 0.6778021455 
87.4000473 33.38658905 13.34725094 0.6852111816 
88.80857086 38.53403854 13.81067467 0.6762763262 
87.72050476 42.79521561 13.92403316 0.6741085052 
51.7652626 31.23294449 8.624914169 0.7832686901 
47.07676315 31.34204674 8.068240166 0.7957158089 
42.50273514 37.34383392 8.071393967 0.7956447601 
44.0308876 42.30168533 8.710634232 0.7813694477 
42.72881699 49.07022476 9.282385826 0.76881814 
13.89045334 100.0541306 14.41063213 0.6648818851 
9.582231522 102.2453384 14.65027809 0.6603848338 
0.4567529261 102.6769333 14.6480608 0.6604260206 
-17.72456932 101.1050873 14.64364624 0.6605087519 
-86.93764496 -18.04828262 12.66699886 0.6985411644 
-84.53084564 -21.51184845 12.44356823 0.7029756308 
-33.81389236 -13.61110115 5.200041771 0.8630537391 
-24.86069679 -12.68104267 3.98138237 0.8933625817 
-22.30825233 -12.66009521 3.659274101 0.9015499353 
-18.4505806 -12.76355648 3.200594425 0.9133383632 
-15.49635696 -12.89893246 2.876365185 0.9217641354 
-14.33125973 -17.06220818 3.178808451 0.9139020443 
-14.37040043 -18.74242973 3.36928153 0.9089851379 
-13.02049732 -20.53334236 3.468586922 0.9064321518 
-7.502904892 -13.08488274 2.151795864 0.9408756495 
-6.715920448 -13.02285576 2.090341568 0.9425147176 
-6.005971432 -13.03937912 2.048042297 0.9436445236 
-4.662431717 -13.07063675 1.979742527 0.9454717636 
-4.021154881 -13.08555889 1.95294106 0.946189642 
-2.783452034 -13.11435986 1.912574291 0.9472720623 
-2.181296349 -13.12837124 1.89857316 0.94764781 
-0.9971581697 -13.15592003 1.882211089 0.9480870366 
-0.4103417993 -13.1695776 1.879686117 0.9481548071 
0.1760644466 -13.18322277 1.880888224 0.9481225014 
0.7642748952 -13.19690895 1.885829568 0.947989881 
1.956057072 -13.22463322 1.907154918 0.947417438 
2.564592123 -13.23879623 1.923761129 0.9469719529 
3.184929132 -13.253232 1.944537163 0.9464148879 
3.820212364 -13.26801014 1.969713807 0.9457402825 
4.473342419 -13.2832222 1.999557257 0.9449412227 
7.387016296 -13.43134975 2.186797619 0.9399434328 
11.48428154 -15.5433712 2.757017136 0.9248851538 
23.21757317 -21.91189575 4.554386616 0.8789812326 
14.34261703 -12.37714291 2.702666521 0.9263100028 
32.07223129 -18.96348763 5.315393448 0.8602386713 
35.75802612 -19.04924965 5.779955864 0.8489940763 
28.15226936 -13.42528057 4.449507236 0.8815960288 
40.14219284 -16.99495316 6.218779564 0.8385075927 
51.11543655 -19.00609589 7.779913902 0.8022404909 
58.93989182 -18.9770813 8.833460808 0.7786557674 
87.3787384 32.48971176 13.29928112 0.6861427426 
86.68211365 46.1778717 14.01137447 0.6724432707 
52.78493881 31.210392 8.748151779 0.7805395722 
47.96382141 31.32039452 8.172196388 0.793376565 
42.34653091 33.37566757 7.691968441 0.8042411208 
42.4866066 36.66500092 8.0060606 0.7971183658 
44.16859436 41.6846199 8.664153099 0.7823987007 
42.68999481 48.15374756 9.180513382 0.7710396647 
42.79879379 52.83646011 9.700291634 0.7597719431 
10.49169445 102.157753 14.65049744 0.6603803039 
5.936972618 102.5155182 14.64939213 0.6604011059 
1.370249033 102.6702499 14.64828205 0.6604221463 
-7.759213924 102.3703079 14.64606571 0.6604633927 
-21.3103714 100.4043655 14.64277554 0.6605247259 
-82.13438416 -24.04486465 12.20910263 0.7076593637 
-82.22875977 -28.09984589 12.39681244 0.7039068937 
-33.81378937 -13.26271248 5.181676388 0.8635028005 
-22.75915909 -12.6495924 3.714625835 0.9001376033 
-15.76727486 -12.88868904 2.905247688 0.921010375 
-14.25864697 -13.94498253 2.845247746 0.9225769043 
-14.28966522 -15.27675056 2.984205246 0.9189530611 
-14.32395267 -16.7486496 3.144012928 0.9148032069 
-14.36219406 -18.39020729 3.32882309 0.9100272655 
-14.40531254 -20.24108124 3.544219971 0.9044924378 
-14.45449162 -22.3520813 3.797409534 0.8980295658 
-6.861628056 -13.01946735 2.099522114 0.9422696233 
-4.792824745 -13.06760025 1.985662341 0.9453132153 
-3.519797325 -13.09722424 1.934749246 0.9466772676 
-2.904999971 -13.11152554 1.915854335 0.9471840858 
-1.705012202 -13.13945007 1.890192628 0.9478726983 
-1.114726543 -13.15319061 1.883163571 0.9480614662 
-0.52754879 -13.16685009 1.879893661 0.9481492639 
2.441943407 -13.23594189 1.920110583 0.9470698833 
3.059797287 -13.25031948 1.940039515 0.9465354681 
4.341147423 -13.28013897 1.993201137 0.9451113343 
5.705802917 -13.31189156 2.066174507 0.9431600571 
13.99765873 -17.59840012 3.207914352 0.9131489396 
21.95458031 -25.21285439 4.769400597 0.87364465 
20.81139183 -21.85590553 4.30539608 0.8852016926 
25.64733315 -18.77383995 4.53435421 0.8794799447 
27.57163429 -13.45106697 4.376500607 0.8834208846 
37.9879303 8.239524841 5.545379639 0.8546534777 
96.52229309 30.13157845 14.42523575 0.6646069288 
87.46489716 36.11561203 13.49964428 0.6822602749 
53.7297554 31.12721634 8.858482361 0.7781041861 
42.4707222 35.99641418 7.94234705 0.7985581756 
43.96357346 40.75773239 8.552513123 0.7848775983 
42.77603912 51.8572731 9.590081215 0.7621472478 
42.8952713 56.98861313 10.17569351 0.7496106625 
11.40121555 102.0616989 14.65071964 0.6603764296 
2.284570217 102.6557007 14.64850426 0.6604175568 
-6.847377777 102.4368896 14.64628601 0.66045928 
-15.92237759 101.4076462 14.64408398 0.6605004668 
-20.41650772 100.5913391 14.64299297 0.6605210304 
-86.99463654 -20.49707222 12.75051403 0.696890831 
-34.16927338 -13.05257988 5.218151093 0.8626112938 
-28.82781219 -12.50839043 4.483035088 0.8807592988 
-25.94168472 -12.65588093 4.117775917 0.8899181485 
-23.36593246 -12.71581745 3.795027971 0.8980901837 
-19.24360275 -12.81173038 3.298068762 0.910820365 
-17.55601501 -12.85100842 3.103843212 0.9158445001 
-14.25277519 -13.69304943 2.819628239 0.9232465029 
-14.31680393 -16.44156456 3.110177517 0.9156802297 
-14.39624977 -19.85207176 3.498396635 0.9056671262 
-14.4441061 -21.90610504 3.743331194 0.8994061947 
-7.763906002 -12.99847603 2.1599648 0.9406579733 
-7.008503437 -13.01605225 2.108943939 0.9420182109 
-5.59311533 -13.04897881 2.025367737 0.9442507625 
-4.924015999 -13.06455326 1.991775274 0.9451495409 
-4.275602818 -13.07963848 1.963109851 0.9459171891 
-2.421064377 -13.12279034 1.903696418 0.9475103021 
-1.823754787 -13.13668919 1.892057896 0.94782269 
-1.232429147 -13.15045166 1.884268284 0.9480318427 
-0.6449121237 -13.16411877 1.880247951 0.9481397271 
0.528542459 -13.19142342 1.883400679 0.9480550289 
1.715463877 -13.21903515 1.901642919 0.9475653768 
2.935231924 -13.24741936 1.935715079 0.9466513991 
3.564101458 -13.26205254 1.959099174 0.9460246563 
4.209773064 -13.27708244 1.987041116 0.9452762008 
4.875334263 -13.29256535 2.019845009 0.9443984628 
5.564760685 -13.30861092 2.057899237 0.9433811307 
6.281977177 -13.32529736 2.101645231 0.9422129989 
11.37887383 -15.98859596 2.7996099 0.9237700701 
13.73911095 -17.59239006 3.184406042 0.9137570858 
20.43553734 -21.84716415 4.26768446 0.8861476183 
24.53009796 -21.94244385 4.695223331 0.8754819632 
34.2092514 -19.01321411 5.583421707 0.8537331223 
38.29932404 -19.10837555 6.106068611 0.84118855 
55.29161072 -18.89466095 8.335762978 0.789709568 
87.52058411 30.78126144 13.23541832 0.6873852611 
87.44311523 35.19844055 13.44737053 0.6832711697 
88.85306549 40.44778824 13.92738724 0.6740446687 
15.9851141 9.071659088 2.622073412 0.9284268022 
45.36738205 31.38378334 7.869801998 0.8002005816 
42.45510483 35.33895111 7.88031292 0.7999624014 
44.1338501 40.19074249 8.515625954 0.7856970429 
43.93884659 43.74381256 8.845098495 0.7783993483 
42.64964676 46.41744995 8.992769241 0.7751505375 
42.75381851 50.90090561 9.483190536 0.7644580603 
7.761200905 102.396759 14.64983463 0.660392642 
3.197915077 102.6327591 14.64872646 0.6604137421 
-1.371127844 102.6657028 14.64761639 0.6604343057 
-5.935830116 102.4953079 14.64650726 0.6604551077 
-10.48895454 102.1220779 14.64540291 0.6604757309 
-19.5210743 100.7705765 14.64321136 0.6605167389 
-29.68759155 -12.56872749 4.298819542 0.8780114055 
-23.82125854 -12.69016361 3.599036694 0.8968039751 
-14.24697495 -13.44576359 2.612195969 0.9239907265 
-14.27685547 -14.7286253 2.735211134 0.9205572605 
-14.30975342 -16.14123344 2.876363516 0.9166333079 
-14.34632015 -17.71088028 3.039221048 0.9121266603 
-14.43393803 -21.47240448 3.449984074 0.900858283 
-14.48749924 -23.77184296 3.712108135 0.8937402964 
-7.156747818 -13.01259995 1.980265617 0.9418313503 
-6.428461552 -13.02954292 1.937364578 0.9430549741 
-5.056108475 -13.06147385 1.867607832 0.945047915 
-4.403808594 -13.07665253 1.839915872 0.9458402395 
-3.769323587 -13.09141827 1.816578746 0.9465084672 
-3.149523973 -13.1058445 1.797337413 0.9470597506 
-2.54151845 -13.11998749 1.781992912 0.9474996924 
-1.350339293 -13.14770222 1.762387753 0.9480620027 
-0.762209475 -13.1613884 1.75793159 0.9481898546 
-0.1758886725 -13.17503166 1.756966352 0.9482175708 
3.437084913 -13.25910091 1.826457381 0.9462255239 
5.424738884 -13.30534649 1.915980935 0.9436654449 
13.48418427 -17.58645248 2.955024242 0.9144538045 
24.08360863 -21.93205261 4.34348011 0.8768253922 
25.39878845 -21.1414814 4.406527042 0.875154078 
29.62822151 -13.48730659 4.340829849 0.8768958449 
39.83306885 -16.03405571 5.725660324 0.8409050107 
63.21004105 -19.11699486 8.805713654 0.7660647631 
84.58795929 -17.56053352 11.51978016 0.7056578398 
48.85190201 11.96999836 6.706792831 0.81630373 
87.35820007 34.26415634 12.51265717 0.6847698092 
46.1244812 31.30416489 7.433149815 0.7985557318 
42.53369522 31.71963882 7.075082779 0.8072561026 
42.37602615 34.63924789 7.298192024 0.8018239141 
44.04911041 43.07980347 8.215750694 0.7798650265 
42.73222733 49.96545792 8.766884804 0.7669655681 
42.846035 54.86279678 9.282218933 0.755096972 
-10.24854469 109.3531036 14.6454525 0.6419674158 
-83.07010651 40.52617645 12.32476807 0.6886748075 
-86.95635223 -18.86098862 11.86472797 0.6983299255 
-34.18818665 -12.3669796 4.847874641 0.8635426164 
-24.32699585 -12.68294144 3.658242702 0.8951984048 
-22.00385284 -12.7475071 3.390891552 0.9024707079 
-19.85872459 -12.71707249 3.144476175 0.9092261791 
-15.2262888 -12.90520191 2.661488056 0.9226134419 
-14.24131584 -13.20278549 2.589511156 0.9246252775 
-14.27065372 -14.46243382 2.709255934 0.9212806225 
-14.33867645 -17.38284302 3.004713774 0.9130797982 
-14.37874031 -19.10284424 3.188192606 0.9080237746 
-7.306369305 -13.00912094 1.989552736 0.9415667057 
-6.571603775 -13.02621078 1.945488095 0.942823112 
-5.86730957 -13.04259968 1.907025814 0.9439212084 
-3.272455931 -13.10297775 1.800868392 0.9469586015 
-2.061811447 -13.13114929 1.772410989 0.9477744699 
-1.468383789 -13.1449585 1.763701558 0.9480242729 
-0.293120116 -13.17230415 1.756881237 0.9482200146 
0.2934252918 -13.18594742 1.758701921 0.9481678009 
2.076931 -13.22745323 1.785409689 0.9474017024 
2.687573195 -13.24165535 1.801695108 0.9469348788 
3.94927001 -13.27101326 1.846302629 0.9456574321 
7.499887466 -13.35363483 2.042241573 0.9400664568 
20.77484894 -25.18538857 4.353420258 0.8765615821 
23.64624405 -21.92187119 4.299615383 0.8779901266 
14.54075146 -12.32416725 2.541658163 0.9259653091 
29.45519447 -18.86243439 4.663988113 0.8683617711 
32.76114655 -18.97951889 5.048636436 0.8583119512 
41.14668274 -19.17462158 6.053153038 0.8326119184 
40.58540344 -16.75816154 5.855005741 0.8376197219 
47.65549088 -17.23849869 6.757529736 0.815051198 
84.54988098 -18.33900642 11.53636837 0.7053037882 
91.35253906 30.31270218 12.83439827 0.6781346202 
87.33722687 33.36212158 12.4666338 0.6857243776 
89.08922577 38.6559639 12.94958305 0.6757749319 
64.1421051 31.29203987 9.516483307 0.7497622967 
85.04154968 46.27996826 12.91020489 0.6765807271 
51.76563263 31.23293686 8.061706543 0.7835089564 
46.98940277 31.28404236 7.5273633 0.7962819934 
42.36122894 34.00274658 7.24323082 0.8031585813 
42.43755341 37.28635025 7.532708645 0.796153307 
44.03103256 42.30208969 8.141845703 0.7816113234 
42.86992645 49.23258591 8.704891205 0.7684057355 
10.25207996 109.3902435 14.65043259 0.6418707371 
5.375312328 109.7290878 14.64924812 0.6418939233 
0.4887890518 109.8506622 14.64805984 0.6419169903 
-4.397880554 109.7547073 14.64687347 0.6419402361 
-11.68510723 90.0463562 12.10779858 0.6932114363 
-76.71219635 22.45732117 10.6584301 0.7242945433 
-84.02848816 -21.38370323 11.56180477 0.7047609687 
-81.44921875 -24.63320541 11.34659672 0.7093660831 
-81.36618805 -28.61650658 11.50113773 0.7060560584 
-20.3626709 -12.78569508 3.206116915 0.9075313807 
-18.45053101 -12.76349354 2.99157095 0.9134430289 
-16.83237267 -12.78750229 2.818732738 0.9182334542 
-15.49640083 -12.89892292 2.68852663 0.9218587279 
-14.29619598 -15.55905437 2.81751895 0.9182670712 
-14.33120537 -17.06215477 2.971206665 0.9140060544 
-14.46512699 -22.81134987 3.601761341 0.8967298865 
-6.715961933 -13.02285385 1.953835845 0.9425849915 
-6.005959511 -13.03937721 1.914295793 0.9437135458 
-5.322782993 -13.05527115 1.879969954 0.9446943998 
-4.021186352 -13.08555889 1.825408101 0.9462555647 
-3.395876408 -13.1001091 1.804556966 0.9468528628 
-2.7834692 -13.11435795 1.787675619 0.9473367929 
-2.181254864 -13.12836838 1.774585724 0.9477120638 
-1.586621046 -13.14220715 1.76515758 0.9479825497 
0.7642724514 -13.19690418 1.762674928 0.9480537772 
1.9560498 -13.22463608 1.782608151 0.9474819899 
2.564543486 -13.23879337 1.798127532 0.9470371008 
3.184948683 -13.25322247 1.817550778 0.9464806318 
3.820168257 -13.26801491 1.841080427 0.9458068013 
6.577768326 -13.33218002 1.982362151 0.9417715669 
10.67686272 -15.88324451 2.551966667 0.9256763458 
11.46771431 -15.520998 2.57325983 0.9250801206 
14.26016045 -17.60451317 3.020969152 0.9126306176 
22.36044884 -25.22229195 4.494603157 0.8728243709 
25.42447281 -20.03843498 4.316601276 0.8775389791 
26.1485157 -18.78549957 4.29325676 0.8781591058 
28.8648243 -18.84870338 4.596887589 0.8701269031 
32.07199478 -18.96348763 4.968246937 0.8604026437 
35.75811768 -19.04924965 5.402510643 0.8491690755 
40.16000748 -19.15166664 5.932844162 0.8356490135 
59.3161087 -19.09807777 8.309295654 0.7776602507 
94.86629486 30.54418182 13.28935146 0.6688620448 
87.42206573 37.01153946 12.6588726 0.6817465425 
89.02550507 42.45478439 13.15173531 0.6716530323 
52.78454971 31.21040154 8.176812172 0.7807844877 
47.87666702 31.26340103 7.624630451 0.7939416766 
34.39321136 24.70856476 5.646929741 0.8429110646 
42.34666061 33.37578964 7.189670086 0.8044614792 
42.42180634 36.6087532 7.47178936 0.7976224422 
42.65771484 44.00753021 8.172507286 0.7808861136 
42.75357437 48.22561264 8.593782425 0.7709938884 
42.79894257 52.83628845 9.066813469 0.7600352764 
1.466435552 109.8436966 14.64829826 0.6419125199 
-2.803412914 89.96973419 12.00273132 0.6954191327 
-76.98200989 23.28203773 10.72426987 0.7228525877 
-88.02365875 -17.45815659 11.96605301 0.6961917877 
-34.10232162 -13.37580776 4.884609222 0.8625831604 
-28.34517479 -12.59995842 4.136257648 0.8823415041 
-25.2382412 -12.59191132 3.760983229 0.8924196362 
-22.89808464 -12.7267065 3.493230581 0.8996799588 
-17.13757324 -12.78040218 2.850670099 0.9173461199 
-14.35982895 -12.84502888 2.569078207 0.9251973033 
-14.28962612 -15.2767601 2.789318085 0.9190511107 
-14.32390308 -16.74851799 2.938675404 0.9149064422 
-14.36214066 -18.39022636 3.111434221 0.9101355076 
-14.45442867 -22.35209656 3.549420118 0.8981514573 
-6.861596584 -13.01947021 1.962414384 0.9423403144 
-6.145683289 -13.03612804 1.921772599 0.943500042 
-5.457458496 -13.05213547 1.886437774 0.9445095062 
-4.792827129 -13.06759739 1.855988622 0.9453802705 
-3.519804716 -13.097229 1.80840373 0.9467426538 
-2.301020384 -13.12558556 1.776906848 0.9476454854 
-0.527583003 -13.16684532 1.75712657 0.9482129216 
0.05866454914 -13.18048573 1.757555604 0.9482006431 
0.6463598609 -13.19416237 1.761470795 0.9480882883 
1.237849116 -13.20792961 1.76891458 0.9478747249 
1.835551739 -13.221838 1.779959559 0.9475579858 
2.441975117 -13.23594189 1.794719934 0.9471348524 
3.059767962 -13.25031471 1.813343048 0.9466010928 
3.691782236 -13.26502132 1.83603704 0.9459513426 
4.341145039 -13.28013897 1.863036036 0.945178628 
5.01120615 -13.2957325 1.89465034 0.9442747831 
7.982846737 -13.3648777 2.075822353 0.9391115308 
13.9976511 -17.59840584 2.99842453 0.9132535458 
21.95448685 -25.21284294 4.457929134 0.8737937212 
31.33508682 -18.90617371 4.879966736 0.8627043962 
39.21177673 -19.12960625 5.817680359 0.8385664821 
40.37763596 -17.51986504 5.869096756 0.8372626901 
67.80457306 -19.19621277 9.396676064 0.7524858713 
89.00275421 41.475811 13.0933485 0.6728413105 
87.68694305 45.71577072 13.18616104 0.6709537506 
35.20809555 24.82204628 5.744232178 0.8404325843 
43.96370697 40.75769424 7.994019032 0.7851171494 
42.73361206 47.347332 8.504718781 0.7730748057 
12.19772434 109.1939621 14.65090561 0.6418616176 
5.989824295 89.60509491 11.97495842 0.6960040331 
-2.236435413 100.499382 13.40429401 0.666539371 
-7.325947285 109.5929184 14.64616299 0.6419538856 
-86.99443817 -20.49702263 11.91781807 0.6972087622 
-81.50534821 -27.04522705 11.45095062 0.7071294188 
-34.05500793 -13.00876236 4.861064434 0.8631982207 
-21.13650322 -12.75280952 3.291693687 0.9051840901 
-19.24352455 -12.81173515 3.082677603 0.9109278917 
-16.05353546 -12.88595963 2.744956017 0.9202858806 
-14.7019577 -12.91740894 2.609616041 0.9240629077 
-14.25272942 -13.6930685 2.635491848 0.9233395457 
-14.28317356 -14.99997234 2.761884689 0.9198144078 
-14.3167572 -16.44164276 2.907075167 0.9157818556 
-14.39618587 -19.85179901 3.269900322 0.9057812095 
-13.51741219 -20.50068474 3.274397612 0.9056580067 
-7.763986588 -12.99847126 2.018914938 0.9407303929 
-7.008505821 -13.01605225 1.971220493 0.9420892 
-5.593112469 -13.04898167 1.893102884 0.9443190098 
-4.924047947 -13.06454849 1.861705422 0.9452167153 
-3.027060509 -13.10869122 1.793963075 0.9471564889 
-1.232458472 -13.15044689 1.761216521 0.9480956197 
-0.0586499013 -13.17775822 1.757190943 0.9482111335 
0.5285986066 -13.19142342 1.760407209 0.9481188059 
1.715400338 -13.21903801 1.777456522 0.9476297498 
2.935173273 -13.2474165 1.809302807 0.9467169046 
3.564101458 -13.26205254 1.831160426 0.9460908771 
4.875331879 -13.29256821 1.887939572 0.9444665313 
5.564723969 -13.30860329 1.923506021 0.9434505105 
7.031974792 -13.34274864 2.011139393 0.9409517646 
8.652749062 -13.38045883 2.124762774 0.9377217889 
11.33639145 -15.92883015 2.607003689 0.9241358638 
13.73905945 -17.59238434 2.97644639 0.9138610959 
22.38515663 -21.89252663 4.175127983 0.8813041449 
24.53008652 -21.94243813 4.388608932 0.875628829 
25.40746498 -20.76869774 4.375791073 0.8759685159 
25.15904808 -18.76246834 4.18497467 0.8810415268 
38.29932022 -19.10837555 5.707315445 0.8413720131 
30.24518013 -13.44447231 4.413511753 0.8749691248 
66.11550903 -19.35517693 9.186108589 0.757296443 
48.67226028 12.38613892 6.696996689 0.8165457249 
99.40796661 30.06443977 13.84839535 0.6576410532 
87.46470642 30.76140404 12.36315441 0.6878748536 
45.28089905 31.3237915 7.341834545 0.800765574 
42.39104843 35.28560638 7.354578018 0.8004567623 
42.46984863 38.67572021 7.659439564 0.7931057215 
44.04687881 43.85136795 8.287802696 0.7781663537 
42.75396729 50.90112305 8.863934517 0.764716208 
42.87043381 55.91274261 9.394933701 0.7525256276 
3.538208008 21.29535294 2.878534555 0.9165731072 
3.421337843 109.8037491 14.64877319 0.6419032812 
-11.22116184 109.2556839 14.64521694 0.6419723034 
-16.06884766 108.6397552 14.64404106 0.6419948339 
-83.27748108 39.7136116 12.30260181 0.689136982 
-86.97535706 -19.67722893 11.89074707 0.6977803111 
-81.3094635 -26.17932892 11.39027882 0.7084296346 
-33.33362198 -12.39442635 4.742159367 0.8663099408 
-29.68761253 -12.56872749 4.298822403 0.8780113459 
-23.82126427 -12.69016361 3.59903121 0.8968039155 
-21.57600975 -12.75747299 3.342324734 0.9037981033 
-19.60686493 -12.80327892 3.122506618 0.9098306298 
-17.87754822 -12.84350777 2.935273886 0.9150006771 
-14.96152306 -12.91136456 2.635190964 0.9233480096 
-14.24697495 -13.44576359 2.612195969 0.9239907265 
-14.27685547 -14.7286253 2.735210419 0.9205572605 
-14.3873558 -19.47262001 3.228407621 0.9069193602 
-14.48750973 -23.77187729 3.712111235 0.8937401772 
-7.156740665 -13.01259708 1.980265021 0.9418313503 
-5.056118011 -13.06147194 1.867608428 0.945047915 
-3.76930666 -13.09142017 1.816578746 0.9465085268 
-3.149514198 -13.1058445 1.797336817 0.9470597506 
-2.541508675 -13.11998749 1.781992912 0.9474996924 
-1.942629337 -13.13392544 1.77038312 0.947832644 
-0.1758959889 -13.17503166 1.756966352 0.9482175708 
0.4109399319 -13.18868351 1.759483099 0.94814533 
1.595578551 -13.21625233 1.775103211 0.9476972222 
2.198203087 -13.23027039 1.788359165 0.9473171234 
2.81112051 -13.24453068 1.805417299 0.9468281865 
4.740439415 -13.28943348 1.881428599 0.9446526766 
5.424736023 -13.3053484 1.915980697 0.9436654449 
6.136074066 -13.32189941 1.955770731 0.9425297976 
6.879123211 -13.3391943 2.001297951 0.9412320852 
8.482318878 -13.37649632 2.112060547 0.9380822778 
11.28889179 -16.16469955 2.629061222 0.9235191941 
21.16184616 -25.19439125 4.387362003 0.87566185 
23.19290543 -25.24166298 4.570901394 0.8708114624 
24.08367538 -21.93205261 4.343486309 0.8768252134 
25.39878845 -21.14145279 4.406525612 0.875154078 
25.4410305 -19.3274231 4.260324001 0.8790348768 
27.19086456 -18.80975723 4.408726215 0.8750958443 
33.47304535 -18.9960804 5.132092953 0.8561471105 
37.42100525 -19.0879364 5.601521015 0.8440701365 
29.62820816 -13.48732662 4.340825558 0.8768958449 
39.83293915 -16.03394699 5.725638866 0.8409055471 
48.85190201 11.96999836 6.706792831 0.81630373 
88.70595551 30.31343842 12.49997425 0.6850326061 
50.77474594 31.25485229 7.95039463 0.7861527205 
46.1244812 31.30416489 7.433149815 0.7985557318 
42.846035 54.8628273 9.282222748 0.7550969124 
4.398671627 109.7708054 14.6490097 0.6418984532 
-5.374257565 109.7095566 14.64663696 0.6419445276 
-10.24839783 109.3531113 14.6454525 0.6419674158 
-19.92425156 107.9918823 14.6431036 0.6420134902 
-21.20366669 91.82157898 12.56605816 0.6836642027 
-86.95635223 -18.86112595 11.86473465 0.6983298659 
-82.06501007 -21.66353798 11.31773376 0.7099860311 
-81.46781921 -25.43239403 11.38027763 0.7086435556 
-34.18819809 -12.3669939 4.84788084 0.8635425568 
-30.39922333 -12.5521698 4.385519505 0.8757107854 
-27.10029793 -12.62892342 3.986774206 0.8863421082 
-22.00388145 -12.7475071 3.390895367 0.9024706483 
-19.85875511 -12.71707726 3.1444664 0.9092260599 
-18.20672417 -12.83585644 2.97044301 0.9140272737 
-15.2263279 -12.90520763 2.661492348 0.9226133227 
-14.24131107 -13.20273209 2.589506865 0.9246253967 
