# .PCD v0.7 - Point Cloud Data file format
VERSION 0.7
FIELDS x y z intensities
SIZE 4 4 4 4
TYPE F F F F
COUNT 1 1 1 1
WIDTH 923
HEIGHT 1
VIEWPOINT 0 0 0 1 0 0 0
POINTS 923
DATA ascii
29.03505135 -1.29286623 -1.995932102 0.8900042176 
29.06377792 -4.882812391e-06 -1.995928288 0.8900043368 
28.60606575 5.146166801 -1.996030688 0.889999032 
28.34958267 6.413744926 -1.996085644 0.8899962306 
28.03725052 7.668801308 -1.996156573 0.8899924159 
27.66950798 8.908723831 -1.996234536 0.889988184 
27.24691772 10.13118172 -1.99632287 0.889983952 
26.77062988 11.33376789 -1.99642241 0.8899787068 
7.496070385 3.5747509 -0.5703251362 0.9672507644 
25.66034126 13.66989994 -1.996653676 0.8899665475 
22.84129143 18.00247955 -1.99723947 0.8899362087 
22.01971626 19.00236511 -1.99740994 0.8899273872 
20.24740028 20.88807106 -1.997777224 0.8899083138 
15.92216492 21.54985237 -1.840046525 0.8981412649 
14.94198227 22.22817421 -1.839332104 0.8981786966 
13.93330574 22.86249542 -1.83866179 0.898213923 
6.817857742 15.52336597 -1.164342642 0.9342809319 
6.237457275 16.11326599 -1.186579108 0.9330687523 
6.284814358 18.66211319 -1.352329016 0.9240829945 
4.615851879 16.03150749 -1.14567554 0.9352996349 
3.555588245 18.35492706 -1.283940077 0.9277799726 
0.3567846715 26.72430611 -1.835433722 0.8983832002 
-0.832636714 26.72139549 -1.835960746 0.8983556032 
-2.020925283 26.66384697 -1.836369276 0.8983340859 
-3.20572257 26.55335236 -1.836768866 0.8983131051 
-5.555956841 26.17675972 -1.837710381 0.8982636333 
-11.21472359 24.34797096 -1.840923548 0.8980954289 
-12.29194355 23.83513641 -1.841704249 0.8980543613 
-15.37608624 22.01717758 -1.844231486 0.8979219198 
-17.29249763 17.21572685 -1.675721049 0.9067993164 
-18.04595947 16.4337883 -1.676164627 0.9067758918 
-22.83825874 14.34008312 -1.851941347 0.8975176811 
-23.4661541 13.31710911 -1.852936387 0.8974655867 
-24.04849815 12.26678181 -1.853952289 0.8974123597 
-18.09672546 8.237963676 -1.365486383 0.9233734608 
-25.51052856 8.972016335 -1.857107043 0.8972471952 
-26.17614365 6.661298752 -1.854915977 0.8973617554 
-28.62658882 5.942875862 -2.007820368 0.8893865943 
-28.86324883 4.663691521 -2.007867575 0.8893843293 
-29.04262352 3.37518549 -2.007903337 0.8893825412 
-14.6224432 1.042844176 -1.006734371 0.9429175258 
-14.62618351 0.3905981481 -1.004799485 0.9430240989 
-14.62991142 -0.2604467571 -1.004856586 0.9430209398 
-29.07148552 -3.116606474 -2.007902384 0.8893826604 
-28.90361595 -4.406674862 -2.007866383 0.8893842697 
-28.67829323 -5.687914848 -2.00781846 0.8893867731 
-28.39582634 -6.957758427 -2.007759094 0.8893906474 
-27.6631813 -9.453325272 -2.007605314 0.8893977404 
-21.6962719 -13.35534668 -1.749634385 0.9028947353 
-14.77945995 -13.22040272 -1.361779451 0.9235733151 
-14.84099579 -15.86621571 -1.491972804 0.916579783 
-14.91619587 -19.09968185 -1.664254427 0.9074065685 
-14.96090031 -21.02164459 -1.771922588 0.9017204642 
-8.404204369 -12.99612522 -1.062852859 0.9398332238 
-6.655991077 -12.6293335 -0.980387032 0.9443690777 
-5.961523533 -12.64548779 -0.960083425 0.9454891682 
-3.617365599 -13.46026802 -0.9571725726 0.9456499815 
-2.985580921 -13.47497559 -0.9478240609 0.9461661577 
-2.364797354 -13.48941898 -0.940500319 0.9465707541 
-1.752331495 -13.50367165 -0.9351288676 0.9468677044 
0.06029296666 -13.54584408 -0.9302584529 0.9471369982 
1.272167921 -13.57404232 -0.936271131 0.9468045831 
2.509665489 -13.60283661 -0.9499289393 0.9460498691 
3.794118643 -13.63272476 -0.9717962146 0.9448428154 
4.461482048 -13.6482563 -0.9860886931 0.9440547228 
5.150114536 -13.66428185 -1.002820253 0.943132937 
6.607433796 -13.69818783 -1.04443109 0.9408445954 
10.44561291 -15.84195805 -1.303139925 0.9267404675 
12.7501049 -17.58192253 -1.491491079 0.9166053534 
20.06059837 -21.06734276 -1.997770905 0.8899087906 
20.97592545 -20.15225601 -1.99758327 0.8899184465 
26.66847038 -11.57146931 -1.996405602 0.8899796009 
27.15545654 -10.37318802 -1.996306062 0.8899847865 
28.55923462 -5.40073967 -1.996024013 0.8899985552 
28.77039528 -4.12471199 -1.995982289 0.8900015354 
28.92494965 -2.840717793 -1.995952368 0.8900031447 
29.02239418 -1.551201105 -1.995934367 0.8900042176 
28.8392067 3.611935854 -1.995980144 0.8900017142 
28.65058517 4.89134264 -1.996021032 0.8899995685 
27.74731445 8.662069321 -1.996218204 0.8899894953 
27.33576584 9.888227463 -1.996304393 0.8899848461 
26.87015152 11.09496593 -1.996401668 0.8899797797 
7.460582256 3.476674795 -0.5652493238 0.9675375223 
25.78059769 13.4407444 -1.996628642 0.8899681568 
23.00016594 17.79817772 -1.997206569 0.8899381161 
22.18752861 18.80531693 -1.997375011 0.8899292946 
20.4320507 20.70664024 -1.997738957 0.8899104595 
16.1094017 21.4021244 -1.839596391 0.8981646299 
7.843565464 15.54750252 -1.195888758 0.9325616956 
6.228296757 15.67378426 -1.158253312 0.9346131682 
4.758224964 15.98937511 -1.145646095 0.9353013039 
4.016154766 16.08073235 -1.138251662 0.9357051849 
3.342751503 16.46980095 -1.154111028 0.9348391891 
1.449235797 21.67986679 -1.492169738 0.9165691733 
0.5946288705 26.72164154 -1.835540414 0.8983775973 
-0.5947436094 26.72671318 -1.835885406 0.8983592987 
-1.783442378 26.67954826 -1.836283326 0.8983385563 
-2.969133139 26.57964706 -1.836686015 0.8983173966 
-5.320068359 26.21174049 -1.836770177 0.8983129859 
-6.485622406 25.96850967 -1.838143706 0.8982411027 
-7.636823654 25.66251945 -1.838729501 0.8982102275 
-10.9799366 24.40762138 -1.837968826 0.8982502222 
-13.13712883 23.39088821 -1.8423599 0.8980199695 
-13.47135925 21.66812897 -1.752178669 0.9027604461 
-15.17824936 22.15124893 -1.844073415 0.8979301453 
-18.89219475 19.1460743 -1.847179055 0.897767365 
-17.71795654 16.4258976 -1.65921104 0.9076738358 
-21.30308342 16.4848671 -1.849836111 0.8976280093 
-22.02648544 15.52880859 -1.850777984 0.8975787163 
-23.34416199 13.52393532 -1.852735519 0.8974761963 
-24.35155869 11.34797382 -1.844989538 0.8978820443 
-24.9781456 10.31373501 -1.855827928 0.8973139524 
-25.42671585 9.197670937 -1.856892467 0.8972584605 
-25.78215981 8.048593521 -1.854836226 0.8973659873 
-26.11564064 6.893945217 -1.854903817 0.897362411 
-14.62841988 1.174204111 -1.007825255 0.9428575039 
-14.62916756 -0.1301904321 -1.004684448 0.9430303574 
-14.85268974 -1.458710909 -1.024902701 0.9419178367 
-28.94178963 -4.14927721 -2.007874489 0.8893839121 
-28.12963486 -7.963818073 -2.007703066 0.8893927336 
-27.74649048 -9.206865311 -2.007622719 0.8893966675 
-25.66724396 -9.804692268 -1.886898756 0.8956876993 
-24.77433205 -10.74959469 -1.854608536 0.8973779082 
-24.27021217 -11.84037113 -1.854503393 0.8973834515 
-22.11884499 -13.34551239 -1.774063826 0.9016079307 
-19.14513397 -12.74623013 -1.579512119 0.9119073153 
-15.96795654 -12.81727028 -1.406158924 0.9211834669 
-14.77388382 -12.98061752 -1.350566506 0.9241780043 
-14.80274868 -14.22147465 -1.409698129 0.9209930897 
-14.83431816 -15.57877445 -1.477301717 0.9173651934 
-14.90790462 -18.74279785 -1.644653082 0.9084455967 
-14.95150089 -20.61755753 -1.749010563 0.9029276371 
-7.531337738 -12.60895729 -1.008616209 0.9428140521 
-6.798491001 -12.62601757 -0.9847866893 0.9441264868 
-5.425517559 -12.65796375 -0.9457617998 0.9462801218 
-4.837512016 -12.83494854 -0.9419564009 0.9464903474 
-2.488200665 -13.48654747 -0.9418072104 0.9464985728 
-1.266616225 -13.51497555 -0.9321960211 0.947029829 
0.5432543755 -13.55708504 -0.9317690134 0.9470534921 
1.150166035 -13.57120132 -0.9353314042 0.9468564987 
1.762954116 -13.58546352 -0.940792799 0.9465546608 
5.010476112 -13.66102982 -0.9992696643 0.9433284998 
5.718976974 -13.67751884 -1.018093944 0.9422923326 
6.456147194 -13.69466305 -1.039740443 0.9411022663 
7.827553749 -13.37381363 -1.064181209 0.9397602677 
10.11111069 -15.63566875 -1.27872026 0.9280627966 
12.50887871 -17.57631302 -1.481513739 0.9171395302 
13.74903774 -17.6051712 -1.534030437 0.9143318534 
18.90981102 -22.11066437 -1.998007178 0.8898963928 
19.87273598 -21.24546432 -1.997809529 0.8899066448 
13.81945038 -12.36165524 -1.273362756 0.9283552766 
22.51759529 -18.40641022 -1.997267365 0.8899347186 
24.06057739 -16.32966232 -1.99695158 0.8899511695 
24.76139259 -15.24211407 -1.99680829 0.8899586201 
25.41315651 -14.12456512 -1.996672273 0.8899657726 
27.06229973 -10.61452579 -1.996325016 0.8899838924 
28.50993156 -5.654509068 -1.996034145 0.889999032 
28.73264313 -4.3805933 -1.99598968 0.8900011778 
28.89861679 -3.09808588 -1.995957494 0.8900028467 
29.00749969 -1.809409142 -1.99593699 0.8900039792 
28.99041748 2.067543983 -1.995946646 0.8900033832 
28.87010193 3.35514164 -1.995973468 0.8900021315 
28.69288254 4.636171818 -1.996012092 0.8899999261 
28.45895195 5.908083439 -1.996062279 0.8899973631 
27.82312965 8.414685249 -1.99620235 0.8899902105 
12.22292042 8.45539856 -1.020667791 0.9421507716 
15.74683189 13.10739994 -1.407008529 0.9211375713 
21.50569725 19.5844841 -1.997516394 0.8899219036 
15.78794193 15.7178545 -1.529922485 0.9145510793 
18.18567276 19.79208183 -1.845848083 0.897837162 
17.30728722 20.60534668 -1.847989202 0.8977248669 
16.35014915 21.32415199 -1.845347047 0.8978638053 
13.31512165 23.22133827 -1.838266969 0.8982346058 
8.035405159 15.5813961 -1.203949094 0.9321230054 
7.139046669 15.4994173 -1.171892047 0.9338692427 
6.360060692 15.59941292 -1.156893492 0.9346873164 
4.906437874 15.96626663 -1.147072077 0.935223341 
4.125612736 15.91518497 -1.129085541 0.9362059832 
3.202370644 26.52582169 -1.83486557 0.8984129429 
1.642751455 21.6745739 -1.492751479 0.9165380001 
-1.545871496 26.69310951 -1.836199641 0.8983430862 
-7.407648563 25.72776031 -1.838608503 0.8982166052 
-8.547677994 25.38142586 -1.839233041 0.898183763 
-9.67179203 24.98514748 -1.839905143 0.8981486559 
-10.77785873 24.53981209 -1.840623379 0.8981108069 
-11.86371803 24.04601288 -1.841386676 0.8980709314 
-13.93281937 22.86169052 -1.838593245 0.8982173204 
-14.32562256 19.38899803 -1.655538559 0.9078683853 
-18.71936798 19.31168938 -1.847011685 0.8977761269 
-17.49185181 16.50815392 -1.651730657 0.9080703855 
-20.38074875 17.58795929 -1.848741531 0.8976855278 
-21.15337563 16.67214775 -1.84965086 0.8976377845 
-22.57462502 14.74115658 -1.851549745 0.8975383043 
-23.22040749 13.7296772 -1.852535605 0.8974865079 
-23.82110977 12.69004822 -1.85354352 0.8974337578 
-24.37552452 11.62427235 -1.854571223 0.8973799944 
-24.88249779 10.53441429 -1.855616927 0.8973252177 
-22.35280418 8.311425209 -1.637742519 0.9088122845 
-25.70928955 8.277636528 -1.854821444 0.8973668814 
-26.05301476 7.126073837 -1.854891181 0.8973633051 
-27.03414726 6.116113186 -1.903467536 0.8948218822 
-28.77565193 5.17660141 -2.007850409 0.8893843889 
-14.63215542 -0.6515331864 -1.005846024 0.9429664016 
-14.63698196 -1.306093693 -1.00917697 0.9427831173 
-28.19962502 -7.71323204 -2.007717848 0.8893918991 
-26.353405 -9.798959732 -1.930854201 0.893392086 
-24.86928368 -10.52880859 -1.854628205 0.8973768353 
-24.37493896 -11.62402344 -1.854525208 0.8973822594 
-23.83224297 -12.69600582 -1.854412198 0.897388339 
-20.49509048 -13.38329601 -1.68099153 0.9065204263 
-16.25390434 -12.81061935 -1.421241999 0.9203725457 
-14.88503838 -12.84536362 -1.350228906 0.9241965413 
-14.796772 -13.96463871 -1.397237062 0.9216633439 
-14.8277607 -15.29696751 -1.463032365 0.9181296825 
-14.89978981 -18.39411545 -1.625630617 0.9094551206 
-6.235827446 -12.63910389 -0.9678743482 0.9450592995 
-4.408010006 -13.089118 -0.9484875798 0.9461295009 
-3.809550762 -13.23121071 -0.9455556273 0.9462915063 
-1.996474624 -13.49799252 -0.9370469451 0.9467616677 
-1.387763619 -13.51215267 -0.9328172803 0.9469955564 
1.028398395 -13.56837368 -0.9344670177 0.9469041824 
2.259135723 -13.5970068 -0.9465625286 0.9462357759 
2.889047861 -13.61166477 -0.9555924535 0.9457371235 
3.532368183 -13.62663555 -0.9667277336 0.9451224804 
4.192180157 -13.64198685 -0.9800889492 0.9443855286 
5.575104713 -13.67416477 -1.014112473 0.9425114989 
7.010300159 -13.59354973 -1.050352812 0.9405193925 
9.91232872 -15.63159657 -1.271120429 0.9284745455 
12.27085209 -17.57077599 -1.471782207 0.9176606536 
18.71265411 -22.27849579 -1.99804759 0.8898944259 
19.68324471 -21.42196655 -1.997848511 0.8899044991 
20.61472893 -20.52323723 -1.997657418 0.8899143338 
21.50532913 -19.58405304 -1.99747479 0.8899238706 
23.15690041 -17.59217644 -1.997136474 0.8899415135 
23.91466904 -16.5433979 -1.996981502 0.8899496198 
24.62507057 -15.46205044 -1.996836066 0.8899573088 
25.28683281 -14.35037613 -1.99669981 0.8899642229 
27.42198944 -9.644296646 -1.996252298 0.8899874687 
27.82270241 -8.414565086 -1.996171474 0.8899918199 
28.45866203 -5.908044338 -1.996043921 0.8899983764 
28.6926651 -4.63613987 -1.995997429 0.890000701 
28.86995697 -3.355126858 -1.995962977 0.8900026083 
28.99033546 -2.067558527 -1.995940208 0.8900036812 
29.05917358 0.5173144341 -1.995929956 0.8900043368 
28.73285675 4.380615234 -1.996003389 0.8900004625 
28.51019669 5.654550552 -1.996051311 0.8899980783 
28.23130608 6.917402267 -1.996112466 0.8899949193 
7.466477871 3.318979502 -0.5611299276 0.9677701592 
22.51797867 18.40677643 -1.997306466 0.8899328113 
21.67879105 19.39194679 -1.997480631 0.8899236917 
20.79657936 20.33898544 -1.997663379 0.8899142146 
16.58058548 21.23085213 -1.849953413 0.8976218104 
15.53363228 21.82637596 -1.839755535 0.8981565237 
14.54183292 22.48723984 -1.839058638 0.8981930614 
4.275783539 15.91022205 -1.13138783 0.9360800982 
3.438246965 26.49538803 -1.834804058 0.8984161615 
0.8790820241 21.93787384 -1.507774115 0.9157345295 
-0.1189135686 26.73090935 -1.835741043 0.8983670473 
-6.021711349 26.07673454 -1.83792305 0.8982524872 
-9.448356628 25.06836128 -1.839767098 0.8981558681 
-11.64826679 24.14858627 -1.841230631 0.8980791569 
-16.7251339 21.02750015 -1.845128536 0.8978745937 
-14.66364479 16.84000969 -1.53346467 0.9143621922 
-17.34421158 16.66320229 -1.65172863 0.9080703855 
-18.77737999 16.49804688 -1.716541886 0.904640615 
-21.7421608 15.91510677 -1.850398064 0.8975986242 
-22.44023132 14.93994617 -1.851355195 0.8975482583 
-24.26842499 11.83943367 -1.854364157 0.8973907232 
-25.25321388 9.646528244 -1.856464982 0.8972807527 
-25.98843002 7.357587814 -1.854878068 0.8973637819 
-26.29073906 6.194447994 -1.854939103 0.8973610401 
-28.94190216 4.149287224 -2.00788331 0.8893834949 
-29.0982933 2.857802629 -2.007914305 0.8893818259 
-14.62394047 0.7816576958 -1.005720019 0.9429733753 
-14.63140869 -0.5211059451 -1.005437255 0.9429889917 
-14.63515854 -1.174785137 -1.008290768 0.9428319335 
-28.57225227 -6.197416782 -2.007796288 0.8893877268 
-27.90635872 -8.711732864 -2.007656097 0.8893951774 
-23.00070572 -13.32499981 -1.825478196 0.8989055157 
-20.88493919 -13.37422848 -1.703132749 0.9053492546 
-18.10968399 -12.76744556 -1.521669865 0.9149919748 
-16.54612541 -12.80381298 -1.436769962 0.9195384979 
-14.79090309 -13.71224594 -1.385101438 0.9223165512 
-14.85477543 -16.45866585 -1.522573829 0.9149436951 
-14.98045635 -21.86268997 -1.820045829 0.8991904855 
-7.834741116 -12.60190678 -1.01904273 0.9422400594 
-7.087431431 -12.6192894 -0.9939448833 0.9436218143 
-3.898666859 -13.10096359 -0.9386904836 0.9466708899 
-2.736115694 -13.48077583 -0.9446564913 0.946341157 
-2.118969679 -13.49514103 -0.9381200671 0.9467022419 
-0.9040185213 -13.52340794 -0.9307812452 0.9471080899 
0.3015917838 -13.55145931 -0.9308657646 0.9471034408 
3.402492523 -13.62360764 -0.9643269777 0.9452549815 
4.058744907 -13.63888168 -0.9772316813 0.9445430636 
4.734157562 -13.65459442 -0.992478013 0.9437026381 
5.432380199 -13.67084408 -1.010239601 0.9427245855 
9.742370605 -15.67026806 -1.267162681 0.9286890626 
12.03585434 -17.56530762 -1.462290883 0.91816926 
20.43166733 -20.70616722 -1.997694969 0.8899126053 
24.48683357 -15.68080044 -1.996864438 0.8899558783 
25.78020668 -13.44057369 -1.99659431 0.8899696469 
27.33528519 -9.888083458 -1.996269822 0.8899866343 
27.74695015 -8.661962509 -1.996186733 0.8899908662 
28.10377312 -7.418849945 -1.996114969 0.8899946213 
28.40509796 -6.161157131 -1.996054649 0.8899978399 
29.04536247 -1.03436029 -1.995930433 0.8900043368 
29.02246284 1.551252365 -1.995939255 0.8900039196 
28.9250927 2.840781212 -1.995961308 0.8900026083 
28.55923843 5.400583267 -1.996040702 0.8899986148 
28.29146576 6.66585207 -1.996097922 0.889995873 
27.96809578 7.918058872 -1.996171713 0.889991641 
27.58922577 9.154681206 -1.996251345 0.8899877667 
27.15597534 10.3733654 -1.996341944 0.8899828196 
7.491117001 3.25039053 -0.5607867241 0.96778965 
26.12928963 12.74723148 -1.996556044 0.8899719119 
24.89613152 15.02112103 -1.996812701 0.8899584413 
23.46597672 17.17705154 -1.997109771 0.8899430037 
22.68050194 18.20536613 -1.99727273 0.8899345398 
15.74209118 13.83133984 -1.439077139 0.9194145799 
20.9763546 20.15272522 -1.997626185 0.8899161816 
18.53386688 19.46406937 -1.845728874 0.8978432417 
16.76436424 21.07680702 -1.849456549 0.8976477981 
13.72834969 22.98401833 -1.838532925 0.8982205391 
12.68762875 23.56319809 -1.837850809 0.8982563019 
7.48021841 15.50758648 -1.182389498 0.9332969785 
6.3274827 19.35655403 -1.398514509 0.9215945601 
4.42660141 15.90517998 -1.133787274 0.9359490275 
3.682619572 15.9474144 -1.123996377 0.9364842772 
3.410891056 18.4878788 -1.291065216 0.9273940921 
2.956347704 21.29547882 -1.476473451 0.9174094796 
1.063996553 21.72029686 -1.493411541 0.9165027142 
-5.789021015 26.12778664 -1.837815642 0.89825809 
-6.947649002 25.85224152 -1.838371992 0.8982288837 
-10.33769798 24.72379494 -1.84033072 0.8981263041 
-12.50464058 23.72692108 -1.841865659 0.8980457783 
-13.55385017 23.15762329 -1.842697501 0.8980022073 
-16.53701782 21.17498398 -1.845090032 0.8978767991 
-15.983078 17.08712387 -1.606781721 0.9104564786 
-17.29941177 16.91871071 -1.661732912 0.9075402021 
-18.37220383 16.43412018 -1.692813039 0.9058949947 
-21.59743881 16.10636711 -1.850209594 0.897608459 
-22.30401993 15.13749027 -1.851161957 0.8975585103 
-22.96738052 14.13775349 -1.852138638 0.8975075483 
-23.58627701 13.10916519 -1.853137732 0.8974550962 
-24.15938187 12.05364227 -1.854157805 0.8974015713 
-21.13679886 8.290439606 -1.559211135 0.9129884839 
-24.40560341 8.340166092 -1.771184206 0.90175879 
-25.92165756 7.588564396 -1.854864478 0.8973647356 
-28.67850304 5.687860966 -2.007830858 0.8893860579 
-28.90377617 4.406611443 -2.007875681 0.8893837333 
-29.07158852 3.116547823 -2.00790906 0.8893823028 
-14.62692833 0.2603613138 -1.004650354 0.9430322647 
-14.63440609 -1.043713331 -1.007557511 0.9428721666 
-28.86310196 -4.663681507 -2.0078578 0.8893848062 
-28.3328476 -7.210161209 -2.007745743 0.889390409 
-27.98302841 -8.463056564 -2.00767231 0.8893942833 
-27.5780201 -9.69904232 -2.007587433 0.8893976212 
-25.05323982 -10.08467293 -1.85466671 0.897374928 
-24.05498695 -12.27019024 -1.85445857 0.8973859549 
-16.84467888 -12.796875 -1.452751637 0.9186809659 
-14.84781933 -16.15939903 -1.507055163 0.9157729149 
-14.88411808 -17.72043419 -1.589254737 0.911388576 
-5.163320065 -12.66405964 -0.9391993284 0.9466426373 
-4.666806698 -13.08309555 -0.9539192915 0.9458295107 
-3.4899683 -13.46323204 -0.9551349282 0.9457623959 
-2.860612631 -13.47788048 -0.9461999536 0.9462558627 
-1.630581021 -13.50650406 -0.934282124 0.946914494 
-1.024741173 -13.52060032 -0.9311788678 0.9470860958 
2.010273457 -13.59121513 -0.9435190558 0.9464039803 
2.63561511 -13.6057663 -0.951733768 0.9459502101 
3.273217678 -13.62060547 -0.9620135427 0.9453826547 
6.010163307 -13.68428707 -1.026401043 0.941835463 
7.349333286 -13.3626852 -1.047305942 0.9406866431 
8.155212402 -13.38144016 -1.07617116 0.9391027689 
18.31398201 -22.60910988 -1.998129368 0.8898895979 
21.15405464 -19.96442413 -1.997546792 0.8899203539 
25.02804947 -14.79861259 -1.996753812 0.8899614215 
26.240942 -12.51395035 -1.996496558 0.8899747133 
27.24646378 -10.13097668 -1.996287823 0.8899857402 
27.66897202 -8.90855217 -1.996202469 0.8899901509 
28.94899368 -2.583185911 -1.995947838 0.8900035024 
29.03505135 -1.29286623 -1.995932102 0.8900042176 
29.06377792 -4.882812391e-06 -1.995928288 0.8900043368 
29.03507042 1.292861342 -1.995936275 0.8900040984 
28.80602264 3.868456841 -1.995987535 0.8900013566 
28.34958458 6.413715839 -1.996085644 0.8899962902 
15.67567635 10.23621178 -1.285704136 0.9276844263 
22.84129143 18.00247955 -1.99723947 0.8899362087 
21.15454865 19.9648571 -1.997589231 0.8899179697 
20.24740028 20.88807106 -1.997777224 0.8899083138 
17.83738136 20.12034225 -1.846557021 0.8977999687 
15.86677551 19.58786392 -1.731129527 0.903870523 
15.92218685 21.54984283 -1.840046525 0.8981412649 
14.94201374 22.22813988 -1.839332223 0.8981787562 
13.93334961 22.86247826 -1.83866179 0.8982138634 
7.65439558 15.51440048 -1.188055515 0.9329883456 
4.615832329 16.03151321 -1.14567554 0.9352996349 
3.843788862 15.99490643 -1.129709244 0.9361719489 
-4.384775162 26.39086533 -1.837214112 0.8982897401 
-6.716938496 25.91135406 -1.838256955 0.8982351422 
-10.11653996 24.81285858 -1.840187073 0.8981338143 
-12.29197025 23.83512688 -1.841704369 0.8980543613 
-15.37608624 22.01717758 -1.844231486 0.8979219198 
-16.33905983 21.3097496 -1.844086409 0.8979292512 
-14.39361286 17.13642502 -1.536877871 0.9141797423 
-17.29249763 17.21572685 -1.675721049 0.9067993164 
-18.04595947 16.4337883 -1.676164627 0.9067758918 
-22.83828354 14.3400383 -1.851941466 0.8975177407 
-24.04852295 12.26672363 -1.853952289 0.8974123597 
-18.09682274 8.237968445 -1.365490675 0.9233731031 
-25.51052856 8.972016335 -1.857107043 0.8972471952 
-25.85295677 7.818828106 -1.854850531 0.8973653316 
-26.17614365 6.661298752 -1.854915977 0.8973617554 
-28.86324883 4.663691521 -2.007867575 0.8893843293 
-14.6224432 1.042844176 -1.006734371 0.9429175258 
-14.62618351 0.3905981481 -1.004799485 0.9430240989 
-28.90361977 -4.406606197 -2.007866383 0.8893842697 
-28.05740929 -8.213812828 -2.007688046 0.889393568 
-27.6631031 -9.453388214 -2.007605314 0.8893979192 
-24.67737961 -10.96955013 -1.85458827 0.8973790407 
-24.16361046 -12.0557518 -1.854481101 0.897384584 
-23.6424427 -13.14039993 -1.857553244 0.8972238898 
-21.6962719 -13.35534668 -1.749634385 0.9028947353 
-17.15013313 -12.78976059 -1.469216585 0.9177982211 
-15.38468933 -12.57584 -1.36459589 0.9234214425 
-14.80882549 -14.48294449 -1.422495842 0.9203051925 
-14.84099865 -15.86615658 -1.491969585 0.9165799022 
-14.87654305 -17.39463425 -1.571852326 0.9123151898 
-14.91620064 -19.09976959 -1.664259315 0.9074063301 
-14.96090031 -21.02174187 -1.77192831 0.9017202258 
-8.404159546 -12.99613285 -1.062851667 0.9398332834 
-6.655954361 -12.6293335 -0.9803859591 0.9443691373 
-4.7973876 -13.08005333 -0.9567744136 0.945671916 
-2.985580921 -13.47497559 -0.9478240609 0.9461661577 
-2.364797354 -13.48941898 -0.940500319 0.9465707541 
-1.145624995 -13.51778793 -0.9316497445 0.9470600486 
-0.5422289968 -13.53182125 -0.9300322533 0.9471495152 
0.06026367098 -13.54584408 -0.9302583337 0.9471369982 
0.6642480493 -13.55989742 -0.932330668 0.9470223784 
1.272197247 -13.57404232 -0.9362714887 0.9468045831 
2.509694815 -13.60283661 -0.9499295354 0.9460498691 
3.144616604 -13.61761189 -0.959787786 0.9455054998 
5.863962173 -13.68088341 -1.022190332 0.9420670867 
6.607433796 -13.69818783 -1.04443109 0.9408445954 
7.193200588 -13.35905743 -1.041962385 0.940980196 
10.44561291 -15.84195805 -1.303139925 0.9267404675 
16.74167252 -21.04828644 -1.846953988 0.8977789879 
20.06054878 -21.06738663 -1.997770905 0.8899087906 
20.97587585 -20.15229034 -1.99758327 0.8899185061 
21.84972382 -19.19745636 -1.997404099 0.8899276853 
23.46559334 -17.17663956 -1.997073293 0.8899449706 
27.96767235 -7.917953968 -1.996142387 0.8899931908 
28.55923462 -5.40073967 -1.996024013 0.8899985552 
28.77039528 -4.12471199 -1.995982289 0.8900015354 
28.65056992 4.891403675 -1.996021032 0.8899995685 
28.40537834 6.161205769 -1.996073723 0.8899968266 
28.10417747 7.418937683 -1.996141791 0.8899931312 
27.33576584 9.888227463 -1.996304393 0.8899848461 
25.78059769 13.4407444 -1.996628642 0.8899681568 
12.0031271 8.462270737 -1.008562684 0.9428168535 
23.00019646 17.79812813 -1.997206569 0.8899381161 
21.33097649 19.77537727 -1.997552633 0.8899201155 
18.0111351 19.95577431 -1.846087575 0.8978245258 
16.1093502 21.40192795 -1.839596629 0.8981652856 
6.979329586 15.51453495 -1.168294072 0.9340655208 
6.352763653 18.32307053 -1.33180356 0.9251909256 
4.758224964 15.98937511 -1.145646095 0.9353013039 
4.143938065 26.39146233 -1.834615231 0.8984259963 
2.42401123 21.69929886 -1.499450922 0.916179657 
1.449186921 21.67987061 -1.492166996 0.9165691733 
-2.969187021 26.57963753 -1.836686254 0.8983173966 
-4.149594784 26.42750168 -1.837120891 0.8982945681 
-7.636823654 25.66251945 -1.838729501 0.8982102275 
-12.07826424 23.94151115 -1.841544628 0.8980627656 
-13.13712883 23.39088821 -1.8423599 0.8980199695 
-15.17824936 22.15134239 -1.844073415 0.8979298472 
-14.45844936 19.20879745 -1.651074886 0.9081051946 
-18.01383018 19.95859909 -1.8463552 0.8978104591 
-22.70733643 14.54122066 -1.851745129 0.8975279927 
-23.34416199 13.52393532 -1.852735519 0.8974761963 
-23.93576813 12.47894478 -1.853747487 0.8974229097 
-24.35155869 11.34797382 -1.844989538 0.8978820443 
-24.9781456 10.31373501 -1.855827928 0.8973139524 
-25.42671585 9.197670937 -1.856892467 0.8972584605 
-25.78215981 8.048593521 -1.854836226 0.8973659873 
-28.11847305 6.098964691 -1.975913405 0.8910450339 
-29.01151085 3.633452177 -2.007897377 0.8893823028 
-14.62837601 1.174174786 -1.007821918 0.9428576827 
-28.72788239 -5.432490349 -2.007829189 0.8893863559 
-28.45693016 -6.704843521 -2.007771969 0.8893895149 
-27.74649048 -9.206865311 -2.007622719 0.8893966675 
-24.77433205 -10.74959469 -1.854608536 0.8973779082 
-23.71801376 -12.90744114 -1.854388356 0.8973895311 
-19.14520645 -12.74623013 -1.579513788 0.9119070768 
-15.96789742 -12.81727028 -1.406155348 0.9211836457 
-14.77388859 -12.98067093 -1.350569248 0.9241778851 
-14.80274868 -14.22154236 -1.409701467 0.9209929109 
-14.83432293 -15.57884216 -1.477305412 0.9173650146 
-14.86913586 -17.07603073 -1.554954171 0.9132156372 
-14.90790462 -18.74279785 -1.644653082 0.9084455967 
-14.95150089 -20.61755753 -1.749010563 0.9029276371 
-14.88054943 -22.56804085 -1.856422067 0.897282958 
-7.531337738 -12.60895729 -1.008616209 0.9428140521 
-6.798491001 -12.62601757 -0.9847866893 0.9441264868 
-5.425517559 -12.65796375 -0.9457617998 0.9462801218 
-1.874248028 -13.50083447 -0.9360504746 0.946816802 
-1.266591787 -13.51497078 -0.9321959615 0.9470298886 
-0.6627246141 -13.52902317 -0.930208385 0.9471397996 
1.150166035 -13.57120132 -0.9353314042 0.9468564987 
4.326403618 -13.64511204 -0.983041048 0.9442228079 
5.010476112 -13.66102982 -0.9992696643 0.9433284998 
5.718942642 -13.67751408 -1.018092752 0.9422923923 
7.038640022 -13.35545826 -1.036754608 0.9412664175 
7.827592373 -13.37381554 -1.064182758 0.9397602081 
10.11117363 -15.63568306 -1.278723598 0.9280626178 
12.5089426 -17.57631302 -1.481512547 0.917139411 
13.81945038 -12.36165524 -1.273362756 0.9283552766 
24.76139259 -15.24211407 -1.99680829 0.8899586201 
26.01468468 -12.97928905 -1.9965446 0.8899722695 
26.56466293 -11.80850315 -1.996427774 0.8899786472 
27.06227493 -10.61458969 -1.996325016 0.8899838924 
27.89631271 -8.16652298 -1.996156693 0.8899924755 
28.23095703 -6.917267799 -1.996089458 0.8899962306 
28.50999451 -5.654467583 -1.996034145 0.8899988532 
28.89863014 -3.098017454 -1.995957494 0.8900027871 
29.00749969 -1.809409142 -1.99593699 0.8900039792 
29.05917931 -0.5172729492 -1.995928407 0.8900043368 
29.05342293 0.775898397 -1.995931625 0.8900043368 
28.99041748 2.067543983 -1.995946646 0.8900033832 
28.69288254 4.636171818 -1.996012092 0.8899999261 
28.16884232 7.168415546 -1.996127129 0.8899941444 
27.82312965 8.414685249 -1.99620235 0.8899902105 
27.42246437 9.644433022 -1.996286273 0.8899857402 
26.96756363 10.85523987 -1.996381283 0.8899808526 
25.89889145 13.21072006 -1.996604085 0.8899692297 
15.66751385 9.837643623 -1.270469308 0.9285098314 
12.2228756 8.455400467 -1.02066505 0.9421508908 
23.15727997 17.59251022 -1.997173905 0.8899397254 
15.74683189 13.10739994 -1.407008529 0.9211375713 
21.50569725 19.5844841 -1.997516394 0.8899219036 
18.18567276 19.79208183 -1.845848083 0.897837162 
17.30728722 20.60534668 -1.847989202 0.8977248669 
16.35014915 21.32415199 -1.845347047 0.8978638053 
8.03546524 15.58142376 -1.20395267 0.9321228266 
7.139084339 15.4994154 -1.171892881 0.9338691831 
6.339987755 17.77369118 -1.295923114 0.9271312356 
4.906403542 15.96627426 -1.147071719 0.935223341 
4.125583172 15.91518497 -1.129085183 0.9362059832 
3.202370644 26.52582169 -1.83486557 0.8984129429 
1.642751455 21.6745739 -1.492751479 0.9165380001 
0.8323876858 26.71439171 -1.83547771 0.898380816 
-0.3568627834 26.72985077 -1.835812211 0.8983632326 
-1.545871496 26.69310951 -1.836199641 0.8983430862 
-2.731789589 26.59838867 -1.836231351 0.8983413577 
-6.253842831 26.02368164 -1.838032365 0.8982467651 
-12.92733097 23.50469589 -1.842193365 0.898028791 
-13.93287086 22.86166 -1.838593245 0.8982173204 
-14.32562256 19.38899803 -1.655538559 0.9078683853 
-15.91384506 19.64596176 -1.736268282 0.9035995603 
-17.26206207 19.47136688 -1.786998391 0.9009273052 
-21.15337563 16.67214775 -1.84965086 0.8976377845 
-23.22037697 13.72972584 -1.852535605 0.8974865079 
-24.37554932 11.62422848 -1.854571223 0.8973799348 
-27.03414726 6.116113186 -1.903467536 0.8948218822 
-28.77565193 5.17660141 -2.007850409 0.8893843889 
-28.97782326 3.891537905 -2.007890463 0.889383018 
-14.82182121 1.322578073 -1.021919847 0.9420819283 
-14.62468719 0.6511987448 -1.00533402 0.9429947138 
-14.62841988 -2.441406195e-06 -1.004594088 0.9430353642 
-14.63698196 -1.306093693 -1.00917697 0.9427831173 
-28.97767258 -3.891523361 -2.007882118 0.8893835545 
-27.82718468 -8.95970726 -2.007639647 0.8893970251 
-26.3532238 -9.7989645 -1.930842996 0.8933926821 
-24.86925507 -10.52886677 -1.854628205 0.8973768353 
-24.37488937 -11.62404251 -1.854525208 0.8973823786 
-22.5534153 -13.33539963 -1.799325347 0.9002789259 
-14.796772 -13.96463871 -1.397237062 0.9216633439 
-14.8277607 -15.29696751 -1.463032365 0.9181296825 
-14.86188412 -16.76402855 -1.538527608 0.9140917659 
-14.89978981 -18.39411545 -1.625630617 0.9094551206 
-7.682294846 -12.60545635 -1.013763666 0.942530632 
-6.235793114 -12.63911152 -0.9678733349 0.9450593591 
-4.91778326 -12.70419121 -0.9355341196 0.9468452334 
-3.236809015 -13.46913052 -0.9513145089 0.9459733367 
-1.387763619 -13.51215267 -0.9328172803 0.9469955564 
-0.7833374143 -13.52621555 -0.9304568172 0.9471259713 
-0.1807690412 -13.54023933 -0.9299464822 0.9471542239 
1.639782667 -13.58259201 -0.9395466447 0.9466235638 
2.259108782 -13.5970068 -0.9465622306 0.9462358356 
2.889018536 -13.61166477 -0.9555918574 0.9457371235 
9.91232872 -15.63159657 -1.271120429 0.9284745455 
12.27085209 -17.57077599 -1.471782207 0.9176606536 
18.71265411 -22.27849579 -1.99804759 0.8898944259 
20.61472893 -20.52323723 -1.997657418 0.8899143338 
21.50529099 -19.58409119 -1.99747479 0.8899239302 
22.35320473 -18.60641098 -1.997300982 0.8899331093 
23.15686226 -17.59222221 -1.997136474 0.8899415135 
25.28686714 -14.350317 -1.99669981 0.8899642229 
25.89845467 -13.21037579 -1.996569276 0.889971137 
26.96704483 -10.85504341 -1.996344209 0.8899828196 
27.42198944 -9.644296646 -1.996252298 0.8899874687 
27.82270241 -8.414565086 -1.996171474 0.8899918199 
28.16850281 -7.168344498 -1.996101975 0.8899953365 
28.45866203 -5.908044338 -1.996043921 0.8899983764 
28.6926651 -4.63613987 -1.995997429 0.890000701 
28.86995697 -3.355126858 -1.995962977 0.8900026083 
29.05341721 -0.7759130597 -1.995929241 0.8900043368 
28.89877701 3.09801507 -1.995967269 0.8900022507 
28.73284912 4.380678654 -1.996003389 0.8900004029 
27.89670372 8.16675663 -1.996186733 0.8899909258 
27.50701141 9.399975777 -1.99626863 0.8899863958 
26.01508904 12.979496 -1.996579885 0.8899706602 
25.41359901 14.12478638 -1.996705174 0.8899639845 
23.31254387 17.38538742 -1.997141719 0.8899415731 
20.79661751 20.33894539 -1.997663379 0.8899142146 
18.36044121 19.62877464 -1.845777512 0.8978404999 
17.48548126 20.44515991 -1.847507596 0.89775002 
13.52230453 23.10373878 -1.838405967 0.898227036 
6.510379314 15.57028675 -1.158971786 0.9345732331 
6.331684589 17.26325417 -1.262763381 0.9289277196 
4.275783539 15.91022205 -1.13138783 0.9360800982 
1.836462379 21.66908073 -1.493441701 0.9165011644 
0.8790820241 21.93787384 -1.507774115 0.9157345295 
-2.495446682 26.6259861 -1.836526752 0.8983256817 
-4.854389668 26.31135941 -1.837406516 0.8982797265 
-6.021711349 26.07673454 -1.83792305 0.8982524872 
-7.177924633 25.79097748 -1.838489294 0.8982229233 
-8.31324482 25.43129158 -1.837414145 0.8982791901 
-10.55819511 24.63273621 -1.840476155 0.8981187344 
-12.71646214 23.61673355 -1.842028618 0.898037374 
-14.77070045 22.4016552 -1.842738748 0.8980004787 
-16.08577347 16.89310074 -1.601931095 0.9107142687 
-17.34424019 16.66308022 -1.651724458 0.9080706239 
-18.77737999 16.49804688 -1.716541886 0.904640615 
-22.44023132 14.93994617 -1.851355195 0.8975482583 
-13.5423851 8.170820236 -1.08616817 0.938554287 
-23.70464516 12.90012169 -1.853340268 0.8974443674 
-24.26842499 11.83943367 -1.854364157 0.8973907232 
-25.25321388 9.646528244 -1.856464982 0.8972807527 
-25.67218018 8.518559456 -1.857537746 0.8972244263 
-25.98843002 7.357587814 -1.854878068 0.8973637819 
-26.29073906 6.194447994 -1.854939103 0.8973610401 
-28.72808266 5.432514668 -2.007840633 0.8893856406 
-28.94190216 4.149287224 -2.00788331 0.8893834949 
-14.62767315 0.1301440448 -1.004582524 0.9430360198 
-14.63140869 -0.5211059451 -1.005437255 0.9429889917 
-29.01125717 -3.633559465 -2.007889271 0.8893831968 
-28.57225227 -6.197416782 -2.007796288 0.8893877268 
-27.90635872 -8.711732864 -2.007656097 0.8893951774 
-27.07229233 -9.792934418 -1.977062583 0.8909851313 
-24.9622097 -10.30717278 -1.854647636 0.8973760009 
-23.9446106 -12.48358822 -1.854435682 0.8973870277 
-16.54612541 -12.80381298 -1.436769962 0.9195384979 
-15.14848328 -12.83922863 -1.363699794 0.9234697223 
-14.85477543 -16.45866585 -1.522573829 0.9149436951 
-14.93341732 -19.83982849 -1.70531404 0.9052340388 
-14.98045635 -21.86268997 -1.820045829 0.8991904855 
-6.37467289 -12.63587856 -0.97193259 0.9448353648 
-5.691491604 -12.65177441 -0.9527183175 0.9458959103 
-5.033520222 -12.66707993 -0.9360641837 0.9468159676 
-4.537057877 -13.08611298 -0.9511594176 0.9459819794 
-2.736115694 -13.48077583 -0.9446564913 0.946341157 
-2.118969679 -13.49514103 -0.9381200671 0.9467022419 
-1.509108901 -13.50933075 -0.9335119128 0.9469570518 
-0.9039623737 -13.5234127 -0.9307810664 0.9471080899 
-0.3012133837 -13.53743172 -0.9299019575 0.9471567273 
0.3015917838 -13.55145931 -0.9308657646 0.9471034408 
0.9068456888 -13.56554127 -0.9336816669 0.9469477534 
1.516982436 -13.57974052 -0.9383788705 0.9466881156 
2.134521484 -13.59410572 -0.9450011849 0.9463220835 
2.762089729 -13.60871506 -0.9536214471 0.9458459616 
4.058744907 -13.63888168 -0.9772316813 0.9445430636 
4.734157562 -13.65459442 -0.992478013 0.9437026381 
5.432380199 -13.67084408 -1.010239601 0.9427245855 
6.157516956 -13.68770981 -1.030724883 0.9415977001 
6.914206505 -13.7053175 -1.05419147 0.9403085709 
7.507013798 -13.36635685 -1.052787781 0.9403856993 
12.03585434 -17.56530762 -1.462290883 0.91816926 
13.24250984 -17.59337807 -1.512219787 0.9154967666 
19.49220848 -21.5966053 -1.997887492 0.8899027109 
24.48676491 -15.6809082 -1.996864438 0.8899558783 
25.7802124 -13.44046116 -1.99659431 0.8899698257 
26.86968231 -11.09465504 -1.996363997 0.8899817467 
27.74697685 -8.661848068 -1.996186733 0.8899909258 
28.40512657 -6.161030293 -1.996054649 0.8899978399 
28.97082901 -2.325529814 -1.995943666 0.8900035024 
29.02246284 1.551252365 -1.995939255 0.8900039196 
28.92510414 2.840649366 -1.995961308 0.8900026679 
28.77059937 4.124733925 -1.995995164 0.8900008202 
7.491117001 3.25039053 -0.5607867241 0.96778965 
26.12922859 12.74736214 -1.996556044 0.8899719119 
24.89606857 15.02122307 -1.996812701 0.8899584413 
22.68060303 18.20474625 -1.99727273 0.8899356723 
20.97644043 20.15263367 -1.997626185 0.8899161816 
18.53386688 19.46406937 -1.845728874 0.8978432417 
17.66220665 20.28346252 -1.847030163 0.897775054 
13.72824955 22.98408127 -1.838532925 0.8982204795 
12.68762875 23.56319809 -1.837850809 0.8982563019 
7.480136395 15.50758648 -1.182386875 0.9332970977 
6.65978241 15.53755379 -1.160913706 0.9344679117 
6.3274827 19.35655403 -1.398514509 0.9215945601 
4.426533222 15.90518284 -1.133786321 0.9359490871 
2.956437826 21.29543686 -1.476440668 0.9174095988 
0.1188964844 26.72716522 -1.835482717 0.898380518 
-5.78911829 26.12775993 -1.837815762 0.89825809 
-6.947649002 25.85224152 -1.838371992 0.8982288837 
-8.093527794 25.52593231 -1.838977575 0.8981972337 
-10.33780479 24.72375107 -1.84033072 0.8981263041 
-12.50474834 23.72686386 -1.841865659 0.8980458379 
-13.55385017 23.15762329 -1.842697501 0.8980022073 
-15.57258987 21.88122559 -1.844373941 0.8979142904 
-16.53701782 21.17498398 -1.845090032 0.8978767991 
-15.983078 17.08712387 -1.606781721 0.9104564786 
-20.84919548 17.04248047 -1.849283814 0.897657156 
-22.30408478 15.13740158 -1.851161957 0.8975584507 
-24.15938187 12.05364227 -1.854157805 0.8974015713 
-24.68554878 10.97306633 -1.855196595 0.897347033 
-24.40560341 8.340058327 -1.77118206 0.9017589092 
-25.92165756 7.588564396 -1.854864478 0.8973647356 
-28.67859077 5.687983036 -2.007830858 0.8893856406 
-28.90377617 4.406611443 -2.007875681 0.8893837333 
-29.07158852 3.116674662 -2.00790906 0.8893822432 
-29.04254532 -3.375200033 -2.007896185 0.8893828392 
-28.86308289 -4.663803577 -2.0078578 0.8893848062 
-27.57790184 -9.699150085 -2.007587433 0.8893979192 
-25.05323982 -10.08467293 -1.85466671 0.897374928 
-24.57845497 -11.18863773 -1.854567647 0.8973802328 
-21.2852211 -13.36491203 -1.726007342 0.9041410685 
-18.44896698 -12.76243114 -1.540575266 0.9139825702 
-16.84482574 -12.79687023 -1.452759266 0.9186805487 
-14.78513432 -13.46417427 -1.373283982 0.9229531288 
-14.81502438 -14.74928665 -1.435646772 0.919598937 
-14.88411808 -17.72043419 -1.589254737 0.911388576 
-14.97053909 -21.43647385 -1.795588136 0.900475502 
-8.243405342 -12.9998703 -1.057114482 0.9401481748 
-6.514670372 -12.63262177 -0.9760996103 0.9446054101 
-5.825998306 -12.64863777 -0.9563482404 0.9456954002 
-3.490031719 -13.46323681 -0.9551359415 0.9457623363 
-1.630581021 -13.50650406 -0.934282124 0.946914494 
0.7854614258 -13.56271935 -0.9329681396 0.9469871521 
1.394482374 -13.57688904 -0.937286377 0.9467484355 
2.010273457 -13.59121513 -0.9435190558 0.9464039803 
2.635678768 -13.60577106 -0.9517330527 0.9459501505 
3.273217678 -13.62060547 -0.9620135427 0.9453826547 
3.926110744 -13.63579559 -0.9744704366 0.9446954131 
4.597343445 -13.65142059 -0.9892320633 0.9438814521 
6.010090351 -13.68428707 -1.026399016 0.9418355823 
7.349255085 -13.3626852 -1.0473032 0.9406867623 
8.155212402 -13.38144016 -1.07617116 0.9391027689 
12.99466991 -17.58761215 -1.5017277 0.9160577655 
19.29961205 -21.76971054 -1.99792707 0.8899005055 
20.24704361 -20.88755417 -1.997732759 0.8899105191 
22.01935768 -19.0018692 -1.997369528 0.8899294734 
23.61721802 -16.96686554 -1.997042179 0.8899464011 
24.34666634 -15.89838314 -1.996892929 0.8899542689 
26.24095726 -12.51381302 -1.996496558 0.8899748921 
27.24646378 -10.13097668 -1.996287823 0.8899857402 
27.66893196 -8.908664703 -1.996202469 0.8899901509 
28.03684998 -7.668642521 -1.99612844 0.889993906 
28.60585594 -5.14610815 -1.996014476 0.8899998069 
28.80584717 -3.868559599 -1.995975256 0.8900019526 
29.03506088 -1.292741656 -1.995932102 0.890004158 
28.9491272 2.583185911 -1.995955944 0.8900030255 
28.80600929 3.868578911 -1.995987535 0.8900013566 
28.60607529 5.146142483 -1.996030688 0.8899989724 
28.34956551 6.413835526 -1.996085644 0.8899962306 
27.6695137 8.908780098 -1.996234536 0.8899880648 
27.24694824 10.13112545 -1.99632287 0.889983952 
7.496077538 3.574733734 -0.5703254342 0.9672507644 
25.66033173 13.66989994 -1.996653676 0.8899665475 
11.78851509 8.468976021 -0.9968217015 0.9434633255 
20.24731445 20.88816071 -1.997777224 0.8899082541 
15.92218685 21.54984283 -1.840046525 0.8981412649 
12.89772224 23.45111275 -1.837987781 0.8982492089 
6.817817211 15.52336788 -1.164341688 0.9342809916 
6.237482548 16.11317444 -1.186573863 0.9330690503 
0.3566723466 26.72431183 -1.835433722 0.8983832002 
-3.205695629 26.55335426 -1.836768866 0.8983131051 
-4.384880066 26.39084625 -1.837214112 0.8982897401 
-6.716938496 25.91135406 -1.838256955 0.8982351422 
-12.29187202 23.83517838 -1.841704249 0.8980543613 
-13.34605694 23.27516747 -1.842527866 0.8980110288 
-16.33926964 21.30971146 -1.844086409 0.8979288936 
-14.39361286 17.13642502 -1.536877871 0.9141797423 
-17.29249763 17.21572685 -1.675721049 0.9067993164 
-18.04610634 16.43378448 -1.67617166 0.9067754745 
-20.69457626 17.225811 -1.849101782 0.8976666331 
-21.45112419 16.29623032 -1.850022435 0.8976182342 
-22.16603661 15.33379841 -1.850969315 0.8975688219 
-22.83828354 14.3400383 -1.851941466 0.8975177407 
-24.04852295 12.26672363 -1.853952289 0.8974123597 
-24.38542175 9.815849304 -1.805228829 0.8999688029 
-25.51049423 8.9721241 -1.857106924 0.8972471952 
-25.85295677 7.818828106 -1.854850531 0.8973653316 
-29.04262352 3.37518549 -2.007903337 0.8893825412 
-14.62991619 -0.2604858279 -1.004856825 0.9430209398 
-14.6336565 -0.9128124714 -1.006906748 0.9429080486 
-28.90361977 -4.406606197 -2.007866383 0.8893842697 
-28.67826271 -5.687963963 -2.00781846 0.8893868327 
-28.05740929 -8.213812828 -2.007688046 0.889393568 
-24.67741966 -10.96945286 -1.85458827 0.8973790407 
-23.64239502 -13.14051247 -1.857553244 0.8972238302 
-21.6962719 -13.35534668 -1.749634385 0.9028947353 
-18.79257584 -12.75444317 -1.559730291 0.9129610062 
-15.38464546 -12.57589817 -1.36459589 0.9234214425 
-14.80883026 -14.48307133 -1.42250216 0.9203048944 
-14.84099865 -15.86615658 -1.491969585 0.9165799022 
-14.87655258 -17.39480019 -1.57186079 0.912314713 
-14.91619587 -19.09960365 -1.664250135 0.9074068069 
-14.96090031 -21.02174187 -1.77192831 0.9017202258 
-8.404245377 -12.99612236 -1.062854648 0.9398331642 
-5.961496353 -12.64548779 -0.960082531 0.9454892278 
-5.293989182 -12.66102314 -0.9424333572 0.9464640021 
-4.151936054 -13.09507751 -0.9434119463 0.9464098811 
-3.617365599 -13.46026802 -0.9571725726 0.9456499815 
-2.364797354 -13.48941898 -0.940500319 0.9465707541 
-1.145624995 -13.51778793 -0.9316497445 0.9470600486 
0.06026367098 -13.54584408 -0.9302583337 0.9471369982 
0.6643066406 -13.55990219 -0.9323310852 0.9470223784 
1.272138596 -13.57404232 -0.9362710118 0.9468045831 
2.509636164 -13.60283661 -0.9499285817 0.9460499287 
3.794091702 -13.63272476 -0.9717956185 0.9448428154 
4.461482048 -13.6482563 -0.9860886931 0.9440547228 
7.990527153 -13.37761211 -1.070103407 0.939435482 
10.44561291 -15.84195805 -1.303139925 0.9267404675 
16.74167252 -21.04828644 -1.846953988 0.8977789879 
20.06054878 -21.06738663 -1.997770905 0.8899087906 
20.97595978 -20.15219688 -1.99758327 0.8899185061 
22.68013954 -18.20495033 -1.997234106 0.8899365067 
23.46551514 -17.17674828 -1.997073293 0.8899449706 
24.89563751 -15.02096653 -1.996780753 0.8899602294 
25.53756523 -13.89761734 -1.996645808 0.8899670243 
27.1554966 -10.37306881 -1.996306062 0.8899847865 
27.96770477 -7.917834282 -1.996142387 0.8899931908 
28.29128838 -6.665795803 -1.996077418 0.8899965882 
28.55905914 -5.400414944 -1.996024013 0.8899993896 
29.02239227 -1.551267028 -1.995934367 0.8900042176 
29.04542351 1.03436029 -1.995933652 0.890004158 
28.97091484 2.325515032 -1.995951056 0.8900032043 
28.83921623 3.611874819 -1.995980144 0.8900017142 
28.40540314 6.161086082 -1.996073723 0.8899968266 
28.10417747 7.418937683 -1.996141791 0.8899931312 
27.74735832 8.66194725 -1.996218204 0.8899894953 
27.33576584 9.888227463 -1.996304393 0.8899848461 
24.48719978 15.68116093 -1.996897697 0.8899540901 
12.0031271 8.462270737 -1.008562684 0.9428168535 
23.00016212 17.79825401 -1.997206569 0.8899379373 
22.18757057 18.80527687 -1.997375011 0.889929235 
21.33088875 19.77546692 -1.997552633 0.8899201155 
20.43209457 20.70659637 -1.997738957 0.8899104595 
18.0111351 19.95577431 -1.846087575 0.8978245258 
7.843565464 15.54750252 -1.195888758 0.9325616956 
6.352769852 18.32334137 -1.331821442 0.9251899719 
4.758224964 15.98937511 -1.145646095 0.9353013039 
4.016086102 16.08073425 -1.138250589 0.9357052445 
3.342753887 16.46960831 -1.154098511 0.9348399043 
0.5946850181 26.72163963 -1.835540295 0.8983775973 
-0.5948022604 26.72666931 -1.835885406 0.8983594775 
-1.78339839 26.67955208 -1.836283326 0.8983385563 
-7.636823654 25.66251945 -1.838729501 0.8982102275 
-9.894496918 24.89997101 -1.840045333 0.8981413841 
-13.1372385 23.39082527 -1.8423599 0.8980199695 
-13.47131062 21.66814804 -1.752177954 0.9027605057 
-14.45844936 19.20879745 -1.651074886 0.9081051946 
-14.38036823 17.43326187 -1.55196619 0.9133749604 
-18.01373672 19.95867538 -1.8463552 0.8978104591 
-18.89223862 19.14603424 -1.847179055 0.897767365 
-20.53849411 17.40753937 -1.84892118 0.8976761103 
-21.30296516 16.48493576 -1.849836111 0.8976281881 
-24.35155869 11.34797382 -1.844989538 0.8978820443 
-24.97818947 10.31362724 -1.855828047 0.8973139524 
-25.78221321 8.048480988 -1.854836226 0.8973659277 
-26.11560249 6.893993855 -1.854903817 0.8973625302 
-28.11893272 6.098959923 -1.975949526 0.8910434246 
-28.82050514 4.920405388 -2.00785923 0.8893846273 
-14.62543678 0.5208398104 -1.005025983 0.9430115819 
-14.63290501 -0.7821386456 -1.006336212 0.9429394007 
-28.72792625 -5.432636738 -2.007829189 0.8893861175 
-28.45693016 -6.704843521 -2.007771969 0.8893895149 
-27.74649048 -9.206865311 -2.007622719 0.8893966675 
-23.71801376 -12.90744114 -1.854388356 0.8973895311 
-19.14520645 -12.74623013 -1.579513788 0.9119070768 
-14.77388859 -12.98067093 -1.350569248 0.9241778851 
-14.80274391 -14.22141552 -1.40969491 0.9209932685 
-14.95151043 -20.61776352 -1.749021769 0.9029269814 
-14.88054943 -22.56804085 -1.856422067 0.897282958 
-6.098056316 -12.64231396 -0.9639220834 0.9452772737 
-5.425517559 -12.65796375 -0.9457617998 0.9462801218 
-4.837516785 -12.83504105 -0.9419626594 0.9464899898 
-3.110993624 -13.47205544 -0.9495288134 0.9460719824 
-1.266591787 -13.51497078 -0.9321959615 0.9470298886 
-0.6627856493 -13.5290184 -0.9302085638 0.9471397996 
-0.06024413928 -13.54304123 -0.9300647378 0.9471476674 
0.5431933403 -13.55708504 -0.9317685366 0.9470534921 
1.763012648 -13.58546352 -0.9407934546 0.9465546608 
2.384179592 -13.59991646 -0.9482043386 0.9461450577 
3.662902832 -13.629673 -0.969217658 0.9449850917 
4.326467037 -13.64511204 -0.9830425978 0.9442226887 
5.010476112 -13.66102982 -0.9992696643 0.9433284998 
6.456110477 -13.69466305 -1.03973937 0.9411023259 
7.827514648 -13.37381363 -1.064179897 0.9397603869 
12.50883007 -17.57631302 -1.481511354 0.9171396494 
13.74909878 -17.6051712 -1.53403306 0.9143316746 
18.90976715 -22.11070824 -1.998007178 0.8898963928 
13.81945038 -12.36165524 -1.273362756 0.9283552766 
22.51766777 -18.40632248 -1.997267365 0.8899347186 
24.76139259 -15.24211407 -1.99680829 0.8899586201 
25.41321945 -14.12445259 -1.996672273 0.8899657726 
26.01468468 -12.97928905 -1.9965446 0.8899722695 
26.56471443 -11.80838394 -1.996427774 0.8899786472 
27.89627457 -8.166647911 -1.996156693 0.8899924755 
28.23095703 -6.917267799 -1.996089458 0.8899962306 
28.5099659 -5.6545825 -1.996034145 0.8899988532 
28.73265266 -4.380534649 -1.99598968 0.8900011778 
29.00749969 -1.809409142 -1.99593699 0.8900039792 
29.05917358 -0.5173974633 -1.995928407 0.8900043368 
29.05342293 0.775898397 -1.995931625 0.8900043368 
28.87010193 3.35514164 -1.995973468 0.8900021315 
28.69286346 4.63628912 -1.996012092 0.8899999261 
28.45895195 5.908083439 -1.996062279 0.8899973631 
28.16881371 7.168537617 -1.996127129 0.8899940848 
25.89894676 13.21062469 -1.996604085 0.8899691701 
25.2871666 14.35063362 -1.9967314 0.8899627328 
