# .PCD v0.7 - Point Cloud Data file format
VERSION 0.7
FIELDS x y z intensities
SIZE 4 4 4 4
TYPE F F F F
COUNT 1 1 1 1
WIDTH 923
HEIGHT 1
VIEWPOINT 0 0 0 1 0 0 0
POINTS 923
DATA ascii
10.31843758 7.838821888 -1.84863472 0.9489890933 
9.959616661 8.290218353 -1.848659754 0.9489884377 
3.285941124 3.271354914 -0.6614765525 0.9814397097 
7.902559757 10.30681419 -1.852831841 0.9488762617 
7.434464931 10.6454792 -1.852374077 0.9488885999 
6.951852798 10.96306705 -1.851933599 0.9489004612 
6.455863953 11.25887203 -1.851511478 0.9489117861 
5.947305679 11.53242683 -1.851108551 0.9489225745 
4.896796703 12.01053238 -1.850363135 0.9489426613 
4.356935978 12.21419525 -1.850022078 0.9489517808 
3.25302124 12.54892349 -1.849406719 0.9489683509 
2.691129208 12.6793499 -1.849133372 0.9489756823 
2.124215126 12.78477383 -1.848883748 0.948982358 
0.659916997 8.7064991 -1.245633721 0.9653355479 
0.4036083817 12.95329094 -1.848818064 0.9489841461 
-1.897009254 12.82541943 -1.849585652 0.9489635825 
-2.466032743 12.73001194 -1.849830031 0.9489569664 
-1.175808072 4.083696365 -0.6062489152 0.982976079 
-1.518649817 3.457790375 -0.5387687683 0.9848565459 
-1.80292964 3.278154135 -0.5337249637 0.9849972129 
-1.954406738 3.206874847 -0.5357601643 0.9849404693 
-2.145554066 3.191811562 -0.5486589074 0.9845806956 
-8.177785873 10.09572506 -1.853484631 0.9488587379 
-9.047277451 9.333471298 -1.854404211 0.9488340616 
-9.455844879 8.924078941 -1.854869366 0.948821485 
-9.845626831 8.496400833 -1.855271816 0.9488107562 
-10.18596458 8.028134346 -1.850217104 0.9489465952 
-11.55525398 6.155795574 -1.867805004 0.9484740496 
-12.6719408 6.043002605 -2.002820015 0.9448539615 
-12.92832756 5.473449707 -2.002842903 0.9448533654 
-13.36390877 4.302822113 -2.002882957 0.9448522925 
-13.5422163 3.70406723 -2.002900124 0.9448518157 
-13.69366646 3.098071337 -2.002915144 0.9448513985 
-13.91499996 1.868754864 -2.002938986 0.9448507428 
-13.98441887 1.247856379 -2.002947807 0.9448505044 
-13.16381359 -0.5861572027 -2.002894402 0.9480833411 
-13.12470913 -1.171157241 -2.00289464 0.9480833411 
-12.70986748 -3.476430655 -2.002875328 0.948083818 
-12.54258537 -4.03834486 -2.002865553 0.9480840564 
-12.35044384 -4.592250824 -2.002853632 0.948084414 
-12.13387203 -5.137077332 -2.002839804 0.948084712 
-11.62906742 -6.195092678 -2.002806902 0.9480856061 
-11.34185791 -6.706201077 -2.002787352 0.9480860829 
-11.032197 -7.204010963 -2.002766132 0.9480866194 
-10.70070267 -7.687553406 -2.002743244 0.9480871558 
-9.581896782 -9.043046951 -2.002664328 0.9480891824 
-8.631000519 -9.735673904 -1.977633595 0.9487210512 
-7.23289299 -9.789364815 -1.850087047 0.9519475102 
-6.791284084 -10.10292912 -1.850361466 0.9519404769 
-5.389709473 -10.92415047 -1.851579905 0.9519096017 
-4.899309158 -11.1551075 -1.851916313 0.9519011378 
-3.88965559 -11.54992867 -1.852480292 0.9518868327 
-3.372429132 -11.71294403 -1.852706552 0.9518811107 
-1.783645034 -12.0590086 -1.852921724 0.951875627 
-0.1627050787 -12.18742371 -1.852665663 0.9518821239 
0.921018064 -12.15187931 -1.852395296 0.9518889785 
1.460578561 -12.09818077 -1.852286935 0.9518917203 
1.997019053 -12.01947498 -1.852017522 0.9518985748 
3.056310892 -11.7902174 -1.851357818 0.9519152641 
3.577038527 -11.6402483 -1.850985646 0.9519246817 
5.092338562 -11.05587101 -1.85019803 0.9519447088 
5.578341961 -10.81689167 -1.849941015 0.9519512057 
6.052963734 -10.55623055 -1.849625349 0.9519592524 
7.469577312 -9.742031097 -1.865973949 0.9515450001 
8.179821968 -9.738554001 -1.933155656 0.9498448968 
8.907993317 -9.694869995 -2.001239777 0.948125124 
10.11860561 -8.42256546 -2.001139402 0.9481276274 
11.14912319 -7.000514984 -2.001052618 0.9481298923 
11.98126888 -5.453845024 -2.000981331 0.9481320381 
12.2118988 -4.915676117 -2.000961542 0.9481322169 
12.41836166 -4.367541313 -2.000942945 0.9481326342 
12.60024834 -3.810768843 -2.000926018 0.948133111 
12.88891315 -2.675744534 -2.000897884 0.9481337667 
13.13018036 -0.9364281893 -2.000870228 0.9481344819 
13.15881062 -0.351411134 -2.000865221 0.9481346011 
13.16138649 0.2342895418 -2.000861883 0.9481347203 
13.01311493 1.983979464 -2.000864267 0.9481346607 
12.63340092 3.698398352 -2.00088501 0.9481341243 
12.45645142 4.25682354 -2.0008955 0.948133707 
12.25484371 4.806660175 -2.000906944 0.9481335282 
11.77927494 5.87691164 -2.000935078 0.9481329322 
10.35708141 6.37539053 -1.848639607 0.9519841671 
9.749676704 7.270856857 -1.848681569 0.9519830942 
9.073573112 8.116423607 -1.850458145 0.9519380927 
3.19511342 3.415822744 -0.7109449506 0.9812540412 
7.921633244 9.262517929 -1.852583766 0.9518842697 
7.504602909 9.609366417 -1.853283644 0.9518665075 
7.068610668 9.932135582 -1.852995157 0.9518738389 
6.618299484 10.23443604 -1.852578044 0.9518843889 
4.192712307 11.43135738 -1.850763917 0.9519303441 
3.679451704 11.60464096 -1.850460172 0.9519380927 
3.159105062 11.75503731 -1.850177407 0.9519452453 
2.632699013 11.88226795 -1.849916339 0.9519518018 
2.101249933 11.98605919 -1.849677444 0.9519578815 
1.565798283 12.06625462 -1.849461198 0.9519633651 
0.4871996939 12.15860558 -1.84960413 0.9519597292 
-0.5954882503 12.15591526 -1.849928141 0.9519515634 
-1.135754347 12.11859608 -1.850110292 0.9519469142 
-1.673896432 12.05739212 -1.850311875 0.9519417882 
-2.208864689 11.97244358 -1.850536585 0.9519361258 
-1.054440856 3.788710833 -0.5977749228 0.9842144251 
-1.18576169 3.627412081 -0.5800816417 0.98467803 
-1.844208956 3.087568283 -0.5466576815 0.9855544567 
-8.80175972 8.456139565 -1.855265141 0.9518162608 
-9.166427612 8.05377388 -1.854702353 0.9518305659 
-9.822031021 7.189670086 -1.85019362 0.9519447684 
-10.13228512 6.745734692 -1.850219965 0.9519440532 
-10.42246819 6.28842783 -1.85024488 0.9519434571 
-11.84190369 5.777126312 -2.002757311 0.9480867982 
-12.08729267 5.244682312 -2.002779245 0.9480863214 
-12.30875206 4.701860428 -2.002799273 0.9480857849 
-12.50584698 4.149702072 -2.002817631 0.9480853081 
-12.82537842 3.02182126 -2.002848387 0.9480845332 
-12.94717216 2.44832015 -2.002861023 0.9480842352 
-13.1136713 1.287895441 -2.002880096 0.9480837584 
-12.98889637 -2.21752429 -2.002889872 0.9480834603 
-12.39084911 -4.482172966 -2.002856255 0.9480842948 
-12.17911625 -5.02888155 -2.002842903 0.948084712 
-11.68377209 -6.091367245 -2.002810478 0.9480854273 
-11.40112782 -6.605016708 -2.002791405 0.9480859041 
-11.0959034 -7.105566025 -2.002770662 0.9480865002 
-10.76871586 -7.592038631 -2.002748013 0.9480870366 
-10.42020988 -8.063446999 -2.002723694 0.9480876923 
-10.0510664 -8.518896103 -2.002697706 0.9480883479 
-9.662021637 -8.957438469 -2.00267005 0.9480890632 
-9.253879547 -9.378249168 -2.002640963 0.9480897188 
-8.785473824 -9.734004021 -1.993098617 0.9483305812 
-7.343232155 -9.755839348 -1.856027484 0.9517969489 
-6.880580902 -10.04158878 -1.850269437 0.9519428611 
-6.42863512 -10.3402195 -1.850716233 0.9519315362 
-5.963627815 -10.61833191 -1.851129413 0.9519210458 
-4.998222351 -11.11068821 -1.851851821 0.9519027472 
-4.499777794 -11.32391071 -1.8521595 0.9518949389 
-3.992177725 -11.51454067 -1.852430582 0.9518880844 
-3.47645998 -11.68219948 -1.852664351 0.9518821836 
-2.95366931 -11.82654476 -1.85286057 0.9518771768 
-2.424731493 -11.94663811 -1.852924705 0.9518755674 
0.2711425722 -12.18465519 -1.852537751 0.9518854022 
0.8128442168 -12.15971375 -1.852413297 0.9518885612 
1.352873564 -12.11085224 -1.852311015 0.9518911242 
2.951379299 -11.81740189 -1.851428986 0.951913476 
3.473447084 -11.67209721 -1.851062298 0.9519227743 
4.495697975 -11.3136549 -1.850481272 0.9519374371 
4.993888855 -11.10104465 -1.850247145 0.9519434571 
5.95904541 -10.61016369 -1.849707484 0.9519571066 
6.423828125 -10.33249283 -1.84933424 0.9519665837 
8.033737183 -9.739323616 -1.919040322 0.950201869 
8.809387207 -9.760499954 -1.998525977 0.9481936693 
9.247267723 -9.37155056 -2.001211882 0.9481258392 
9.654829025 -8.950763702 -2.001178265 0.9481267333 
10.0432806 -8.512241364 -2.00114584 0.9481276274 
10.41183567 -8.056999207 -2.001114845 0.9481282234 
10.75977039 -7.585729599 -2.00108552 0.9481290579 
11.08640385 -7.099482059 -2.001057863 0.9481297731 
11.39109802 -6.599211216 -2.001031876 0.9481303692 
12.37903309 -4.47789526 -2.000946522 0.948132515 
12.56585693 -3.922756195 -2.000929117 0.9481329918 
12.86458683 -2.790354013 -2.000900269 0.9481337667 
13.15515995 -0.4685131609 -2.000865936 0.9481346011 
13.16296387 0.1171508729 -2.00086236 0.9481346607 
13.14471149 0.7025732398 -2.000860929 0.9481347203 
13.03025627 1.868088365 -2.000863791 0.9481346607 
12.81273556 3.018842697 -2.000874519 0.9481343627 
12.66580296 3.58581543 -2.000882864 0.9481341839 
12.49382305 4.145564079 -2.000893593 0.9481340647 
12.29711533 4.697404861 -2.000904322 0.9481335878 
12.0760498 5.239824295 -2.000916958 0.9481332898 
10.12369442 6.740034103 -1.848655701 0.9519838095 
9.813980103 7.183790207 -1.848677039 0.9519831538 
9.484816551 7.613332272 -1.848700166 0.9519826174 
3.351038694 3.21944809 -0.7063441277 0.9813742638 
3.217833281 3.379321098 -0.7092811465 0.9812975526 
7.589267254 9.541487694 -1.853146434 0.9518699646 
7.157044411 9.869286537 -1.853080392 0.9518716931 
6.248766899 10.46169376 -1.852256775 0.9518925548 
5.77600193 10.7270689 -1.851871014 0.9519023299 
5.292055607 10.97122574 -1.85150373 0.9519115686 
4.79786253 11.19366169 -1.851155519 0.9519204497 
3.263692617 11.72679806 -1.850232244 0.9519438744 
1.67316401 12.05210686 -1.849502563 0.9519623518 
1.135356426 12.11430168 -1.849457026 0.9519634843 
0.5953735113 12.15362072 -1.849577188 0.9519603848 
0.05414794758 12.16901875 -1.849721909 0.951956749 
-1.027834415 12.12796402 -1.850072861 0.9519478679 
-1.566494107 12.07153034 -1.850269556 0.9519428611 
-2.10217762 11.99132824 -1.850489736 0.9519372582 
-2.633859873 11.88751221 -1.850733161 0.951931119 
-1.027741671 3.824230909 -0.6019116044 0.9841060042 
-1.16027832 3.659409046 -0.5835229158 0.9845878482 
-1.283984303 3.500756741 -0.5667799115 0.9850267172 
-1.656044841 3.142253399 -0.5398971438 0.9857318401 
-1.970541954 3.047211885 -0.5515879989 0.9854251146 
-2.430290461 3.11190176 -0.6001675129 0.984151721 
-7.928947449 9.271044731 -1.854289532 0.9518409967 
-8.335451126 8.911247253 -1.854723573 0.9518300295 
-8.725725174 8.53371048 -1.855173349 0.9518185854 
-10.36605453 6.380912781 -1.850239992 0.9519435763 
-11.78998756 5.882260799 -2.002752781 0.948086977 
-12.26639843 4.811201096 -2.002795458 0.9480859041 
-12.64570045 3.701997042 -2.002830744 0.9480849504 
-12.92486095 2.563444853 -2.002858639 0.9480842948 
-13.15123272 0.8203466535 -2.00288558 0.9480836391 
-13.17214775 -0.3517675698 -2.002893686 0.9480834007 
-12.9017086 -2.678398371 -2.00288558 0.9480836391 
-12.43025589 -4.371726036 -2.002858639 0.9480842948 
-12.22340775 -4.920302391 -2.002845764 0.9480845928 
-11.4594698 -6.503293514 -2.002795458 0.9480859041 
-11.15873051 -7.006552696 -2.002774954 0.948086381 
-10.83586884 -7.495915413 -2.002752542 0.948086977 
-10.49158382 -7.97040987 -2.002728701 0.9480875731 
-9.741386414 -8.871123314 -2.002675772 0.948088944 
-9.336931229 -9.295538902 -2.002646923 0.9480897784 
-8.181344986 -9.740373611 -1.933517456 0.9498357773 
-7.473576546 -9.747238159 -1.866970658 0.9515197277 
-6.969326019 -9.979448318 -1.850176096 0.9519452453 
-6.520090103 -10.28211689 -1.850629568 0.9519337416 
-5.582844257 -10.82563972 -1.851435304 0.9519132972 
-5.096730709 -11.06536865 -1.851786017 0.9519044161 
-3.058742523 -11.79955769 -1.85282433 0.9518780708 
-2.530939817 -11.92454815 -1.852919698 0.9518757463 
-1.461064458 -12.10217762 -1.852898955 0.9518762231 
-0.9212377667 -12.15472412 -1.852829218 0.9518780112 
0.1626977473 -12.18681335 -1.852572083 0.9518845081 
0.7045971751 -12.16657162 -1.852430105 0.951888144 
1.782883286 -12.05388927 -1.85213542 0.951895535 
2.316953182 -11.9606905 -1.851831675 0.951903224 
3.369570255 -11.70302963 -1.851137757 0.951920867 
4.39494133 -11.35347843 -1.850525737 0.9519363642 
5.385234356 -10.91508484 -1.850046158 0.9519485235 
5.864606857 -10.66317558 -1.849777937 0.9519553185 
6.331784725 -10.38951397 -1.849381566 0.9519653916 
7.889723778 -9.740056038 -1.905273199 0.950550139 
8.642329216 -9.748430252 -1.980228066 0.9486556053 
9.16353035 -9.453503609 -2.001218796 0.9481256604 
9.574824333 -9.03635025 -2.001184702 0.9481265545 
10.33975601 -8.149309158 -2.001120806 0.9481281638 
10.69186497 -7.681203365 -2.001091242 0.9481288791 
11.33194828 -6.700339317 -2.001036882 0.94813025 
11.88234806 -5.666498661 -2.000989914 0.9481314421 
12.33870792 -4.587897778 -2.000950098 0.9481324553 
12.53047371 -4.034455299 -2.000932455 0.9481328726 
12.69743156 -3.47301507 -2.000916719 0.9481332898 
12.83927441 -2.904733896 -2.000902891 0.9481336474 
13.04648399 -1.752075195 -2.000880957 0.9481341839 
13.1114521 -1.169970632 -2.000873089 0.9481344223 
13.15047932 -0.5855639577 -2.00086689 0.9481346011 
13.1113739 1.16996336 -2.000860929 0.9481347203 
13.04636765 1.752055645 -2.000863075 0.9481346607 
12.8390789 2.90468502 -2.000873327 0.9481344223 
12.69720459 3.472961426 -2.000881195 0.9481341839 
12.53021908 4.034358025 -2.000891209 0.9481339455 
12.33840466 4.587834358 -2.000901937 0.9481336474 
12.12220764 5.132294655 -2.000914335 0.9481330514 
11.88198185 5.666330338 -2.00092864 0.9481329918 
10.18325806 6.64964819 -1.848651528 0.9519838691 
9.552173615 7.52859354 -1.848695278 0.9519827366 
3.394309044 3.203410625 -0.7094256282 0.9812937379 
7.553824425 8.520626068 -1.730818748 0.9549744129 
7.673298359 9.472863197 -1.85300827 0.9518734813 
7.244935036 9.805659294 -1.853166461 0.9518694878 
6.800020695 10.11591625 -1.85274291 0.9518802166 
4.897479057 11.15092373 -1.851223707 0.9519187212 
4.395802021 11.35570908 -1.850891232 0.9519271255 
3.368024826 11.69764519 -1.850287914 0.9519424438 
2.314361572 11.94736767 -1.849770308 0.9519554973 
0.8935595751 8.700182915 -1.329390407 0.9652331471 
-0.3790307641 12.16411304 -1.849855423 0.9519533515 
-0.9198461771 12.13640118 -1.850036383 0.9519487619 
-1.995319724 12.00926685 -1.850443959 0.9519384503 
-2.527897835 11.91013908 -1.850682616 0.9519324303 
-1.01648438 3.921257257 -0.6157357693 0.9837440252 
-1.134401798 3.691530704 -0.5870126486 0.9844964147 
-1.381301284 3.387924671 -0.55612427 0.9853061438 
-1.495783687 3.247456074 -0.5434608459 0.9856383204 
-1.62487793 3.15077877 -0.5388566256 0.9857591391 
-1.781293869 3.106535673 -0.5443150401 0.9856159091 
-1.938896418 3.057612181 -0.5503246784 0.9854582548 
-2.117377996 3.031892061 -0.5621082783 0.9851492047 
-2.378500938 3.102099657 -0.5941717625 0.9843087792 
-7.845754147 9.340817451 -1.854204535 0.9518431425 
-8.255422592 8.984658241 -1.854635477 0.9518322349 
-8.649001122 8.610602379 -1.855082154 0.95182091 
-9.023605347 8.217468262 -1.855110884 0.9518201947 
-9.355175972 7.78704834 -1.850154281 0.9519457817 
-9.692465782 7.363305569 -1.850182652 0.9519450068 
-10.01054668 6.924965858 -1.850209594 0.9519443512 
-10.30883789 6.472892761 -1.850235105 0.9519436955 
-10.84759235 6.156039715 -1.895854354 0.9507884979 
-11.73714542 5.986948013 -2.002748013 0.9480870962 
-12.22307587 4.920175552 -2.002791643 0.9480859637 
-12.61223888 3.814379692 -2.002827644 0.9480850697 
-12.76952648 3.249589682 -2.002842903 0.9480846524 
-12.90152836 2.678361654 -2.002856255 0.9480842948 
-13.00797367 2.1018188 -2.002867699 0.9480840564 
-13.08865452 1.52109611 -2.002876997 0.948083818 
-13.17212868 0.3517675698 -2.002889872 0.9480835199 
-13.17475796 -0.2345458865 -2.002893209 0.9480834007 
-13.10178185 -1.404579997 -2.002894163 0.9480834007 
-13.02631092 -1.986000896 -2.002891541 0.9480834603 
-12.79817581 -3.135886192 -2.002880096 0.9480836987 
-12.04047585 -5.352214336 -2.002834082 0.9480848908 
-10.90218925 -7.399203777 -2.002757311 0.9480867982 
-9.419345856 -9.212126732 -2.002652645 0.94808954 
-9.000139236 -9.621871948 -2.002622604 0.9480901361 
-7.611257076 -9.745954514 -1.879623652 0.9511992931 
-6.151144981 -10.50957775 -1.850968242 0.9519251585 
-4.700295448 -11.24130344 -1.852040768 0.9518979788 
-4.196242809 -11.44102287 -1.852326512 0.9518907666 
-3.683652163 -11.6179266 -1.852575302 0.9518843889 
-3.163559437 -11.77162838 -1.852786541 0.9518790841 
-2.636962891 -11.90151119 -1.852913022 0.9518758655 
-1.56872797 -12.08875942 -1.852908134 0.9518759251 
-0.4880126715 -12.17926502 -1.852745175 0.9518800974 
0.5963012576 -12.17247009 -1.852445483 0.9518877268 
1.137130141 -12.13330269 -1.852355599 0.9518899918 
2.210483313 -11.9812355 -1.851894736 0.9519016743 
3.265410185 -11.73302746 -1.851212263 0.9519189596 
3.783342123 -11.57376194 -1.850829124 0.9519286752 
4.795771599 -11.18875504 -1.850343108 0.9519409537 
6.239336014 -10.44589806 -1.849459171 0.9519633651 
6.696847916 -10.15652275 -1.849189162 0.9519702792 
7.141193867 -9.847443581 -1.848977327 0.9519756436 
9.079070091 -9.534713745 -2.001225948 0.9481254816 
10.26685524 -8.241110802 -2.001127005 0.9481278658 
10.62311745 -7.776081562 -2.001096964 0.9481287599 
10.95835209 -7.295734882 -2.00106883 0.9481294155 
11.27189159 -6.800876141 -2.001042128 0.94813025 
12.6660347 -3.585898399 -2.000919819 0.9481332302 
12.93445015 -2.445925236 -2.000893116 0.9481338859 
13.03038025 -1.868122458 -2.000882864 0.9481341839 
13.10053444 -1.286601543 -2.000874519 0.9481343627 
13.16296005 -0.1171484366 -2.000863552 0.9481346607 
13.15513039 0.468498528 -2.000861168 0.9481347203 
13.12127018 1.05322504 -2.000860929 0.9481347203 
12.97576904 2.21527338 -2.000866175 0.9481345415 
12.72759724 3.359824181 -2.000879526 0.9481342435 
12.37874699 4.477844238 -2.000899792 0.9481336474 
12.16737175 5.024147987 -2.000911713 0.9481332302 
11.16810799 6.470012188 -1.96186018 0.9491195083 
10.24201012 6.558747292 -1.848647475 0.9519839883 
9.618766785 7.44327879 -1.848690748 0.9519828558 
9.285458565 7.869997501 -1.850150704 0.9519459009 
3.284378529 3.328522921 -0.7107762098 0.9812584519 
3.184269905 3.528051615 -0.7223928571 0.9809551239 
7.756714821 9.403482437 -1.852868199 0.9518770576 
6.890098572 10.05544853 -1.852826357 0.9518780708 
4.839396954 8.616613388 -1.502164602 0.9608043432 
4.342148304 8.606987953 -1.465328217 0.9617469311 
3.472105742 11.66755867 -1.850344539 0.9519410133 
2.94922471 11.80872536 -1.850070357 0.9519479275 
1.759772897 8.670419693 -1.344784498 0.9648377895 
0.8115698099 12.140769 -1.849526048 0.9519616961 
-0.2707446218 12.16677952 -1.849820614 0.9519542456 
-1.374714375 8.755131721 -1.347096205 0.9647784233 
-2.421747923 11.93185234 -1.850633025 0.951933682 
-1.473478913 3.275439262 -0.5459272861 0.9855736494 
-1.593747497 3.159121037 -0.5378356576 0.9857859015 
-1.749894977 3.115715265 -0.54317379 0.9856458902 
-1.907292485 3.067795277 -0.5490820408 0.9854908586 
-2.065754414 3.014770508 -0.5555039644 0.9853224158 
-8.174748421 9.057329178 -1.854547977 0.9518344998 
-8.951086044 8.298339844 -1.855312347 0.9518151283 
-9.285461426 7.869989872 -1.850148439 0.9519459009 
-9.948505402 7.013759613 -1.850204229 0.9519444704 
-10.25079536 6.564357758 -1.850230098 0.9519438148 
-10.63762951 6.162687778 -1.868673921 0.9514766932 
-11.68342495 6.091149807 -2.002743244 0.9480870366 
-11.94288826 5.565463543 -2.002766371 0.948086679 
-12.17877197 5.028747559 -2.002787352 0.9480860829 
-12.39054203 4.482062817 -2.002806902 0.9480856061 
-12.74009037 3.363100529 -2.002839804 0.948084712 
-12.98873043 2.217485189 -2.002865553 0.948084116 
-13.13453293 1.054294467 -2.002883196 0.9480836987 
-13.16847897 0.4689794779 -2.002889156 0.9480834603 
-13.1763258 -0.117263183 -2.002892971 0.9480834007 
-13.0434742 -1.869997501 -2.002892256 0.9480834603 
-12.50612068 -4.149795055 -2.002863169 0.9480841756 
-12.08764648 -5.244829178 -2.002836943 0.9480848312 
-11.84226036 -5.777321815 -2.002820969 0.9480852485 
-11.5734396 -6.298339844 -2.002803087 0.9480856657 
-11.28170395 -6.806865215 -2.002783298 0.9480862021 
-10.96762943 -7.301904202 -2.002761841 0.948086679 
-10.27498245 -8.247588158 -2.00271368 0.9480879903 
-9.897792816 -8.69638443 -2.002686977 0.9480886459 
-9.501028061 -9.127939224 -2.002658606 0.9480893016 
-7.750813007 -9.744626045 -1.892597198 0.9508709311 
-7.145451546 -9.853320122 -1.850080729 0.9519476891 
-5.774179459 -10.72369099 -1.851285219 0.9519171119 
-4.297770977 -11.40289497 -1.852272272 0.9518920779 
-3.786799192 -11.58438683 -1.852528453 0.9518856406 
-2.742761135 -11.87752151 -1.852904916 0.9518761039 
-2.211718798 -11.98793221 -1.852930069 0.9518754482 
-1.676252365 -12.07436275 -1.852915764 0.9518758059 
-1.137443781 -12.13662052 -1.852861881 0.9518771768 
1.029121041 -12.14308071 -1.852376223 0.9518894553 
2.103842735 -12.00083733 -1.851956725 0.9519000649 
3.680327177 -11.60745811 -1.850908041 0.9519267082 
4.69613266 -11.23127651 -1.850389957 0.9519397616 
5.674231052 -10.76651382 -1.84988749 0.951952517 
6.146399021 -10.50147724 -1.849542499 0.9519612789 
7.05332756 -9.910666466 -1.848988414 0.951975286 
7.607709885 -9.741408348 -1.878748536 0.9512215257 
8.328056335 -9.737746239 -1.947631478 0.9494790435 
8.993891716 -9.615160942 -2.001232862 0.9481253028 
9.812548637 -8.777487755 -2.001165152 0.9481269121 
10.1931324 -8.332159996 -2.001133204 0.9481277466 
10.89301777 -7.393044472 -2.001074314 0.9481291771 
11.21094704 -6.900969028 -2.001047134 0.9481300712 
12.02931881 -5.347057819 -2.000977278 0.9481320381 
12.25514889 -4.80678463 -2.000957727 0.9481322765 
12.45672131 -4.25684309 -2.000939369 0.9481327534 
12.63364983 -3.698478937 -2.000922918 0.948133111 
13.01324654 -1.984008789 -2.000884771 0.9481341243 
13.16139603 -0.2342797816 -2.000864267 0.9481346607 
13.15878105 0.3514160216 -2.000861645 0.9481347203 
13.07547379 1.519567847 -2.000861883 0.9481347203 
12.88872147 2.675700665 -2.000870466 0.9481344819 
12.60000229 3.810676098 -2.000886917 0.9481340647 
11.98092461 5.454035759 -2.00092268 0.9481329918 
11.72652912 5.981543064 -2.000938177 0.9481327534 
10.29995728 6.467326641 -1.848643422 0.9519840479 
10.00218105 6.919181824 -1.848664045 0.9519835711 
9.354614258 7.786615849 -1.850048423 0.9519484639 
9.001464844 8.197302818 -1.85055995 0.9519355297 
3.181254864 3.462263107 -0.7146897912 0.9811562896 
4.597541332 11.27646446 -1.851021886 0.9519238472 
3.575914145 11.63657093 -1.850401878 0.9519395232 
1.994455576 12.00398445 -1.849632382 0.9519590139 
0.919572711 12.13290215 -1.849502087 0.9519622922 
0.3789672852 12.1626482 -1.849632025 0.9519590139 
-0.7036645412 12.15039253 -1.849965811 0.9519505501 
-1.243581533 12.10825157 -1.850148678 0.9519459605 
-1.781171799 12.04228973 -1.85035491 0.9519407153 
-2.315380812 11.95261955 -1.850584388 0.9519348741 
-1.210871577 3.595551729 -0.5766866803 0.9847670197 
-1.566696763 3.175456524 -0.5382221937 0.9857757688 
-1.875725031 3.077785492 -0.5478594899 0.9855229259 
-2.033967257 3.025795937 -0.5541772246 0.9853572249 
-8.493556976 8.762313843 -1.854901671 0.9518254995 
-8.877104759 8.377882957 -1.855357528 0.9518139362 
-9.215031624 7.952282429 -1.850142479 0.9519460797 
-9.559794426 7.534611702 -1.850171447 0.9519453645 
-9.885651588 7.102016449 -1.850198984 0.9519445896 
-10.19193077 6.65530014 -1.850224972 0.9519439936 
-10.47804165 6.195417404 -1.850249767 0.9519433975 
-11.8929224 5.671503544 -2.002761841 0.9480865598 
-12.35013866 4.592133522 -2.002803087 0.9480856657 
-12.85178185 2.907546282 -2.002851009 0.9480844736 
-12.96845913 2.332988262 -2.002863169 0.9480842352 
-13.05947495 1.75380373 -2.002873421 0.9480839372 
-13.12462616 1.171135187 -2.002881765 0.9480836987 
-13.16375732 0.5861547589 -2.002887964 0.9480835795 
-13.12471199 -1.171147466 -2.00289464 0.9480833411 
-12.9686451 -2.333051682 -2.002889156 0.9480834603 
-12.85197926 -2.907619476 -2.002883196 0.9480836391 
-12.35044384 -4.592250824 -2.002853632 0.948084414 
-12.13386917 -5.137067795 -2.002839804 0.948084712 
-11.89323902 -5.671686649 -2.002824306 0.9480851889 
-11.62906933 -6.195085526 -2.002806902 0.9480856061 
-11.34184742 -6.706215858 -2.002787352 0.9480860829 
-11.032197 -7.204025745 -2.002766132 0.9480866194 
-10.34800529 -8.155846596 -2.002718687 0.9480878115 
-9.581896782 -9.043046951 -2.002664328 0.9480891824 
-7.232882977 -9.789374352 -1.850087047 0.9519475102 
-6.791274071 -10.10293198 -1.850361466 0.9519405365 
-5.86913538 -10.67142773 -1.851207972 0.9519190788 
-5.389709473 -10.92415047 -1.851579905 0.9519096017 
-3.372419357 -11.71295166 -1.852706552 0.9518811107 
-1.783645034 -12.05901051 -1.852921724 0.951875627 
-0.7047387362 -12.16894722 -1.852790356 0.9518789649 
0.3795605302 -12.18152809 -1.852501988 0.9518862963 
0.9210278392 -12.15188217 -1.852395296 0.9518889785 
1.460593224 -12.098176 -1.852286816 0.9518917203 
1.997026324 -12.01947498 -1.852017522 0.9518985748 
4.596088886 -11.27291203 -1.850436091 0.9519386292 
6.515370846 -10.27464104 -1.849286318 0.9519677758 
6.965036392 -9.9733181 -1.849039316 0.9519740343 
7.469579697 -9.742038727 -1.865974069 0.9515450001 
8.179823875 -9.738556862 -1.933156729 0.9498448968 
9.330270767 -9.288871765 -2.001205206 0.9481259584 
10.11861324 -8.422538757 -2.001139402 0.9481276274 
10.48310566 -7.963952541 -2.001108885 0.9481284618 
10.82683086 -7.489645958 -2.001079798 0.9481291771 
11.44935513 -6.497536659 -2.001026869 0.948130548 
11.72692108 -5.981745243 -2.001003504 0.9481310844 
11.98125935 -5.45406723 -2.000981331 0.9481317401 
12.21190929 -4.915656567 -2.000961542 0.9481321573 
12.75719738 -3.246464729 -2.000910997 0.9481334686 
12.88891125 -2.675754309 -2.000897884 0.9481337667 
13.07557869 -1.519587398 -2.00087738 0.9481343031 
13.1613884 0.2343041897 -2.000861883 0.9481347203 
13.13793755 0.8195312023 -2.000860691 0.9481347203 
13.08848095 1.403146982 -2.000861645 0.9481347203 
13.01311779 1.983984351 -2.000864267 0.9481346607 
12.91202641 2.560898304 -2.000869274 0.9481344819 
12.78536224 3.132744074 -2.000876188 0.9481343627 
12.25482655 4.806638241 -2.000906944 0.9481335878 
12.02895355 5.347170353 -2.000919819 0.948133111 
11.77927017 5.87693119 -2.000935078 0.9481328726 
9.423138618 7.702702522 -1.84996736 0.9519505501 
7.068610668 9.932135582 -1.852995157 0.9518738389 
6.155152321 10.51643276 -1.852178097 0.9518945813 
4.697885513 11.23551369 -1.851088166 0.9519221187 
2.632699013 11.88226795 -1.849916339 0.9519518018 
2.101252317 11.98606205 -1.849677444 0.9519578815 
1.565806866 12.06625175 -1.849461198 0.9519633651 
0.4872094691 12.15860558 -1.84960413 0.9519597292 
-2.208889008 11.97243595 -1.850536585 0.9519361258 
-1.428005338 3.331598997 -0.5509638786 0.9854415059 
-1.541264653 3.195271015 -0.5392329097 0.9857492447 
-1.687255859 3.13353014 -0.5409581065 0.9857040048 
-2.506391525 3.151127815 -0.612010777 0.9838415384 
-8.011487007 9.200536728 -1.854375005 0.9518389106 
-8.801748276 8.456150055 -1.855265141 0.9518162608 
-9.492365837 7.619348049 -1.850165844 0.9519454241 
-9.822038651 7.189662933 -1.85019362 0.9519447684 
-10.13228703 6.745725155 -1.850219965 0.9519441128 
-10.42247581 6.288405418 -1.85024488 0.9519434571 
-11.28635693 6.142065525 -1.953119874 0.9493403435 
-12.08730221 5.244677544 -2.002779245 0.9480862617 
-12.50584698 4.149702072 -2.002817631 0.9480853081 
-12.67817116 3.589316368 -2.002834082 0.9480848908 
-12.94717216 2.448325157 -2.002861023 0.9480842352 
-13.15802193 0.7033032179 -2.002887011 0.9480835795 
-13.13460922 -1.054331064 -2.002894878 0.9480833411 
-13.07496548 -1.637560964 -2.002893209 0.9480823874 
-12.98888874 -2.217546225 -2.002889872 0.9480834603 
-12.87734318 -2.793139696 -2.002884388 0.9480836391 
-12.74030781 -3.363190889 -2.002876997 0.948083818 
-12.39084911 -4.482177734 -2.002856255 0.9480842948 
-11.94327354 -5.565646648 -2.002827644 0.9480850101 
-11.68377209 -6.091367245 -2.002810478 0.9480854273 
-11.40112972 -6.605014324 -2.002791405 0.9480859041 
-11.09590816 -7.105558872 -2.002770662 0.9480865002 
-10.42021942 -8.063437462 -2.002723694 0.9480876923 
-8.785431862 -9.73400116 -1.993094325 0.9483307004 
-6.428632736 -10.34024429 -1.850716233 0.951931417 
-5.48649168 -10.87532711 -1.85150826 0.9519114494 
-4.499777794 -11.32391071 -1.8521595 0.9518949389 
-3.9921875 -11.51453876 -1.852430582 0.9518880844 
-1.890910625 -12.04267788 -1.852926135 0.9518755674 
-1.353315353 -12.11462116 -1.852888107 0.9518765211 
-0.2711401284 -12.18568611 -1.852693796 0.9518814087 
1.352888107 -12.11085224 -1.852311015 0.9518911242 
1.890048742 -12.03716564 -1.852077127 0.9518970251 
2.951384306 -11.81740189 -1.851428986 0.951913476 
3.988442183 -11.50376701 -1.85069561 0.951932013 
4.993879318 -11.10105228 -1.850247264 0.9519433975 
5.482008934 -10.86643314 -1.849994063 0.9519498348 
5.959035397 -10.61016369 -1.849707484 0.9519571066 
6.423815727 -10.3324976 -1.84933424 0.9519665837 
7.338808537 -9.749997139 -1.854914665 0.9518252015 
9.247289658 -9.37155056 -2.001211882 0.9481257796 
9.65484333 -8.950744629 -2.001178265 0.9481267333 
10.04329586 -8.51229763 -2.00114584 0.9481274486 
11.08641052 -7.099472523 -2.001057863 0.9481297731 
11.67324638 -6.085817814 -2.001008034 0.9481310844 
12.72782421 -3.359889984 -2.000913858 0.9481333494 
13.12134266 -1.053212881 -2.000871658 0.9481344223 
13.15516281 -0.4684790075 -2.000865936 0.9481346011 
13.1004467 1.286611319 -2.000861406 0.9481347203 
12.93430424 2.445891142 -2.000868082 0.9481344819 
12.81273556 3.018842697 -2.000874519 0.9481343627 
12.66580296 3.58581543 -2.000882864 0.9481341839 
12.49382305 4.145564079 -2.000893593 0.9481340647 
11.83111095 5.771845341 -2.00093174 0.9481329322 
11.56273937 6.292475224 -2.000948668 0.948132515 
10.41339207 6.282931805 -1.848635793 0.9519842863 
10.12371159 6.740012169 -1.848655701 0.9519837499 
9.813961029 7.183821678 -1.848677039 0.9519831538 
9.484802246 7.61335659 -1.848700166 0.9519826174 
3.351035118 3.219450712 -0.7063441277 0.9813742638 
3.217830658 3.379328489 -0.7092809677 0.9812975526 
7.422520638 8.524175644 -1.718051434 0.9552990198 
7.589252949 9.541495323 -1.853146672 0.9518699646 
3.782708645 11.57179928 -1.85051918 0.9519366026 
3.263705969 11.7267952 -1.850232244 0.9519438744 
2.738436222 11.85867882 -1.849966884 0.9519505501 
1.13533318 12.11430359 -1.849457026 0.9519634843 
0.05413329974 12.16902065 -1.849721909 0.951956749 
-0.4872900248 12.16049767 -1.849891305 0.9519524574 
-1.566494107 12.07153034 -1.850269556 0.9519428611 
-2.10217762 11.99132824 -1.850489736 0.9519372582 
-2.633859873 11.88751221 -1.850733161 0.951931119 
-1.160275817 3.659406662 -0.5835233927 0.9845878482 
-1.517797828 3.219545841 -0.5410289168 0.985702157 
-1.656044841 3.142251015 -0.539896965 0.9857318401 
-1.970549226 3.047209501 -0.5515881181 0.9854251146 
-2.430305004 3.111904144 -0.6001687646 0.9841516614 
-7.928957462 9.271030426 -1.854289532 0.9518409967 
-8.335458755 8.911237717 -1.854723573 0.9518300295 
-8.725729942 8.533693314 -1.855173349 0.9518185854 
-10.36605453 6.380912781 -1.850239992 0.9519435763 
-11.06370354 6.149169922 -1.923985958 0.9500768185 
-12.26639175 4.811218262 -2.002795458 0.9480859041 
-12.79796314 3.1358006 -2.002845764 0.9480845928 
-12.92486763 2.563417912 -2.002858639 0.9480842948 
-13.02616882 1.985944748 -2.002869606 0.9480839968 
-13.15123749 0.8203417659 -2.00288558 0.9480835795 
-13.14347172 -0.9373779297 -2.002894878 0.9480834007 
-13.08875656 -1.521115661 -2.002893686 0.9480834007 
-13.00811768 -2.101843119 -2.002890825 0.9480834603 
-12.9017086 -2.678398371 -2.00288558 0.9480836391 
-12.43026066 -4.371704102 -2.002858639 0.9480842948 
-11.99236298 -5.45912075 -2.002830744 0.9480849504 
-11.7375145 -5.987172604 -2.002814054 0.9480854273 
-11.45945263 -6.503315449 -2.002795458 0.9480859041 
-10.8358593 -7.495927334 -2.002752542 0.948086977 
-10.49156952 -7.970431805 -2.002728701 0.9480875731 
-10.12650108 -8.429140091 -2.002702951 0.9480881691 
-9.336843491 -9.295546532 -2.002646923 0.9480900168 
-8.914118767 -9.701542854 -2.002616405 0.9480903745 
-6.969326019 -9.979448318 -1.850176096 0.9519452453 
-4.094360352 -11.47825432 -1.852379203 0.9518893957 
-2.530927658 -11.92455006 -1.852919698 0.9518757463 
-1.99798584 -12.0253973 -1.852928996 0.9518754482 
-1.461052179 -12.10217953 -1.852898836 0.9518762231 
-0.921223104 -12.15473843 -1.852829218 0.9518779516 
0.7045971751 -12.16657162 -1.852430105 0.951888144 
1.245051265 -12.12256813 -1.852333903 0.9518905282 
2.316940784 -11.96069336 -1.851831675 0.951903224 
2.846184015 -11.8436451 -1.851498961 0.9519117475 
3.369558096 -11.7030344 -1.851137757 0.951920867 
3.885996103 -11.53914261 -1.850749373 0.9519307017 
4.39492178 -11.35348892 -1.850525737 0.9519363046 
5.38525629 -10.9150753 -1.850046158 0.9519485235 
6.786811352 -10.09625435 -1.84913969 0.9519714713 
7.228532791 -9.783452034 -1.848970175 0.9519758224 
9.16353035 -9.453503609 -2.001218796 0.9481256604 
9.574824333 -9.03635025 -2.001184702 0.9481265545 
10.33974361 -8.149357796 -2.001120806 0.9481281042 
11.02280998 -7.197900295 -2.001063347 0.9481295943 
11.61864471 -6.189479828 -2.001012564 0.9481309652 
11.88233852 -5.666523457 -2.000989914 0.9481314421 
12.12253666 -5.132126331 -2.00096941 0.9481321573 
12.33871841 -4.58786869 -2.000950098 0.9481324553 
12.83927917 -2.90471673 -2.000902891 0.9481336474 
12.95570278 -2.330688477 -2.00089097 0.9481339455 
13.04648399 -1.752058029 -2.000880957 0.9481341839 
13.1114521 -1.169970632 -2.000873089 0.9481344223 
13.15047932 -0.5855639577 -2.00086689 0.9481346011 
13.11137867 1.169948697 -2.000860929 0.9481347203 
13.04636669 1.752038479 -2.000863075 0.9481346607 
12.95553684 2.330656767 -2.000867128 0.9481346011 
12.69721127 3.472934484 -2.000881195 0.9481341839 
12.53020954 4.034384727 -2.000891209 0.9481339455 
12.33840275 4.587941647 -2.000901937 0.9481334686 
11.88197041 5.666345119 -2.00092864 0.9481329918 
10.18324661 6.649655819 -1.848651528 0.9519839287 
7.553836346 8.520628929 -1.730820179 0.9549743533 
7.67331028 9.472857475 -1.85300827 0.9518734813 
6.341917515 10.40610409 -1.852336049 0.9518905282 
5.389667988 10.9241209 -1.851575732 0.9519097805 
4.897454739 11.15093708 -1.851223707 0.9519187212 
4.39578867 11.35571766 -1.850891232 0.9519271255 
3.885643244 11.53807735 -1.850579143 0.9519349933 
2.314361572 11.94736767 -1.849770308 0.9519554973 
0.8935595751 8.700182915 -1.329390407 0.9652331471 
0.7035034299 12.14767075 -1.849551082 0.9519610405 
0.162448734 12.16786098 -1.849690914 0.9519575238 
-1.995307565 12.00926495 -1.850443959 0.9519384503 
-2.527873516 11.91015816 -1.850682616 0.9519323707 
-1.134414077 3.691520929 -0.5870116949 0.9844964147 
-1.259978056 3.532221556 -0.5700364709 0.9849413633 
-1.381303668 3.387927055 -0.5561239719 0.9853061438 
-1.495786071 3.247451067 -0.5434606671 0.9856383801 
-1.624882817 3.150783539 -0.5388569236 0.9857591391 
-1.938896418 3.057612181 -0.5503246784 0.9854582548 
-2.117377996 3.031892061 -0.5621082783 0.9851492047 
-8.255422592 8.984658241 -1.854635477 0.9518322349 
-8.649001122 8.610602379 -1.855082154 0.95182091 
-9.023605347 8.217468262 -1.855110884 0.9518201947 
-9.355158806 7.787070274 -1.850154281 0.9519457817 
-9.692445755 7.363325119 -1.850182652 0.9519450068 
-11.73716068 5.986923695 -2.002748013 0.9480870366 
-12.22308064 4.920153618 -2.002791643 0.9480859637 
-12.42997265 4.371599197 -2.002810478 0.9480854869 
-12.90152836 2.678361654 -2.002856255 0.9480842948 
-13.00797367 2.1018188 -2.002867699 0.9480840564 
-13.14340305 0.9373632669 -2.002884388 0.9480836391 
-13.17475796 -0.2345165908 -2.002893209 0.9480834007 
-13.10178471 -1.404545903 -2.002894163 0.9480834007 
-13.02631569 -1.985978961 -2.002891541 0.9480834603 
-12.92503834 -2.563513041 -2.002887011 0.9480835795 
-12.2667284 -4.811349869 -2.002848387 0.9480845332 
-11.79036617 -5.882472992 -2.002817392 0.9480853081 
-11.51691341 -6.401076317 -2.002799273 0.9480857849 
-11.22065163 -6.906972408 -2.002779245 0.9480863214 
-10.90218925 -7.399203777 -2.002757311 0.9480867982 
-9.819997787 -8.784106255 -2.002681494 0.9480887055 
-8.329040527 -9.738857269 -1.94785583 0.9494733214 
-6.611005783 -10.22320271 -1.850541472 0.9519360065 
-6.151120663 -10.50958252 -1.850968242 0.9519251585 
-5.194792271 -11.01917171 -1.851718664 0.9519061446 
-4.700295448 -11.24130344 -1.852040768 0.9518979788 
-4.196242809 -11.44102287 -1.852326512 0.9518907666 
-3.163559437 -11.77162838 -1.852786541 0.9518790841 
-2.636962891 -11.90151119 -1.852913022 0.9518758655 
-1.56872797 -12.08875942 -1.852908134 0.9518759251 
-1.029384732 -12.14616203 -1.852846384 0.9518775344 
0.05421875045 -12.18800068 -1.852604747 0.9518836737 
2.74080801 -11.86895275 -1.851567745 0.9519098997 
3.265427113 -11.73301697 -1.851212263 0.9519190192 
3.783342123 -11.57376194 -1.850829124 0.9519286752 
4.293840408 -11.39241409 -1.850569367 0.9519352317 
5.288034439 -10.96289062 -1.850097656 0.9519472122 
5.769645691 -10.71526623 -1.849833012 0.9519539475 
6.696847916 -10.15652275 -1.849189162 0.9519702792 
7.74773407 -9.740749359 -1.891846776 0.9508900046 
8.483073235 -9.742121696 -1.963530421 0.9490773082 
9.079050064 -9.53473568 -2.001225948 0.9481254816 
9.494030952 -9.121267319 -2.001191616 0.9481263757 
9.890263557 -8.689772606 -2.001158476 0.9481270909 
10.26687241 -8.241064072 -2.001127005 0.9481278658 
10.95836639 -7.295710087 -2.00106883 0.9481294155 
11.56313229 -6.292709827 -2.001016855 0.9481307268 
11.83148193 -5.772036076 -2.000994444 0.9481313229 
12.29742146 -4.697526932 -2.000953913 0.9481323361 
12.49407959 -4.145810604 -2.000936031 0.9481328726 
12.6660347 -3.585898399 -2.000919819 0.9481332302 
12.81293201 -3.018901348 -2.000905514 0.9481335282 
13.10053158 -1.286625981 -2.000874519 0.9481343627 
13.14475822 -0.7025976181 -2.000868082 0.9481345415 
13.16296196 -0.1171728522 -2.000863552 0.9481346607 
13.15513134 0.4685302675 -2.000861168 0.9481347203 
12.97576141 2.21530509 -2.000866175 0.9481346011 
12.16737175 5.024147987 -2.000911713 0.9481332302 
11.9319191 5.560327053 -2.000925779 0.948133111 
9.940243721 7.007926941 -1.848668337 0.9519834518 
9.285478592 7.869981289 -1.850150704 0.9519459009 
8.928668976 8.277519226 -1.850660682 0.9519329667 
3.284369946 3.328522921 -0.7107762098 0.9812585115 
7.756691933 9.403495789 -1.852868199 0.9518770576 
6.431204796 8.54418087 -1.625511169 0.9576550126 
6.890078068 10.05546474 -1.852826238 0.9518780708 
6.434520245 10.34971523 -1.852416039 0.9518885016 
4.342148304 8.606987953 -1.465328217 0.9617469311 
3.883989096 8.633820534 -1.43902719 0.9624204636 
4.496846676 11.31653023 -1.850956082 0.9519255161 
3.472105742 11.66755867 -1.850344539 0.9519410133 
1.759793639 8.670418739 -1.344782948 0.9648377895 
0.1938647479 8.712738991 -1.324672461 0.965354383 
-0.811809063 12.14387226 -1.850000858 0.9519497156 
-1.351347685 12.09697247 -1.850188136 0.9519448876 
-1.374714375 8.755131721 -1.347096205 0.9647784233 
-1.008720636 4.038935661 -0.6327792406 0.9832978249 
-1.108146906 3.723786592 -0.5905503631 0.9844037294 
-1.235605478 3.563820839 -0.5733394027 0.9848548174 
-1.357368112 3.415866613 -0.5587063432 0.9852384329 
-1.473478913 3.275439262 -0.5459272861 0.9855736494 
-1.593747497 3.159121037 -0.5378356576 0.9857859015 
-1.907285094 3.067800283 -0.549081862 0.9854908586 
-2.327560902 3.092285156 -0.5882995725 0.9844626784 
-8.174775124 9.057313919 -1.854547977 0.9518344402 
-9.285478592 7.869967937 -1.850148439 0.9519459009 
-9.948505402 7.013759613 -1.850204229 0.9519444704 
-10.63762951 6.162687778 -1.868673921 0.9514766932 
-12.17877197 5.028747559 -2.002787352 0.9480860829 
-12.39054203 4.482062817 -2.002806902 0.9480856061 
-12.74007988 3.36312747 -2.002839804 0.948084712 
-12.87714767 2.793088198 -2.002853632 0.948084414 
-13.13453102 1.054262638 -2.002883196 0.9480836987 
-13.16847897 0.4689501822 -2.002889156 0.9480834603 
-13.17632771 -0.1172924787 -2.002892971 0.9480834007 
-13.15807343 -0.7033081055 -2.00289464 0.9480834007 
-13.11376476 -1.287929654 -2.002894402 0.9480833411 
-13.0434742 -1.869997501 -2.002892256 0.9480834603 
-12.94734383 -2.448359251 -2.002887964 0.9480835795 
-12.50612068 -4.149795055 -2.002863169 0.9480841756 
-11.573452 -6.29831028 -2.002803087 0.9480857253 
-10.63182068 -7.78248024 -2.002738476 0.948087275 
-10.27496529 -8.247614861 -2.00271368 0.9480879307 
-9.89777565 -8.696403503 -2.002686977 0.9480886459 
-7.750813007 -9.744626045 -1.892597198 0.9508709311 
-7.145451546 -9.853320122 -1.850080729 0.9519476891 
-6.701430321 -10.16346169 -1.850452065 0.9519382119 
-6.244143009 -10.45395947 -1.85088563 0.9519272447 
-5.774179459 -10.72369099 -1.851285219 0.9519171119 
-5.2924757 -10.9720993 -1.85165 0.9519078135 
-4.800021648 -11.19864464 -1.851979136 0.9518995285 
-3.268146992 -11.74274635 -1.852747321 0.9518800974 
-0.5963842869 -12.17459202 -1.85276854 0.9518795609 
-0.05422363058 -12.18819332 -1.852636099 0.9518828988 
0.4879614115 -12.17741394 -1.852464557 0.9518872499 
2.103842735 -12.00083733 -1.851956725 0.9519000649 
2.635143995 -11.89330769 -1.851635575 0.9519082308 
5.190385818 -11.00981903 -1.85014832 0.9519459605 
5.674208641 -10.76651573 -1.84988749 0.9519525766 
6.14642334 -10.50145721 -1.849542499 0.9519613385 
6.60639143 -10.21597385 -1.849237919 0.9519690275 
7.607741356 -9.741406441 -1.878751516 0.9512214661 
9.812548637 -8.777487755 -2.001165152 0.9481269121 
10.89301777 -7.393044472 -2.001074314 0.9481291771 
11.50668907 -6.395378113 -2.0010221 0.9481306672 
11.7796526 -5.877128601 -2.000998974 0.9481312633 
12.02930641 -5.347175121 -2.000977278 0.9481318593 
12.63365173 -3.698447227 -2.000922918 0.9481331706 
12.78557301 -3.13278079 -2.000908136 0.9481335282 
13.0132513 -1.983981848 -2.000884771 0.9481341243 
13.13798332 -0.8195239305 -2.000869036 0.9481345415 
13.16139603 -0.2342797816 -2.000864267 0.9481346607 
13.15878105 0.3514160216 -2.000861645 0.9481347203 
12.60000229 3.810676098 -2.000886917 0.9481340647 
12.21159363 4.915490627 -2.000909328 0.9481335282 
11.98091793 5.453918457 -2.00092268 0.9481331706 
11.72651863 5.981589317 -2.000938177 0.9481327534 
10.29994106 6.46735096 -1.848643422 0.9519840479 
10.00217056 6.919187069 -1.848664045 0.9519835711 
9.354614258 7.786615849 -1.850048423 0.9519484639 
9.001464844 8.197302818 -1.85055995 0.9519355297 
3.311437845 3.296740532 -0.7102543712 0.9812721014 
7.839494228 9.333369255 -1.85272634 0.9518806338 
6.561986923 8.558306694 -1.639247417 0.9573049545 
6.061072826 10.57035732 -1.852100372 0.9518964887 
4.09064579 11.46784496 -1.850701571 0.9519319534 
3.054256439 11.78234863 -1.850123405 0.9519466162 
2.526761532 11.90490532 -1.849866748 0.9519530535 
1.049841285 8.695961952 -1.331391573 0.9651817679 
0.3789672852 12.1626482 -1.849632025 0.9519590139 
-0.1624584943 12.16848373 -1.849786758 0.95195508 
-0.7036645412 12.15039253 -1.849965811 0.9519505501 
-1.781171799 12.04228973 -1.85035491 0.9519407153 
-2.315380812 11.95261955 -1.850584388 0.9519348741 
-1.000405192 4.162912369 -0.6507809162 0.9828267097 
-1.210864186 3.595561504 -0.5766877532 0.9847670197 
-1.566701651 3.175451517 -0.5382218957 0.9857758284 
-1.718554616 3.124697208 -0.5420527458 0.9856752753 
-1.875732422 3.077783108 -0.5478597879 0.9855229259 
-2.277482748 3.082453489 -0.5825511217 0.9846132994 
-2.5878613 3.194767952 -0.624935925 0.9835031033 
-8.877104759 8.377882957 -1.855357528 0.9518139362 
-9.885651588 7.102016449 -1.850198984 0.9519445896 
-10.19192123 6.655324459 -1.850224972 0.9519439936 
-10.47802448 6.195444107 -1.850249767 0.9519433975 
-12.54231167 4.038227558 -2.002820969 0.9480851889 
-12.70962334 3.476335287 -2.002836943 0.9480848312 
-12.96845913 2.332988262 -2.002863169 0.9480842352 
-13.12462616 1.171135187 -2.002881765 0.9480836987 
-13.17683792 -2.441406195e-06 -2.002892256 0.9480834603 
-13.12471199 -1.171147466 -2.00289464 0.9480833411 
-13.05961418 -1.753828049 -2.002892971 0.9480834007 
-12.96863747 -2.333017588 -2.002889156 0.9480835199 
-12.85198975 -2.907597542 -2.002883196 0.9480836391 
-12.35043144 -4.592282772 -2.002853632 0.948084414 
-12.1338625 -5.137089729 -2.002839804 0.948084712 
-11.62905979 -6.195099831 -2.002806902 0.9480856061 
-11.34184742 -6.706215858 -2.002787352 0.9480860829 
-11.032197 -7.204025745 -2.002766132 0.9480866194 
-9.974819183 -8.607988358 -2.002692461 0.9480884671 
-9.170023918 -9.460189819 -2.002634764 0.9480898976 
-6.791298866 -10.10291767 -1.850361466 0.9519404769 
-6.336662292 -10.39748955 -1.850801468 0.9519293904 
-5.869121075 -10.67144489 -1.851207972 0.9519190788 
-3.889631271 -11.54993153 -1.852480292 0.9518868327 
-1.783645034 -12.05901051 -1.852921724 0.951875627 
3.056335449 -11.79020214 -1.851357818 0.9519153237 
4.090595722 -11.46755791 -1.850654364 0.9519330263 
4.596115589 -11.27290535 -1.850436091 0.9519386292 
5.57834959 -10.81689167 -1.849941015 0.9519512057 
6.052970886 -10.55622768 -1.849625349 0.9519591928 
6.515370846 -10.27464104 -1.849286318 0.9519677758 
6.965036392 -9.9733181 -1.849039316 0.9519740343 
7.469579697 -9.742038727 -1.865974069 0.9515450001 
8.179823875 -9.738556862 -1.933156729 0.9498448968 
8.907982826 -9.694869995 -2.001239777 0.948125124 
9.734060287 -8.86447525 -2.001171589 0.9481268525 
10.11859798 -8.422504425 -2.001139402 0.9481277466 
10.48308086 -7.963962078 -2.001108885 0.9481285214 
10.82684326 -7.489626408 -2.001079798 0.9481291771 
11.1491375 -7.000497818 -2.001052618 0.9481298923 
11.44937229 -6.497517109 -2.001026869 0.9481304884 
13.07557869 -1.519587398 -2.00087738 0.9481343031 
13.1613884 0.234274894 -2.000861883 0.9481347203 
12.91201878 2.560925245 -2.000869274 0.9481344819 
12.63339233 3.698417902 -2.00088501 0.9481341243 
12.25482655 4.806638241 -2.000906944 0.9481335878 
12.02895355 5.347170353 -2.000919819 0.948133111 
11.77927017 5.87693119 -2.000935078 0.9481328726 
10.35708141 6.37539053 -1.848639607 0.9519841671 
9.749673843 7.270850658 -1.848681569 0.9519831538 
3.321065664 3.247980833 -0.7060906887 0.9813808799 
7.068590164 9.932149887 -1.852995157 0.9518738389 
5.680062294 10.77761936 -1.851796031 0.9519042373 
4.192699909 11.43135929 -1.850763917 0.9519303441 
2.101252317 11.98606205 -1.849677444 0.9519578815 
1.027519464 12.12408447 -1.849479079 0.9519628882 
0.4872094691 12.15860558 -1.84960413 0.9519597292 
-0.5954712033 12.15592289 -1.849927902 0.9519515038 
-2.208889008 11.97243595 -1.850536585 0.9519361258 
-1.054445744 3.788706064 -0.5977742076 0.9842144251 
-1.308588862 3.471938372 -0.5639776587 0.9851002097 
-1.428005338 3.331598997 -0.5509638786 0.9854415059 
-1.541264653 3.195271015 -0.5392329097 0.9857492447 
-2.002231359 3.036606312 -0.5528721213 0.985391438 
-2.22819829 3.072600126 -0.5769181848 0.9847609401 
-8.011487007 9.200536728 -1.854375005 0.9518389106 
-8.414816856 8.837150574 -1.854812264 0.9518277645 
-10.42247581 6.288405418 -1.85024488 0.9519434571 
-11.28635693 6.142065525 -1.953119874 0.9493403435 
-11.84191132 5.777106762 -2.002757311 0.9480867982 
-12.30875492 4.701852798 -2.002799273 0.9480857849 
-12.67817116 3.589316368 -2.002834082 0.9480848908 
-13.13460922 -1.054331064 -2.002894878 0.9480833411 
-12.87734318 -2.793139696 -2.002884388 0.9480836391 
-12.74030781 -3.363190889 -2.002876997 0.948083818 
-12.57803726 -3.926567316 -2.00286746 0.9480840564 
-11.68377209 -6.091367245 -2.002810478 0.9480854273 
-11.40112972 -6.605014324 -2.002791405 0.9480859041 
-11.09590816 -7.105558872 -2.002770662 0.9480865002 
-10.76872826 -7.592023849 -2.002748013 0.9480870366 
-10.05108356 -8.518878937 -2.002697706 0.9480882883 
-9.253857613 -9.378269196 -2.002640963 0.9480897188 
-8.785431862 -9.73400116 -1.993094325 0.9483307004 
-6.428632736 -10.34024429 -1.850716233 0.951931417 
-5.963620663 -10.61833 -1.851129413 0.9519210458 
-5.48649168 -10.87532711 -1.85150826 0.9519114494 
-4.998222351 -11.11068821 -1.851851821 0.9519027472 
-4.499777794 -11.32391071 -1.8521595 0.9518949389 
-3.9921875 -11.51453876 -1.852430582 0.9518880844 
-2.424741268 -11.94662285 -1.852924705 0.951875627 
-1.890910625 -12.04267788 -1.852926135 0.9518755674 
0.2711694241 -12.18465996 -1.852537751 0.9518853426 
1.352888107 -12.11085224 -1.852311015 0.9518911242 
