# .PCD v0.7 - Point Cloud Data file format
VERSION 0.7
FIELDS x y z intensities
SIZE 4 4 4 4
TYPE F F F F
COUNT 1 1 1 1
WIDTH 924
HEIGHT 1
VIEWPOINT 0 0 0 1 0 0 0
POINTS 924
DATA ascii
-0.05421386659 -12.18688965 -1.852436423 0.9518879056 
1.029030681 -12.1419239 -1.852202415 0.9518939257 
2.103539944 -11.99911594 -1.85169065 0.9519068003 
3.680268526 -11.60727024 -1.850875854 0.9519274831 
4.192541599 -11.43093967 -1.850693583 0.9519321322 
4.696362019 -11.23189926 -1.850491285 0.9519371986 
5.190497875 -11.0100584 -1.850188136 0.9519449472 
5.674045086 -10.76620102 -1.849833608 0.9519539475 
6.146716118 -10.50196552 -1.849629164 0.9519590735 
7.054074764 -9.9116745 -1.849179029 0.951970458 
8.457341194 -9.888861656 -1.977860332 0.9487153292 
8.995114326 -9.616477013 -2.001504421 0.9481184483 
9.413901329 -9.20682621 -2.00148654 0.9481186867 
10.19476795 -8.333552361 -2.0014534 0.9481195211 
10.55529308 -7.871747971 -2.001438141 0.9481199384 
10.89494133 -7.393818378 -2.001423836 0.9481213689 
11.78192806 -5.878259182 -2.001384974 0.9481214881 
12.2576313 -4.807787895 -2.001362801 0.9481219649 
12.45928478 -4.257743835 -2.001353264 0.9481223226 
12.78831291 -3.13344717 -2.001336575 0.9481226802 
12.91499233 -2.561464787 -2.00132966 0.9481229186 
13.01612282 -1.984418869 -2.001323938 0.9481229782 
13.09147167 -1.40344727 -2.00131917 0.948123157 
13.14093494 -0.8197045922 -2.001315355 0.9481232166 
13.16435051 -0.2343359292 -2.001312256 0.9481233358 
13.07840919 1.519912124 -2.001309872 0.9481233358 
12.99786377 2.100178242 -2.001311064 0.9481233358 
12.42075634 4.368354321 -2.001325846 0.9481229782 
11.9834137 5.455046177 -2.001339197 0.9481226802 
9.68632412 7.358677864 -1.849014878 0.9519746304 
8.631471634 8.593158722 -1.851323485 0.9519161582 
8.243865967 8.972081184 -1.852039576 0.9518979788 
7.839549541 9.333436966 -1.852738619 0.9518802762 
2.272001982 3.253300667 -0.6031568646 0.9840734005 
2.179307699 3.436738253 -0.6185624599 0.9836699963 
6.062808514 10.57339001 -1.852631211 0.951883018 
5.585267067 10.83030224 -1.852234721 0.9518930912 
4.598748684 11.27936172 -1.851497412 0.9519117475 
4.091655254 11.47067261 -1.851157784 0.9519203901 
3.576736927 11.63932991 -1.850838542 0.9519284368 
3.054944992 11.7850132 -1.8505404 0.9519360065 
2.527301073 11.90746021 -1.850263596 0.9519429803 
0.3789208829 12.16106987 -1.849391699 0.9519650936 
-0.7035546899 12.14853954 -1.849683642 0.9519577026 
-1.243391037 12.10641289 -1.849865794 0.9519530535 
-2.31499505 11.95065403 -1.850278616 0.9519426227 
-3.368886709 11.70067883 -1.850764751 0.9519302845 
-4.898398399 11.15296078 -1.851561904 0.9519101381 
-1.961914062 3.567187309 -0.6188123822 0.9836634398 
-2.047538996 3.359699726 -0.5980410576 0.9842073917 
-2.273554564 3.077133656 -0.5815464854 0.9846396446 
-2.396259785 2.958227396 -0.578666091 0.9847151637 
-2.745822668 2.832712412 -0.5996578932 0.9841650724 
-2.99838376 2.829765558 -0.6266767979 0.9834575653 
-3.286132812 2.835827589 -0.6597706676 0.9825915694 
-3.630947113 2.861752748 -0.7027212381 0.9814689159 
-9.894171715 7.108137131 -1.851795316 0.9519041777 
-11.88991642 5.67006588 -2.002259493 0.9480993748 
-12.13039303 5.135573387 -2.002270699 0.9480992556 
-12.3469162 4.590912819 -2.002281189 0.9480988979 
-12.84827614 2.906750441 -2.002307177 0.9480982423 
-12.96490192 2.332343817 -2.002313852 0.9480980635 
-13.16008282 0.5859912038 -2.002327919 0.9480977058 
-13.16010952 -0.5859863162 -2.002332211 0.9480975866 
-13.05593681 -1.753332496 -2.002332449 0.9480976462 
-12.9650116 -2.332368135 -2.002331257 0.9480976462 
-12.84842014 -2.906784534 -2.002328634 0.9480976462 
-12.53915501 -4.03727293 -2.002321005 0.9480978847 
-12.3471241 -4.591047287 -2.002315521 0.9480980039 
-11.89012623 -5.670238972 -2.002301693 0.9480983615 
-11.33901596 -6.704533577 -2.002284288 0.9480987191 
-11.02947235 -7.202255726 -2.002274036 0.9480990767 
-10.69811535 -7.685708046 -2.002263069 0.9480993748 
-10.34558582 -8.153944969 -2.00225091 0.9480996132 
-9.972565651 -8.606032372 -2.002238035 0.9480999112 
-7.887905121 -9.737790108 -1.904833078 0.9505613446 
-6.790092468 -10.10111809 -1.850033402 0.9519488215 
-4.898615837 -11.15357399 -1.851660371 0.9519076347 
-4.398381233 -11.36239433 -1.851979971 0.9518995285 
-3.889184475 -11.54857349 -1.852263093 0.9518923163 
0.3795410097 -12.18095207 -1.852414012 0.9518885016 
0.9209301472 -12.15091324 -1.852247 0.9518927336 
2.528925657 -11.91512203 -1.851452708 0.9519128203 
5.092534065 -11.05624485 -1.850260854 0.9519430995 
6.053127289 -10.55649376 -1.849671125 0.9519580603 
7.480935097 -9.756835938 -1.868809462 0.9514731765 
9.7355299 -8.865805626 -2.00147295 0.9481192827 
10.12020016 -8.423886299 -2.001456499 0.9481196404 
10.48481941 -7.965322018 -2.001440763 0.9481200576 
11.15114975 -7.001757622 -2.001413107 0.9481207728 
11.72917938 -5.982856274 -2.001387358 0.9481214285 
11.98363495 -5.455146313 -2.001375675 0.9481217265 
12.21436787 -4.916652679 -2.001364946 0.9481220245 
12.42093754 -4.368434906 -2.001355171 0.9481222034 
12.7599268 -3.247158051 -2.001338243 0.9481226802 
12.8916893 -2.676328182 -2.001331091 0.948122859 
13.13311958 -0.9366381764 -2.001315832 0.948123157 
13.14088821 0.8196899295 -2.001309872 0.9481233954 
13.09141827 1.403434992 -2.001309633 0.9481233954 
13.01603508 1.984455466 -2.001310587 0.9481233358 
12.78815651 3.133461952 -2.001315832 0.9481232762 
12.03147697 5.348212719 -2.001337767 0.9481226206 
11.78170586 5.878146648 -2.001345634 0.9481224418 
11.50859737 6.396437645 -2.001353979 0.9481223226 
10.06521225 6.831147194 -1.8490026 0.9519749284 
9.751432419 7.272143364 -1.849012733 0.95197469 
8.706766129 8.5151577 -1.851143122 0.9519207478 
7.921723366 9.262588501 -1.852600694 0.9518837929 
7.504583359 9.609394073 -1.853285313 0.9518664479 
2.305767775 3.239855766 -0.6044453382 0.9840396643 
6.156911373 10.51948929 -1.852712631 0.9518809915 
5.681650162 10.78063679 -1.852312565 0.9518910646 
3.159099102 8.613242149 -1.39450407 0.9635617137 
2.633266449 11.88483334 -1.85031724 0.951941669 
1.566107154 12.06860161 -1.849821329 0.9519542456 
0.4871642888 12.15738106 -1.849416733 0.951964438 
-0.05413329974 12.16753864 -1.849496841 0.951962471 
-0.816594243 8.712939262 -1.330178857 0.9652129412 
-3.783662081 11.57471943 -1.850984097 0.9519247413 
-3.311415911 8.78584671 -1.427162766 0.9627244473 
-1.949743629 3.621017933 -0.6251145601 0.9834983945 
-2.371081591 2.98101306 -0.5789715648 0.9847071171 
-2.697793007 2.833193302 -0.5946530104 0.9842962027 
-2.946127892 2.830424786 -0.620993197 0.9836063385 
-9.831740379 7.19676733 -1.852021694 0.9518984556 
-10.13586426 6.748110294 -1.85087347 0.9519275427 
-10.41996765 6.286896706 -1.84980011 0.9519547224 
-11.29375935 6.1460886 -1.954401016 0.9493079782 
-12.08421612 5.243344784 -2.002268553 0.948099196 
-12.50254631 4.148603439 -2.002288818 0.9480986595 
-12.67476749 3.588354349 -2.002297878 0.9480984211 
-13.03974533 1.86945796 -2.002318382 0.9480978847 
-13.11000919 1.287563443 -2.002323151 0.9480978251 
-13.13092232 -1.05403316 -2.002332926 0.948097527 
-12.98526573 -2.216926336 -2.002331495 0.9480975866 
-12.87377167 -2.792368174 -2.00232935 0.9480976462 
-12.57460403 -3.925502777 -2.002321959 0.9480978251 
-11.94014835 -5.564189434 -2.002303362 0.9480982423 
-11.6807518 -6.089789867 -2.002295256 0.9480985403 
-11.09316635 -7.103798866 -2.002276182 0.9480989575 
-10.04878139 -8.516928673 -2.002240896 0.9480999112 
-9.65986824 -8.955475807 -2.002227306 0.9481002688 
-6.427534103 -10.33845901 -1.850401878 0.9519395232 
-5.962663651 -10.61662102 -1.85083282 0.9519286156 
-5.485663891 -10.8736887 -1.851229787 0.9519185424 
-4.99750948 -11.10910892 -1.851592183 0.9519094229 
-3.991711378 -11.51316357 -1.852209449 0.9518936872 
-2.424243212 -11.94415951 -1.852541327 0.951885283 
-1.890544415 -12.04030991 -1.85256362 0.9518847466 
-1.353066325 -12.11238289 -1.852546453 0.9518851638 
-0.8128466606 -12.16022396 -1.852490187 0.9518865943 
0.2711523473 -12.1838913 -1.852421522 0.9518883228 
1.889770508 -12.0353756 -1.851802468 0.9519039989 
2.422895432 -11.93754101 -1.851513982 0.9519113302 
3.988596201 -11.50421333 -1.850769043 0.9519302249 
4.99411869 -11.10157204 -1.850332856 0.9519412518 
5.959062576 -10.6102047 -1.84971261 0.9519569278 
6.424391747 -10.3334198 -1.849499822 0.9519624114 
6.876862526 -10.03618908 -1.849273324 0.9519680738 
7.345060825 -9.758300781 -1.856494427 0.9517851472 
8.094055176 -9.812392235 -1.933442831 0.9498376846 
8.822575569 -9.775068283 -2.001511812 0.9481182694 
9.248591423 -9.372797966 -2.001493692 0.9481188655 
10.41352749 -8.058340073 -2.001443863 0.9481199384 
11.08837414 -7.10079813 -2.001415968 0.9481206536 
11.39321995 -6.600419998 -2.001402378 0.9481210113 
11.67550278 -6.086992264 -2.001389742 0.9481213093 
11.93460941 -5.561601639 -2.001378059 0.9481217265 
12.38157177 -4.478827953 -2.00135684 0.9481221437 
12.86737537 -2.790920258 -2.001332521 0.9481227994 
12.9787426 -2.215815306 -2.001326323 0.9481229782 
13.06444073 -1.636220694 -2.001320839 0.9481230974 
13.12425995 -1.053503394 -2.001316547 0.9481232166 
13.15810299 -0.4685888588 -2.001313448 0.9481233358 
13.1659174 0.1171411127 -2.001311064 0.9481233358 
13.14766121 0.7027490139 -2.001309872 0.9481233954 
13.10339355 1.286850572 -2.001309633 0.9481233358 
13.0331707 1.868515611 -2.001310349 0.9481233358 
12.49651432 4.146601677 -2.0013237 0.9481230378 
11.83352757 5.773090839 -2.001343966 0.9481225014 
11.56507587 6.293745041 -2.001352549 0.9481223226 
9.48649025 7.614624023 -1.849021435 0.9519744515 
9.138380051 8.029176712 -1.849033117 0.9519742131 
8.400949478 8.822572708 -1.851753592 0.9519052505 
2.222895384 3.371269464 -0.6138033867 0.98379457 
6.250543118 10.46476078 -1.852794766 0.9518789053 
5.293447018 10.97422123 -1.852005601 0.9518988729 
4.295466423 11.39686108 -1.851291299 0.9519169927 
3.264405489 11.72950935 -1.850657105 0.9519330859 
2.20832634 11.96968365 -1.850108027 0.9519469142 
1.673511982 12.05448246 -1.849866748 0.9519530535 
0.5953686237 12.15281105 -1.849452972 0.9519634843 
-0.4871606231 12.1587038 -1.8496176 0.9519593716 
-1.027690411 12.12611771 -1.849790096 0.9519550204 
-1.566308618 12.06968021 -1.849986553 0.9519500136 
-2.63345933 11.88544655 -1.850414991 0.9519391656 
-3.221518517 8.783444405 -1.422059774 0.9628552198 
-4.698847771 11.23769283 -1.851450801 0.9519129395 
-1.890307546 4.00970459 -0.6738123894 0.9822244048 
-1.937243581 3.67578125 -0.6315683126 0.9833294749 
-2.004186869 3.424282074 -0.603090167 0.984075129 
-2.112246037 3.266318321 -0.5912508965 0.9843853116 
-2.471030235 2.889308929 -0.5778855681 0.9847356081 
-3.161848068 2.828305483 -0.6448243856 0.9829825759 
-9.768473625 7.284870625 -1.852246642 0.9518927932 
-10.07668686 6.838871956 -1.851106048 0.9519216418 
-10.36357403 6.379384518 -1.849797487 0.9519548416 
-11.07121277 6.153278828 -1.925284863 0.9500439167 
-11.78705311 5.880812645 -2.002254725 0.9480995536 
-12.03707027 5.350642204 -2.002266407 0.9480992556 
-12.64231205 3.701035023 -2.002296209 0.9480984807 
-12.92131519 2.562766075 -2.00231123 0.9480981231 
-13.02257252 1.985397935 -2.00231719 0.9480980039 
-13.14756298 0.8201098442 -2.002326488 0.9480977058 
-13.08509254 -1.520688415 -2.002332687 0.948097527 
-13.00447273 -2.101310968 -2.002331734 0.9480975866 
-11.73450661 -5.985580921 -2.002296925 0.9480984807 
-10.48912334 -7.96849823 -2.002255917 0.948099494 
-6.968073368 -9.977641106 -1.849841237 0.9519537091 
-5.096010685 -11.06378841 -1.851522446 0.9519110918 
-3.579663038 -11.64885998 -1.85235405 0.9518900514 
-3.058168888 -11.79724312 -1.852462769 0.9518872499 
-1.997641563 -12.02300739 -1.852562308 0.9518847466 
0.7045629621 -12.16593742 -1.852332473 0.9518905878 
1.782614708 -12.05208492 -1.851856589 0.9519025683 
2.316667318 -11.95901299 -1.851573944 0.9519097805 
3.369311333 -11.70198917 -1.850975275 0.9519249797 
4.395175457 -11.35400867 -1.850615025 0.9519340992 
4.895290375 -11.14600563 -1.850404263 0.9519394636 
5.385246277 -10.91505623 -1.850040674 0.9519486427 
5.864499569 -10.66305351 -1.849753499 0.9519559741 
6.33235836 -10.39041996 -1.849543452 0.9519612193 
9.164855957 -9.454833984 -2.001497269 0.9481185079 
10.3414259 -8.15066433 -2.001447201 0.9481199384 
10.69372082 -7.682480335 -2.00143218 0.9481202364 
11.02477264 -7.199038029 -2.001418591 0.948120892 
11.33405972 -6.701538086 -2.001405239 0.9481209517 
11.62084961 -6.190732479 -2.001392365 0.9481212497 
12.34123516 -4.588803768 -2.001358986 0.9481221437 
12.70013618 -3.473740101 -2.001341105 0.948122561 
12.84203815 -2.905400276 -2.001333952 0.9481227398 
12.95852757 -2.331196308 -2.001327276 0.9481229186 
13.11436462 -1.170229435 -2.001317501 0.9481232166 
13.16643238 -7.324218586e-06 -2.001311541 0.9481233358 
13.11432362 1.17021966 -2.001309633 0.9481233358 
12.84189415 2.905361176 -2.001314402 0.9481232762 
12.69999218 3.473696232 -2.001317978 0.948123157 
12.34105396 4.588725567 -2.00132823 0.9481229186 
9.879318237 7.097394943 -1.849008799 0.9519748092 
9.553841591 7.529930115 -1.849019289 0.9519745111 
8.846899033 8.349362373 -1.84904325 0.9519739151 
8.478450775 8.746804237 -1.85161078 0.9519088864 
8.084102631 9.118769646 -1.852321982 0.9518908858 
5.873112679 10.67872334 -1.852470517 0.9518870711 
3.88658309 11.54086685 -1.851027608 0.9519236684 
3.368849993 11.70036316 -1.850716829 0.9519314766 
1.780739665 12.03942394 -1.84991312 0.9519518614 
1.243223906 12.10525322 -1.84969008 0.9519575834 
-0.3789672852 12.16235352 -1.849585891 0.9519601464 
-0.9197484851 12.13453865 -1.849753737 0.9519559741 
-1.458723068 12.08287811 -1.849945307 0.9519510865 
-1.995043874 12.00735569 -1.850150585 0.9519458413 
-2.527448654 11.90814209 -1.850368619 0.9519402981 
-3.57679677 11.63954067 -1.850872636 0.9519276023 
-4.598447323 11.27877617 -1.851396441 0.9519143105 
-1.924392104 3.731591702 -0.6381874084 0.9831562638 
-1.988234878 3.467426777 -0.607550025 0.9839583635 
-2.090961933 3.297375441 -0.5934811234 0.9843268991 
-2.321716309 3.028015137 -0.5799835324 0.984680593 
-2.446232796 2.91237545 -0.5781231523 0.9847293496 
-2.604379892 2.834411621 -0.5850872397 0.9845468402 
-2.844269991 2.831638098 -0.6100519896 0.9838927984 
-3.41617918 2.843561888 -0.6756126285 0.9821773767 
-3.832939386 2.911850452 -0.7316641808 0.9807130694 
-10.30639362 6.471330643 -1.849794865 0.9519549012 
-11.73425293 5.985441685 -2.00225234 0.9480995536 
-12.21992874 4.918879509 -2.00227499 0.9480990171 
-12.42668915 4.370507717 -2.002285242 0.9480987191 
-12.76609135 3.248661995 -2.002302408 0.9480983019 
-12.89801025 2.677631855 -2.002309799 0.9480981231 
-13.00438976 2.101179123 -2.002315998 0.9480980039 
-13.17105198 -0.2344994992 -2.002331257 0.9480976462 
-13.14759731 -0.820112288 -2.002332449 0.9480975866 
-13.09809303 -1.404208899 -2.002332926 0.9480975866 
-13.02266788 -1.985419869 -2.002332211 0.9480975866 
-12.6424799 -3.701088667 -2.002323627 0.9480978251 
-11.51395512 -6.399487019 -2.002289772 0.9480986595 
-10.8995018 -7.397439003 -2.002269745 0.9480991364 
-10.55961609 -7.874863148 -2.002258301 0.948099494 
-9.817790031 -8.782123566 -2.00223279 0.94810009 
-8.998261452 -9.619826317 -2.00220418 0.9481008053 
-7.606950283 -9.740392685 -1.878557205 0.9512264132 
-7.056188583 -9.91472435 -1.849743247 0.9519562125 
-6.609914303 -10.22139835 -1.850220084 0.9519441128 
-5.67789793 -10.77340317 -1.851075053 0.9519224763 
-5.194047928 -11.01757812 -1.851451516 0.9519129395 
-4.699724197 -11.23976994 -1.851792455 0.9519042373 
-4.195720196 -11.43959713 -1.852097631 0.9518966079 
-3.683107853 -11.61638165 -1.852327824 0.951890707 
-2.636357307 -11.89901066 -1.85252142 0.9518857598 
-1.568376422 -12.08645439 -1.852558136 0.9518849254 
-1.02920413 -12.14401054 -1.852517486 0.951885879 
-0.4879077077 -12.17725277 -1.852439046 0.9518879056 
0.05421386659 -12.18685532 -1.852432847 0.9518880844 
0.5963061452 -12.17199707 -1.852373362 0.9518895149 
1.136989713 -12.13199902 -1.852156639 0.9518950582 
2.210144043 -11.97954082 -1.851632953 0.95190835 
2.74044919 -11.86740494 -1.851326704 0.951916039 
4.293979168 -11.3929491 -1.85065484 0.9519330859 
4.796040058 -11.18937969 -1.85044837 0.9519383311 
5.288136959 -10.96296597 -1.850114703 0.951946795 
5.769523621 -10.71503925 -1.849793911 0.9519549608 
6.239804745 -10.44658661 -1.849586606 0.951960206 
7.142006874 -9.848484039 -1.849177361 0.9519705176 
8.6472435 -9.930578232 -2.001519203 0.9481180906 
9.080309868 -9.536032677 -2.001500845 0.9481185675 
9.891750336 -8.691098213 -2.001466274 0.9481194019 
10.26852989 -8.242367744 -2.0014503 0.9481198192 
10.62489033 -7.777416706 -2.00143528 0.9481202364 
11.83374691 -5.773202896 -2.001382589 0.9481215477 
12.07880592 -5.241000652 -2.001371145 0.9481217861 
12.29994106 -4.698430061 -2.001360893 0.9481220841 
12.66873741 -3.586596489 -2.001342773 0.948122561 
12.81567574 -3.019545794 -2.001335144 0.9481227398 
12.9372797 -2.446408749 -2.001328468 0.9481229186 
13.03325653 -1.868530273 -2.001322985 0.9481230378 
13.14769745 -0.7027514577 -2.001314402 0.9481232166 
13.16591263 -0.1171484366 -2.001312017 0.9481233358 
13.15809536 0.4685790837 -2.00131011 0.9481233358 
13.12421322 1.053493619 -2.001309633 0.9481233954 
13.06436729 1.636206031 -2.001309872 0.9481233954 
12.86724949 2.790881395 -2.001313686 0.9481233358 
12.73039246 3.360563993 -2.001317024 0.948123157 
12.16991329 5.0251441 -2.001333475 0.9481227994 
11.9343977 5.561496258 -2.001340628 0.9481226206 
9.620448112 7.444604397 -1.849017024 0.9519746304 
9.279852867 7.865213394 -1.849028468 0.9519742727 
8.920811653 8.27030468 -1.849040627 0.9519740343 
8.555341721 8.670283318 -1.85146749 0.9519125223 
8.164294243 9.045790672 -1.852181315 0.9518944621 
2.168394804 3.487787962 -0.6242523193 0.9835209846 
5.96823597 10.62645149 -1.852550626 0.9518850446 
5.488417625 10.87914371 -1.852157712 0.9518949986 
3.863377571 8.588104248 -1.431396246 0.962615788 
2.988665819 8.620229721 -1.386799335 0.9637593031 
2.949827909 11.8113718 -1.850483179 0.9519374371 
2.42119503 11.92913628 -1.850210786 0.9519443512 
1.351005793 12.09399128 -1.849732876 0.9519564509 
0.2707116604 12.16412067 -1.849416494 0.9519644976 
-1.351137638 12.09512138 -1.849905252 0.9519520998 
-1.88798821 12.0243721 -1.850109696 0.9519469142 
-2.421337843 11.92985535 -1.850323081 0.9519414902 
-3.472997904 11.67055416 -1.850818276 0.9519289732 
-3.044421434 8.780837059 -1.412642121 0.9630966187 
-4.497792721 11.31890869 -1.851343036 0.9519156814 
-1.883442283 4.186708927 -0.6978139877 0.9815971255 
-1.973769546 3.514294386 -0.6126588583 0.9838244915 
-2.069375038 3.328517914 -0.5957461596 0.9842675924 
-2.175297737 3.174628735 -0.5849606395 0.9845501781 
-2.297704935 3.05262208 -0.5807531476 0.9846604466 
-3.350422382 2.839667797 -0.6675770283 0.9823874235 
-9.955824852 7.018918514 -1.85156703 0.9519099593 
-10.64500237 6.166945457 -1.869965911 0.9514439106 
-11.68051529 6.089597225 -2.002249718 0.9480996728 
-11.93990231 5.56405735 -2.002261877 0.9480993152 
-12.57443333 3.925392866 -2.002292633 0.9480985999 
-12.7366457 3.362219095 -2.002300978 0.9480983615 
-12.87366867 2.792277813 -2.002308369 0.9480981231 
-12.98516083 2.216901779 -2.002315044 0.9480980039 
-13.07096195 1.637038589 -2.002320528 0.9480978847 
-13.13085938 1.054025888 -2.00232482 0.9480978251 
-13.11009026 -1.287512183 -2.002332926 0.948097527 
-12.94373512 -2.447741747 -2.00233078 0.9480975866 
-12.50273609 -4.148674011 -2.002319813 0.9480978847 
-12.08443832 -5.243442059 -2.002307653 0.9480982423 
-11.57049274 -6.296701431 -2.002291679 0.9480985999 
-11.27885914 -6.805182934 -2.002282143 0.9480988383 
-9.895544052 -8.694448471 -2.002235413 0.9481000304 
-9.083502769 -9.539391518 -2.002207041 0.9481007457 
-7.746430397 -9.739115715 -1.891526937 0.9508979917 
-7.144011021 -9.851506233 -1.849732876 0.9519565701 
-6.243063927 -10.45223808 -1.850578308 0.9519350529 
-5.291662693 -10.97050476 -1.851379037 0.9519147277 
-3.786352396 -11.58294392 -1.852299809 0.9518914223 
-3.267524242 -11.74071503 -1.852424026 0.9518882632 
-2.742194653 -11.87497044 -1.852509141 0.9518861175 
-2.211247444 -11.9855175 -1.852554917 0.9518849254 
-0.05421386659 -12.18688965 -1.852436423 0.9518879056 
1.029030681 -12.1419239 -1.852202415 0.9518939257 
1.567975998 -12.08257008 -1.851961493 0.9518999457 
2.634848595 -11.89171124 -1.851390362 0.9519144893 
3.160610199 -11.76066875 -1.851061344 0.9519227743 
5.190497875 -11.0100584 -1.850188136 0.9519449472 
6.146674633 -10.50199223 -1.849629164 0.9519590735 
6.607016563 -10.21693325 -1.849410772 0.9519646168 
9.413859367 -9.206843376 -2.00148654 0.9481187463 
10.19480228 -8.333500862 -2.0014534 0.9481195211 
12.03171825 -5.348264217 -2.001373291 0.9481217265 
12.2576313 -4.807787895 -2.001362801 0.9481219649 
12.78831291 -3.13344717 -2.001336575 0.9481226802 
12.9149828 -2.561516047 -2.00132966 0.948122859 
13.091465 -1.403500915 -2.00131917 0.948123157 
13.14093494 -0.8197045922 -2.001315355 0.9481232166 
13.16434765 -0.2343920916 -2.001312256 0.9481233358 
12.89156914 2.676291466 -2.00131321 0.9481233358 
12.75977993 3.247172832 -2.001316309 0.9481232166 
12.60274124 3.811508656 -2.001320601 0.9481230974 
12.42073917 4.368412971 -2.001325846 0.9481229186 
11.98339081 5.45509243 -2.001339197 0.9481226802 
11.72895145 5.982738972 -2.001347303 0.9481223822 
11.45120811 6.498403072 -2.001355648 0.9481226802 
10.00402069 6.920473576 -1.849004626 0.9519748688 
9.686361313 7.358616829 -1.849014878 0.95197469 
8.631471634 8.593158722 -1.851323485 0.9519161582 
8.243828773 8.972113609 -1.852039576 0.9518979788 
7.419285774 9.676510811 -1.853419423 0.9518630505 
2.179301739 3.436762571 -0.6185644269 0.9836698771 
6.062808514 10.57339001 -1.852631211 0.951883018 
5.585222244 10.83032799 -1.852234721 0.9518930912 
5.096933365 11.06577969 -1.851856589 0.9519026279 
4.598701 11.27937984 -1.851497412 0.9519117475 
4.091705322 11.47065926 -1.851157904 0.9519203305 
3.576736927 11.63932991 -1.850838542 0.9519284368 
1.458585143 12.08177471 -1.849776626 0.9519553781 
0.9196557403 12.13332272 -1.849567413 0.9519606829 
0.3789208829 12.16106987 -1.849391699 0.9519650936 
-1.243447185 12.10639858 -1.849865794 0.9519531131 
-1.780903339 12.04045391 -1.85006988 0.9519478679 
-2.844667912 11.83732128 -1.850510359 0.9519367814 
-3.368930578 11.70066357 -1.850764751 0.9519302845 
-4.898352146 11.15298271 -1.851561904 0.9519101381 
-1.899685025 3.850363731 -0.6526150107 0.9827787876 
-2.273554564 3.077133656 -0.5815464854 0.9846396446 
-2.396245003 2.958242178 -0.578666389 0.9847151637 
-2.745847225 2.832707405 -0.599660337 0.9841650128 
-3.630947113 2.861752748 -0.7027212381 0.9814689159 
-10.18952084 6.65375948 -1.849789739 0.9519550204 
-12.70620537 3.475395441 -2.002299547 0.9480984211 
-13.0558567 1.753376484 -2.002319336 0.9480978847 
-13.16009045 0.5859301686 -2.002327919 0.9480977058 
-12.3592205 -1.102854013 -2.002302885 0.9509674907 
-12.29792213 -1.651545405 -2.002302647 0.9509675503 
-12.21227741 -2.196970224 -2.002301216 0.9509675503 
-12.1024437 -2.738037109 -2.00229907 0.9509676099 
-11.968647 -3.273686409 -2.002295971 0.9509676695 
-11.8111496 -3.802844048 -2.002291918 0.9509677887 
-11.6302681 -4.324467659 -2.002286673 0.9509679079 
-11.19980907 -5.341015339 -2.00227356 0.9509682059 
-10.95109367 -5.833920956 -2.00226593 0.9509683847 
-10.680686 -6.315263748 -2.002257109 0.9509686232 
-8.635800362 -8.909079552 -2.002187252 0.9509702921 
-7.184294224 -9.723590851 -1.950896144 0.9521957636 
-6.540158749 -9.729354858 -1.891749024 0.9536109567 
-5.524582386 -10.04495621 -1.849910855 0.9546132684 
-4.611679554 -10.50018978 -1.850612164 0.9545964599 
-4.140705585 -10.69668961 -1.850912929 0.9545892477 
-3.661210775 -10.8715868 -1.851134777 0.9545839429 
-3.174194336 -11.02444267 -1.851258755 0.9545809031 
-2.680766582 -11.15524673 -1.851346374 0.9545788765 
-1.678745031 -11.34980679 -1.851417303 0.954577148 
-0.6633740067 -11.45470715 -1.85151732 0.9545747638 
-0.1531640589 -11.4729147 -1.851523042 0.9545746446 
0.3573437333 -11.46822739 -1.851499557 0.954575181 
0.8670666218 -11.44005871 -1.851350784 0.9545787573 
1.879941344 -11.31484318 -1.850880384 0.9545900226 
2.87749505 -11.10040474 -1.850451589 0.9546002746 
3.368166447 -10.96053696 -1.850303411 0.9546038508 
3.85204339 -10.79888153 -1.850135803 0.9546078444 
4.328168869 -10.61576653 -1.849949002 0.9546123147 
4.795580864 -10.41156673 -1.849743605 0.9546172619 
5.25316143 -10.18634224 -1.849453688 0.954624176 
6.176010609 -9.739492416 -1.860988736 0.9543477893 
6.797993183 -9.734140396 -1.915904522 0.953032732 
7.464445591 -9.735334396 -1.979599595 0.9515097737 
7.977600098 -9.497787476 -2.001543522 0.9509856105 
8.392116547 -9.133437157 -2.001526117 0.9509860277 
8.790029526 -8.751000404 -2.00150919 0.950986445 
9.532871246 -7.934982777 -2.001477242 0.9509872198 
9.876330376 -7.503061295 -2.00146246 0.9509875178 
10.20025349 -7.0562253 -2.001448393 0.9509878755 
10.50397396 -6.595439434 -2.00143528 0.9509882331 
10.78689671 -6.12160635 -2.001423359 0.9509885311 
11.28817081 -5.13859129 -2.001401663 0.9509890676 
12.01944065 -3.058718204 -2.001366138 0.9509898424 
12.24364948 -1.978320241 -2.001353979 0.9509902 
12.31949425 -1.431711435 -2.001349211 0.9509903193 
12.37097168 -0.8822802305 -2.001345396 0.9509903789 
12.39795876 -0.3310937285 -2.001342535 0.9509904385 
12.37830067 0.7721386552 -2.001339436 0.9509904981 
12.33169365 1.322014093 -2.001339436 0.9509905577 
12.26068592 1.869262695 -2.001340389 0.9509904981 
12.16541004 2.412814856 -2.001342297 0.9509904385 
12.04605675 2.951601505 -2.001345158 0.9509903789 
11.90285206 3.484533548 -2.001348734 0.9509903193 
11.54610538 4.528684139 -2.001359224 0.9509900212 
11.33325577 5.037912369 -2.00136447 0.9509897828 
10.84070778 6.025229454 -2.001377106 0.950989604 
8.871741295 7.251988411 -1.84904623 0.9546340108 
8.540417671 7.639522552 -1.849057674 0.9546336532 
8.199261665 8.018831253 -1.850666761 0.9545951486 
7.065940857 9.047681808 -1.852485657 0.9545515776 
5.801128864 9.911569595 -1.853215694 0.9545339942 
4.895277977 10.3838129 -1.852478862 0.9545516968 
3.951580763 10.77392578 -1.85181284 0.9545676708 
2.481274366 11.19884205 -1.850958109 0.9545881748 
1.980389357 11.29664803 -1.850713611 0.9545940161 
1.475737214 11.37219715 -1.85049057 0.9545993209 
0.7349108458 8.671551704 -1.40432477 0.9653535485 
0.4590454102 11.45598125 -1.85010922 0.9546085 
-0.05102783069 11.46569347 -1.850211024 0.9546060562 
-0.8165722489 8.712936401 -1.412147522 0.9651639462 
-2.081074238 11.27978516 -1.850910783 0.9545892477 
-2.581074238 11.17732143 -1.851124883 0.9545841813 
-1.780266047 4.15345192 -0.7292052507 0.981857121 
-1.969770432 3.297787905 -0.6198568344 0.9845566154 
-2.298073769 2.8892138 -0.5957226157 0.9851534367 
-2.45900631 2.823964834 -0.6042454243 0.984942615 
-3.503220081 2.811987162 -0.7248944044 0.9819633961 
-3.913872004 2.864929199 -0.7826955318 0.9805393219 
-9.541892052 6.352683067 -1.849785447 0.9546162486 
-10.21025848 6.160392761 -1.924268723 0.9528325796 
-10.89848328 5.930998325 -2.002219915 0.9509695172 
-11.15160084 5.440361023 -2.002231598 0.9509692192 
-11.77666473 3.907741547 -2.002261639 0.950968504 
-12.07746315 2.845605373 -2.002277374 0.9509681463 
-12.19212341 2.305539608 -2.002283812 0.9509680271 
-12.28265572 1.760905743 -2.002289295 0.9509678483 
-12.39060974 0.6622582674 -2.00229764 0.9509676695 
-12.40781689 0.1104272455 -2.002300262 0.9509676099 
-12.40045643 -0.4416357279 -2.00230217 0.9509675503 
-12.36854458 -0.9928148985 -2.002302885 0.9509674907 
-12.31212902 -1.54203856 -2.002302885 0.9509675503 
-12.23134708 -2.088195801 -2.002301693 0.9509675503 
-11.84452152 -3.697585344 -2.002292633 0.9509677887 
-11.66829109 -4.220795631 -2.002287626 0.9509679079 
-11.24690628 -5.24113512 -2.002275229 0.9509681463 
-10.14105892 -7.149533749 -2.002239227 0.9509690404 
-9.099069595 -8.43552494 -2.002203703 0.9509699345 
-8.714756012 -8.831884384 -2.002190113 0.9509702325 
-8.313205719 -9.210746765 -2.002175808 0.9509705305 
-7.895175457 -9.571362495 -2.002161026 0.9509708881 
-7.317997932 -9.722304344 -1.963629246 0.9518914223 
-6.057900429 -9.743910789 -1.851456285 0.9545761943 
-5.613523006 -9.994962692 -1.849833488 0.9546151161 
-4.704782486 -10.45838642 -1.850548029 0.95459795 
-3.27214098 -10.99561977 -1.851236939 0.9545814991 
-2.28208971 -11.24385452 -1.851389766 0.9545778036 
-0.255268544 -11.47110558 -1.851524353 0.954574585 
1.273561954 -11.40088367 -1.851176262 0.9545829296 
1.779226065 -11.33145237 -1.850932598 0.9545887113 
2.778635263 -11.12573719 -1.850478888 0.9545996189 
3.270541906 -10.99026585 -1.850334525 0.954603076 
4.233613014 -10.65409184 -1.849987864 0.954611361 
5.162412167 -10.23291206 -1.849494934 0.9546232224 
5.611923695 -9.992099762 -1.849302769 0.9546278119 
6.059828758 -9.747015953 -1.852047324 0.954562068 
7.324855804 -9.731420517 -1.965469599 0.951847434 
8.711815834 -8.828920364 -2.001512527 0.9509863257 
9.095861435 -8.43252182 -2.001496077 0.9509868622 
9.809199333 -7.590634823 -2.001465321 0.9509874582 
10.13706779 -7.146738052 -2.001451254 0.9509878159 
10.99789524 -5.733774185 -2.001414299 0.9509887695 
11.24201679 -5.238850117 -2.001403809 0.9509889483 
11.66302967 -4.218891621 -2.00138402 0.9509894848 
12.12065125 -2.628996611 -2.001360893 0.9509900212 
12.30628681 -1.541288972 -2.001350164 0.9509902596 
12.36263657 -0.9923388362 -2.001346111 0.9509903789 
12.38467884 0.6619457603 -2.001339674 0.9509904981 
12.34297085 1.21220696 -2.001339436 0.9509905577 
12.27683544 1.76006341 -2.001340151 0.9509904981 
11.58594418 4.425737381 -2.001358032 0.9509900808 
11.37763405 4.936713696 -2.001363516 0.9509900212 
9.24610424 6.768100262 -1.849033594 0.9546342492 
7.91021347 8.307193756 -1.851028562 0.9545864463 
7.535646915 8.654061317 -1.851716161 0.9545699954 
2.339499474 3.226083994 -0.6430634856 0.9839830995 
5.889354229 9.859952927 -1.853293061 0.9545322061 
5.44379282 10.11010265 -1.852912903 0.954541266 
4.521931171 10.54989719 -1.852203608 0.9545582533 
3.07598877 11.0523634 -1.851278543 0.9545804858 
1.576916456 11.3588686 -1.850533366 0.9545983076 
0.5609850883 11.45166016 -1.850143433 0.9546076655 
-0.4590966702 11.45731163 -1.850324869 0.954603374 
-0.9683935046 11.42656994 -1.850487471 0.9545993805 
-1.475883722 11.37330818 -1.850672603 0.9545949697 
-2.977553606 11.07949638 -1.851311564 0.954579711 
-3.467949152 10.93756294 -1.851563811 0.9545736313 
-4.42757082 10.58901119 -1.852080941 0.9545612335 
-1.808427691 3.836018085 -0.6843482852 0.9829636216 
-1.87677002 3.561057091 -0.649559617 0.9838226438 
-2.273515463 2.911154747 -0.5960496664 0.9851453304 
-2.416269541 2.825266123 -0.5998977423 0.9850501418 
-2.874838829 2.811574697 -0.6488833427 0.9838393331 
-3.443701029 2.814965725 -0.7177339196 0.9821400046 
-11.10272217 5.539367676 -2.002229452 0.9509693384 
-11.33821011 5.040024281 -2.002240419 0.9509690404 
-11.74140358 4.012390137 -2.00225997 0.9509685636 
-11.9083128 3.486130238 -2.002268314 0.9509683847 
-12.17112541 2.413954973 -2.002282619 0.9509680271 
-12.26649666 1.870151281 -2.002288342 0.9509678483 
-12.33757305 1.322626948 -2.00229311 0.9509677291 
-12.40389633 -0.3312475383 -2.002301931 0.9509675503 
-12.3768816 -0.882702589 -2.002302885 0.9509675503 
-12.24944782 -1.979260206 -2.002301931 0.9509675503 
-12.02502441 -3.060148954 -2.002297401 0.9509676695 
-11.87698174 -3.592036009 -2.002293587 0.9509676695 
-11.70540237 -4.11679697 -2.002288818 0.9509678483 
-11.29311275 -5.140834808 -2.002276659 0.9509681463 
-11.05320263 -5.638085842 -2.00226903 0.9509683251 
-10.50825691 -6.598119736 -2.002251625 0.9509687424 
-9.88013649 -7.50590086 -2.002230406 0.9509692192 
-9.536394119 -7.937924862 -2.002218723 0.9509695768 
-8.793029785 -8.753998756 -2.002192974 0.9509701133 
-8.394850731 -9.136401176 -2.002178669 0.9509705305 
-7.453442097 -9.720986366 -1.976680994 0.9515795112 
-5.702011585 -9.944191933 -1.84975493 0.9546170235 
-4.797499657 -10.41571712 -1.850482464 0.9545995593 
-4.330151081 -10.62063217 -1.85079658 0.9545920491 
-3.853996515 -10.80434799 -1.851074815 0.954585433 
-2.878845215 -11.10558319 -1.851315737 0.9545795918 
-2.382053137 -11.22306347 -1.851381063 0.9545779824 
0.1531677246 -11.47284603 -1.851512551 0.954574883 
0.6633422971 -11.4541769 -1.851431251 0.9545768499 
1.172077656 -11.41203594 -1.851221561 0.9545818567 
2.181147337 -11.25963879 -1.850717425 0.9545938969 
3.659367561 -10.86613274 -1.850205183 0.954606235 
4.138715744 -10.69156742 -1.850026011 0.954610467 
6.544145584 -9.735282898 -1.892902017 0.9535833001 
7.19062233 -9.732160568 -1.952615499 0.952154696 
9.390155792 -8.103429794 -2.00148344 0.9509871006 
9.741267204 -7.67762661 -2.00146842 0.9509874582 
10.07307816 -7.236684322 -2.001454115 0.9509876966 
10.3849411 -6.781354904 -2.001440525 0.9509881735 
10.6762619 -6.312646389 -2.001428366 0.9509884119 
11.19496346 -5.338698387 -2.001405954 0.9509888887 
11.42130375 -4.835390568 -2.001395464 0.9509891868 
11.8057518 -3.801110744 -2.001377106 0.950989604 
12.09678459 -2.736755371 -2.001362324 0.9509899616 
12.29207993 -1.650764108 -2.00135088 0.9509902596 
12.35331726 -1.102314472 -2.001346588 0.9509903789 
12.39008141 0.5516918898 -2.001339912 0.9509904981 
12.35326672 1.10231936 -2.001339436 0.9509905577 
12.20642662 2.195903301 -2.001341343 0.9509904385 
12.09667206 2.736723661 -2.001343727 0.9509904385 
11.80560493 3.801054716 -2.001351595 0.9509902596 
11.62486267 4.322453499 -2.00135684 0.9509901404 
11.42111588 4.835292816 -2.001362562 0.9509899616 
10.67601299 6.312497616 -2.001381874 0.9509895444 
9.699197769 6.333561897 -1.869279385 0.954149127 
9.305953979 6.68552494 -1.849031687 0.9546343684 
8.999389648 7.092929363 -1.849042058 0.9546340704 
8.675014496 7.486275673 -1.849053144 0.954633832 
8.339860916 7.870837212 -1.85048306 0.9545995593 
7.611825943 8.586055756 -1.851584554 0.9545730948 
7.224860668 8.919267654 -1.852233052 0.9545576572 
2.386168242 3.229560375 -0.6479653716 0.9838620424 
2.247026205 3.342744112 -0.6499554515 0.9838128686 
5.977114201 9.807561874 -1.853371263 0.9545302987 
5.533772945 10.06166649 -1.852987647 0.9545394778 
5.079712868 10.29582405 -1.85262084 0.9545482993 
3.33240962 8.608616829 -1.489601731 0.9632887244 
3.662186146 10.87448978 -1.851627707 0.9545720816 
3.174321175 11.02489376 -1.851334691 0.9545791149 
2.680358887 11.15354347 -1.851061463 0.9545856714 
1.171535611 11.40676498 -1.85036695 0.9546023607 
0.1530529708 11.46447277 -1.850159526 0.9546072483 
-0.8666552305 11.43451118 -1.850453138 0.9546002746 
-1.374575138 11.38575649 -1.85063386 0.9545959234 
-1.879892588 11.31454849 -1.850831151 0.9545911551 
-3.370375872 10.96769238 -1.851511836 0.954574883 
-3.58507061 8.793142319 -1.532331347 0.9622557759 
-2.014955997 3.177553654 -0.6071565151 0.9848706722 
-2.130549192 3.050759315 -0.6004598737 0.9850362539 
-2.248837948 2.932995558 -0.5963990688 0.9851366878 
-2.374118567 2.82652092 -0.5956556797 0.9851551056 
-2.590471029 2.819299221 -0.6178289652 0.9846067429 
-2.824870586 2.81232667 -0.6432287693 0.9839790463 
-3.38380599 2.81661129 -0.7104461789 0.9823197126 
-9.429343224 6.522910118 -1.850183964 0.9546067119 
-9.831059456 6.172897816 -1.873217463 0.9540547729 
-11.05298519 5.637961388 -2.002227068 0.9509692788 
-11.29288578 5.140739441 -2.002238274 0.9509691 
-11.87681866 3.591965199 -2.002266645 0.9509683847 
-12.24936008 1.979238272 -2.002287149 0.9509679079 
-12.32530212 1.432380319 -2.002292395 0.9509677887 
-12.40388203 0.3312573135 -2.002299547 0.9509676099 
-12.4063549 -0.2208642513 -2.002301693 0.9509675503 
-12.38424492 -0.7725244164 -2.002302647 0.9509675503 
-12.26657486 -1.870170832 -2.00230217 0.9509675503 
-12.17123222 -2.413981915 -2.002300501 0.9509675503 
-12.05178165 -2.953010082 -2.002297878 0.9509676695 
-11.74157429 -4.012448788 -2.002289772 0.9509678483 
-11.33842754 -5.040143967 -2.002277851 0.9509680867 
-10.84549809 -6.027900219 -2.002262592 0.950968504 
-10.56656265 -6.504347801 -2.002253294 0.9509687424 
-8.870578766 -8.67540741 -2.002195597 0.9509701133 
-8.475836754 -9.06135273 -2.002181768 0.9509704113 
-7.590692997 -9.719614029 -1.990060091 0.9512599111 
-6.921914101 -9.726013184 -1.926355958 0.9527826905 
-6.292993069 -9.731374741 -1.870065928 0.9541302919 
-4.889836311 -10.37223625 -1.850415587 0.9546011686 
-4.424350262 -10.5813303 -1.850736499 0.9545934796 
-3.949892521 -10.76933861 -1.851023555 0.9545865655 
-2.977531672 -11.07941628 -1.851298213 0.954580009 
-1.476498961 -11.37806416 -1.851446629 0.9545764327 
-0.9689355493 -11.4328022 -1.851499557 0.954575181 
0.5613976717 -11.45986271 -1.851469636 0.9545758963 
2.080910683 -11.27894497 -1.850772858 0.9545925856 
2.580239296 -11.17374516 -1.850531101 0.9545983672 
3.074511766 -11.04709911 -1.850394726 0.9546016455 
3.562600136 -10.89846611 -1.850238562 0.9546054006 
4.043488503 -10.72818375 -1.850063443 0.9546096325 
4.516242504 -10.53660583 -1.849869132 0.954614222 
4.979838848 -10.32395458 -1.849635005 0.9546198845 
5.433415413 -10.09081554 -1.84937942 0.9546260238 
5.876423359 -9.838319778 -1.849226475 0.9546296597 
6.419438362 -9.73580265 -1.881819129 0.9538487196 
7.058093071 -9.732851028 -1.94007504 0.952454567 
8.553324699 -8.982597351 -2.001519203 0.9509862065 
10.00829124 -7.326032639 -2.001456976 0.9509876966 
10.32419872 -6.873525143 -2.001443386 0.9509880543 
10.61966038 -6.407585144 -2.001430511 0.9509880543 
11.14701176 -5.438112736 -2.0014081 0.9509888887 
11.37782192 -4.936842918 -2.00139761 0.9509891272 
12.27691174 -1.760097623 -2.001351833 0.9509902 
12.34301758 -1.212209463 -2.001347542 0.9509903789 
12.36259747 0.9923266172 -2.001339436 0.9509904981 
12.30622292 1.541284204 -2.001339674 0.9509904981 
12.12055111 2.628950119 -2.00134325 0.9509904385 
11.99161816 3.165541887 -2.001346588 0.9509903789 
11.24180412 5.238752365 -2.001366854 0.9509898424 
10.99767113 5.733547211 -2.001373053 0.950989902 
10.73176765 6.217250824 -2.001380205 0.9509894848 
9.062155724 7.012556076 -1.849039912 0.9546340704 
8.056032181 8.164299965 -1.850848675 0.9545907378 
6.418105125 8.526738167 -1.722159028 0.957680285 
3.272420645 10.99653625 -1.851391673 0.954577744 
2.779598236 11.12955284 -1.851114631 0.9545844197 
2.281419516 11.24062824 -1.850857854 0.954590559 
1.273026109 11.39614487 -1.850407243 0.9546013474 
0.7647473216 11.44029617 -1.850214362 0.9546059966 
-0.7648339868 11.44157219 -1.85041976 0.9546010494 
-1.273159146 11.39729691 -1.850595951 0.9545968771 
-1.779106379 11.33058357 -1.850792646 0.9545921087 
-2.77974844 11.13017273 -1.851216555 0.9545819759 
-3.759023428 10.84203339 -1.851725101 0.954569757 
-4.238166332 10.66555405 -1.851979494 0.9545636773 
-1.850832462 3.668710947 -0.663082242 0.9834886789 
-1.922016501 3.42218256 -0.6333645582 0.9842227697 
-2.106420755 3.074128389 -0.6013456583 0.9850143194 
-2.225468636 2.956638098 -0.5971563458 0.9851179719 
-2.775742054 2.81304431 -0.637717247 0.9841151834 
-3.319011211 2.813056469 -0.7020719647 0.9825263023 
-3.658979416 2.831408739 -0.746575892 0.9814289808 
-9.371926308 6.607270241 -1.850382209 0.9546019435 
-11.24668407 5.241020203 -2.002236128 0.9509691596 
-11.46875668 4.735573769 -2.002246618 0.9509688616 
-11.84436226 3.697539091 -2.002265215 0.9509684443 
-11.99717236 3.166984797 -2.002273083 0.9509682655 
-12.23124981 2.088171244 -2.002286196 0.9509679079 
-12.3120575 1.542011738 -2.002291441 0.9509678483 
-12.36849117 0.9928051829 -2.002295494 0.9509677291 
-12.40043926 0.4416308403 -2.002298832 0.9509676099 
-12.39063168 -0.6622607112 -2.002302408 0.9509675503 
-12.34891129 -1.212814927 -2.002302885 0.9509675503 
-12.28273392 -1.760935068 -2.002302408 0.9509675503 
-12.07759762 -2.845646858 -2.002298594 0.9509676099 
-11.77683353 -3.907805204 -2.002290726 0.9509677887 
-11.59131336 -4.427790642 -2.00228548 0.9509679675 
-11.15181828 -5.440480709 -2.002272367 0.9509682655 
-10.89872074 -5.931147099 -2.002264261 0.9509684443 
-10.62405014 -6.410078049 -2.00225544 0.9509686232 
-10.32833195 -6.876281738 -2.002245665 0.9509689212 
-10.0121727 -7.328874111 -2.002234936 0.9509691596 
-8.556164742 -8.985556602 -2.002184629 0.9509703517 
-8.147912025 -9.35723114 -2.002170086 0.9509706497 
-7.052279949 -9.724826813 -1.93847549 0.9524928331 
-6.415866375 -9.730382919 -1.880773306 0.9538738132 
-5.877780437 -9.84074688 -1.849683642 0.9546188712 
-4.518210411 -10.5411787 -1.850674987 0.9545949697 
-3.07597661 -11.05237293 -1.851279259 0.9545804858 
-2.581396341 -11.17874527 -1.851359367 0.9545785189 
-1.577685475 -11.36439228 -1.851432562 0.9545767903 
-0.5614160299 -11.46018314 -1.851520777 0.9545746446 
1.476210952 -11.37582493 -1.851082087 0.9545851946 
1.980517507 -11.29734325 -1.850827098 0.9545912743 
2.480734825 -11.1964159 -1.850556016 0.9545977712 
2.976125479 -11.07419395 -1.850423574 0.9546009302 
3.465517521 -10.92994595 -1.850271463 0.9546045661 
4.422385216 -10.57659912 -1.849909425 0.9546132684 
4.887946606 -10.3682375 -1.849700332 0.9546182752 
6.296166897 -9.736289024 -1.871009469 0.9541076422 
8.061786652 -9.42639637 -2.001539946 0.9509857297 
8.867548943 -8.672392845 -2.001505852 0.9509865642 
9.603100777 -7.849814415 -2.001474142 0.950987339 
9.94271183 -7.414816856 -2.001459837 0.950987637 
10.26262951 -6.965080261 -2.00144577 0.9509881139 
10.56224632 -6.50160408 -2.001432657 0.9509884119 
10.84093761 -6.025366306 -2.001420975 0.9509885907 
11.09818077 -5.537077427 -2.001410246 0.9509888887 
11.54628181 -4.528747559 -2.001389503 0.950989306 
11.9029932 -3.484577656 -2.001372099 0.9509897232 
12.04616165 -2.951625824 -2.001364946 0.9509899616 
12.16550541 -2.412841797 -2.001358509 0.9509900808 
12.26076126 -1.869282126 -2.001353025 0.9509902 
12.33174992 -1.32203126 -2.001348257 0.9509903193 
12.37833691 -0.77212888 -2.001344681 0.9509903789 
12.31944942 1.431711435 -2.001339436 0.9509904981 
11.87137318 3.590312481 -2.001349688 0.9509903193 
11.69993973 4.114875317 -2.001354694 0.9509901404 
11.50534916 4.631264687 -2.001360416 0.9509900212 
11.28796387 5.138505936 -2.001365662 0.950989902 
11.04825401 5.635598183 -2.001371622 0.9509896636 
10.50373268 6.595270634 -2.001387358 0.9509893656 
9.12419796 6.931601524 -1.849037766 0.9546341896 
8.472103119 7.71523428 -1.849060178 0.9546336532 
8.127961159 8.091885567 -1.850757957 0.9545929432 
7.762322903 8.448002815 -1.851318598 0.9545794725 
7.381454945 8.788051605 -1.851976633 0.9545637369 
2.275720119 3.258627892 -0.6413740516 0.9840248823 
5.262554646 10.2045784 -1.852765441 0.9545448422 
4.333129883 10.62794018 -1.852070451 0.9545614719 
2.878618002 11.104702 -1.851168275 0.9545831084 
0.8665441871 11.43326473 -1.850251079 0.9546051025 
0.3570654094 11.4596405 -1.850111961 0.9546083808 
-2.68052721 11.15419197 -1.851170301 0.9545830488 
-1.904785156 3.463327646 -0.6378167868 0.9841127396 
-2.082121611 3.097436428 -0.6022565961 0.9849918485 
-2.322509766 2.867184877 -0.5954179168 0.9851609468 
-2.502360821 2.822624445 -0.6087002158 0.9848324656 
-2.727419376 2.813723087 -0.6323428154 0.9842479825 
-3.255690813 2.809565306 -0.6939401031 0.9827269316 
-10.40771198 6.153837681 -1.951082706 0.9521913528 
-10.95085716 5.833771706 -2.0022223 0.9509694576 
-11.4261446 4.83743906 -2.002244473 0.9509689212 
-11.63007832 4.32440424 -2.002254486 0.9509686828 
-11.96850586 3.273644924 -2.002271414 0.9509682655 
-12.3960104 0.5519628525 -2.002298117 0.9509676695 
-12.4083128 0 -2.002300739 0.9509675503 
-12.35921574 -1.102839351 -2.002302885 0.9509675503 
-12.29792213 -1.65153563 -2.002302647 0.9509675503 
-12.21226501 -2.196974993 -2.002301216 0.9509676099 
-12.1024456 -2.738046885 -2.00229907 0.9509676099 
-11.96864033 -3.273684025 -2.002295971 0.9509677291 
-11.81114483 -3.80284667 -2.002291918 0.9509677887 
-11.6302681 -4.324467659 -2.002286673 0.9509679079 
-11.19981194 -5.341008186 -2.00227356 0.9509682059 
-10.38913822 -6.784111023 -2.002247572 0.950968802 
-9.393576622 -8.106389046 -2.002213955 0.9509696364 
-8.635807991 -8.909067154 -2.002187252 0.9509702921 
-5.965231895 -9.788076401 -1.849686861 0.9546185732 
-5.073286057 -10.28279781 -1.85027802 0.9546044469 
-4.611679554 -10.50019264 -1.850612164 0.9545964599 
-4.140710354 -10.69669151 -1.850912929 0.9545891881 
-3.661218166 -10.87158871 -1.851134777 0.9545839429 
-3.174179554 -11.0244379 -1.851258755 0.9545809627 
-2.181940794 -11.26377201 -1.851396918 0.9545776248 
-1.678742647 -11.34980965 -1.851417303 0.954577148 
-1.172241211 -11.41364193 -1.851481915 0.9545755982 
-0.6633764505 -11.45471191 -1.85151732 0.9545747638 
-0.1531738192 -11.4729147 -1.851523042 0.9545746446 
0.3573278785 -11.46822262 -1.851499557 0.954575181 
0.8670800328 -11.44006824 -1.851350784 0.9545786977 
2.381062031 -11.21832943 -1.850603342 0.9545966983 
3.368166447 -10.96053696 -1.850303411 0.9546038508 
4.795573711 -10.41156673 -1.849743605 0.9546172619 
5.253173828 -10.1863327 -1.849453688 0.954624176 
6.176020145 -9.739494324 -1.860987782 0.9543477297 
6.797997952 -9.734137535 -1.915905356 0.953032732 
7.464445591 -9.735334396 -1.979599595 0.9515097737 
7.977597713 -9.497790337 -2.001543522 0.9509856105 
8.39210701 -9.133437157 -2.001526117 0.9509860873 
9.170536995 -8.351230621 -2.001492977 0.9509869218 
9.532877922 -7.934972763 -2.001477242 0.9509872198 
10.20026112 -7.056215763 -2.001448393 0.9509878755 
10.78689671 -6.12160635 -2.001423359 0.9509885311 
11.04848099 -5.635688305 -2.001412392 0.9509887695 
11.5055294 -4.631323338 -2.001391649 0.950989306 
11.87151623 -3.590368509 -2.001373768 0.9509897232 
12.01944065 -3.058720589 -2.001366138 0.9509898424 
12.14355946 -2.521010637 -2.001359701 0.9509900212 
12.24364948 -1.978320241 -2.001353979 0.9509902 
12.31949425 -1.431716323 -2.001349211 0.9509903193 
12.37097359 -0.8822826743 -2.001345396 0.9509903789 
12.40039539 0.2207519412 -2.001340389 0.9509904981 
12.33169937 1.322016597 -2.001339436 0.9509904981 
12.26069069 1.869267583 -2.001340389 0.9509904981 
11.33324909 5.0379076 -2.00136447 0.9509898424 
10.84070396 6.025251389 -2.001377106 0.950989604 
8.54042244 7.639513969 -1.849057674 0.9546337128 
8.199250221 8.018843651 -1.850666761 0.9545951486 
7.836627007 8.37798214 -1.851185441 0.9545826912 
7.065940857 9.047681808 -1.852485657 0.9545515776 
2.304022074 3.237392426 -0.64120543 0.9840290546 
2.194155216 3.393007755 -0.65203017 0.9837616086 
5.353393555 10.15773392 -1.852838874 0.9545431137 
4.427695274 10.58933353 -1.852136612 0.9545599222 
3.951573372 10.77392769 -1.85181284 0.9545676708 
2.319083214 8.629296303 -1.44189775 0.9644432664 
2.481274366 11.19884205 -1.850958109 0.9545881748 
1.475744605 11.37219906 -1.85049057 0.9545993209 
0.7349206209 8.671553612 -1.40432477 0.9653535485 
-0.05101074278 11.46569347 -1.850211024 0.9546060562 
-2.081093788 11.27977753 -1.850910783 0.9545892477 
-3.076132774 11.05285168 -1.85136044 0.9545785189 
-2.869404316 8.777873039 -1.490223169 0.9632737041 
-4.047465801 10.73872089 -1.851881385 0.9545660615 
-1.822946787 3.779233217 -0.6770849228 0.9831429124 
-1.888466716 3.507209301 -0.6427790523 0.9839901328 
-1.969770432 3.297787905 -0.6198568344 0.9845566154 
-2.057666063 3.120678663 -0.6031916738 0.9849687219 
-2.459001303 2.823964834 -0.6042451262 0.9849426746 
-2.679858446 2.814357758 -0.6271005273 0.984377563 
-2.925656557 2.810783625 -0.6546824574 0.9836961031 
-3.503242016 2.811987162 -0.7248969078 0.9819633365 
-3.913881779 2.864933968 -0.782697022 0.9805393219 
-10.21029282 6.160387993 -1.924275637 0.9528324604 
-11.15161133 5.440346718 -2.002231598 0.9509692192 
-11.3826313 4.938925743 -2.002242565 0.9509689808 
-11.77666473 3.907741547 -2.002261639 0.950968504 
-11.93888855 3.380021811 -2.002269745 0.9509682655 
-12.19212151 2.305551767 -2.002283812 0.9509680271 
-12.34886169 1.212802649 -2.002294064 0.9509677291 
-12.39060974 0.6622778177 -2.00229764 0.9509676099 
