# .PCD v0.7 - Point Cloud Data file format
VERSION 0.7
FIELDS x y z intensities
SIZE 4 4 4 4
TYPE F F F F
COUNT 1 1 1 1
WIDTH 924
HEIGHT 1
VIEWPOINT 0 0 0 1 0 0 0
POINTS 924
DATA ascii
-18.20148849 -5.860397816 -2.017801762 0.9259719253 
-17.9211235 -6.663635254 -2.017616749 0.9259785414 
-16.8685379 -8.98630619 -2.016875029 0.9260047674 
-16.44958305 -9.726301193 -2.016566992 0.9260156155 
-15.05973148 -9.834001541 -1.897982478 0.93021065 
-13.85853004 -10.92269039 -1.862031102 0.9314861894 
-13.35612965 -11.52594471 -1.861642361 0.9315000176 
-12.82736015 -12.1059742 -1.861229539 0.9315146804 
-12.27326679 -12.6616354 -1.860793233 0.931530118 
-10.5805006 -13.06183338 -1.773810744 0.9346237779 
-9.795126915 -13.25718021 -1.739383936 0.9358509779 
-6.686193466 -13.55198669 -1.594646454 0.9410282373 
-5.956996918 -13.56339359 -1.563228369 0.942155838 
-5.254633904 -13.57437992 -1.536004901 0.9431339502 
-3.914397001 -13.59533691 -1.492922664 0.9446840286 
-3.269567728 -13.60541916 -1.476579547 0.9452726841 
-2.015275717 -13.62503433 -1.453414679 0.946107626 
-1.400356412 -13.63465309 -1.44635582 0.9463621974 
-0.7901781797 -13.64419937 -1.442207813 0.9465118647 
-0.1822900325 -13.6537056 -1.440927744 0.9465580583 
4.404362679 -16.99036598 -1.85216105 0.9318367839 
5.892868519 -16.5200386 -1.850855947 0.9318830371 
6.619606972 -16.23592758 -1.850215077 0.9319058061 
7.332761288 -15.91993618 -1.849583507 0.9319283366 
8.029694557 -15.57025814 -1.848662972 0.9319609404 
8.705890656 -15.18285656 -1.846863151 0.9320248961 
7.801196098 -12.30237007 -1.537209153 0.9430906773 
10.00211143 -14.32215309 -1.843407512 0.9321476817 
10.61714554 -13.8471632 -1.841296315 0.932222724 
12.14376163 -14.45785618 -1.992431998 0.9268679023 
12.77119827 -13.89934063 -1.991856337 0.9268881679 
13.37311268 -13.31374454 -1.991299033 0.9269078374 
15.50344944 -10.72472382 -1.989286661 0.9269789457 
15.96164799 -10.02224541 -1.98884654 0.9269945025 
16.38826942 -9.300358772 -1.988432288 0.9270091057 
16.78247833 -8.560459137 -1.988044381 0.9270228148 
17.14356613 -7.804032803 -1.987683773 0.9270355105 
17.47081184 -7.032524109 -1.987351298 0.9270473123 
17.76364136 -6.247448444 -1.987047195 0.9270580411 
18.58049583 -3.002226591 -1.986127138 0.9270906448 
18.69421196 -2.172558546 -1.985973358 0.9270960689 
18.81131363 -0.5023754835 -1.985759854 0.9271035194 
18.78068352 1.171491623 -1.985672235 0.9271066785 
18.27843285 4.478735447 -1.985877514 0.9270993471 
16.45949745 9.148146629 -1.987121701 0.9270554185 
16.03875732 9.872804642 -1.987432241 0.9270445108 
15.58636475 10.57830334 -1.987771153 0.9270325303 
15.103158 11.2632246 -1.98813796 0.9270195961 
14.59007549 11.92629147 -1.98853159 0.9270056486 
14.04808331 12.5661726 -1.988951683 0.9269907475 
9.331464767 9.126111031 -1.377334237 0.9488552213 
8.172190666 8.736676216 -1.262391448 0.9530214667 
11.33590698 13.25467491 -1.840453029 0.9322526455 
10.74627686 13.76029491 -1.842385054 0.9321839809 
6.091717243 8.559539795 -1.108632445 0.9586232901 
8.134329796 15.43447208 -1.841061831 0.932231009 
7.439675331 15.78098679 -1.841055751 0.9322312474 
1.445015788 3.455932617 -0.3952801526 0.9850462675 
6.007996559 16.38072395 -1.841164708 0.9322273731 
5.273702145 16.63280296 -1.841279507 0.93222332 
4.528981686 16.85235596 -1.841434479 0.9322177768 
3.775240421 17.03893661 -1.841629028 0.9322108626 
3.013931751 17.19220352 -1.841863036 0.932202518 
2.246511221 17.31180573 -1.842136025 0.932192862 
0.6992174983 17.44925308 -1.842796564 0.9321692586 
-0.07770629972 17.46672249 -1.843182921 0.9321556091 
-2.404899836 17.32271957 -1.84550035 0.9320732951 
-3.939020872 17.05777359 -1.847380996 0.9320064783 
-3.755407572 8.761537552 -1.005905986 0.9623842239 
-4.231626034 8.772788048 -1.027811527 0.9615809917 
-4.733522892 8.791000366 -1.053596616 0.9606364369 
-9.011044502 15.08629608 -1.854334354 0.9317594767 
-10.95773888 13.77649879 -1.857541561 0.9316456318 
-3.454321146 3.967004299 -0.5550760031 0.979064703 
-3.492807627 3.668117523 -0.5344863534 0.9798334241 
-3.651386738 3.507988214 -0.5343176126 0.9798396826 
-14.25254631 10.43276596 -1.86386466 0.9314210415 
-14.71014404 9.793515205 -1.864830256 0.9313867688 
-15.86263847 7.738645077 -1.862468719 0.9314706922 
-16.1940918 7.026625633 -1.862801194 0.9314587712 
-18.60878181 4.38447237 -2.017448902 0.9259843826 
-18.92845345 2.713706017 -2.017837048 0.9259707332 
-19.03182602 1.869155288 -2.017983437 0.9259655476 
-13.86021709 -0.493637681 -1.463518023 0.945743382 
-13.85622311 -1.11224854 -1.466872215 0.9456224442 
-18.97743034 -2.376857758 -2.018227577 0.9259569049 
-18.85246468 -3.218608379 -2.018177986 0.9259586334 
-18.6898613 -4.053884029 -2.018096209 0.9259615541 
-17.98007202 -6.503972054 -2.017656326 0.9259771705 
-17.32699203 -8.074486732 -2.017204762 0.9259930253 
-16.94825935 -8.836064339 -2.016932964 0.9260029793 
-16.53604889 -9.57981205 -2.016630888 0.9260132909 
-15.35424519 -9.832494736 -1.923995018 0.9292888641 
-13.95576096 -10.79932117 -1.862105846 0.9314835668 
-13.4587841 -11.40708923 -1.861722112 0.9314971566 
-12.9351387 -11.9919138 -1.861313939 0.9315117002 
-12.38602257 -12.55253887 -1.860882163 0.9315269589 
-11.83772659 -13.1158247 -1.86440146 0.9314020872 
-10.67678165 -12.94353485 -1.770574927 0.9347389936 
-9.89729023 -13.14904976 -1.736682892 0.9359473586 
-9.258349419 -13.51175308 -1.728427052 0.9362419248 
-8.408661842 -13.52504349 -1.68056488 0.9379515052 
-6.100578308 -13.56114674 -1.569166422 0.9419426322 
-5.393183708 -13.57221127 -1.541131616 0.9429497123 
-4.709303856 -13.58290482 -1.517033339 0.9438162446 
-1.522905231 -13.63273907 -1.447536469 0.9463196993 
-0.3037646413 -13.65180111 -1.440955162 0.9465571046 
0.3040283024 -13.66130829 -1.4419595 0.946520865 
0.913874507 -13.67084408 -1.445827961 0.9463813305 
2.09407711 -13.33659172 -1.424580336 0.9471480846 
3.492736816 -17.20861816 -1.85295558 0.9318085313 
5.004831314 -16.81809998 -1.851635695 0.9318553805 
5.745983601 -16.57299232 -1.850985169 0.9318785071 
6.475268364 -16.29533577 -1.850342512 0.9319012761 
8.572052956 -15.26270008 -1.847219706 0.9320122004 
9.876022339 -14.41322708 -1.84374404 0.9321358204 
10.49408913 -13.9419775 -1.841408372 0.9322187304 
14.38862228 -12.19519043 -1.990345836 0.926941514 
15.40800285 -10.86280251 -1.989377737 0.9269759655 
15.87245369 -10.16444778 -1.98893261 0.9269914031 
16.30550003 -9.446249962 -1.988512993 0.9270062447 
16.70628357 -8.709768295 -1.988119721 0.9270201921 
17.40812492 -7.187914848 -1.987415552 0.9270449877 
18.20220184 -4.805019379 -1.986573577 0.92707479 
18.75873184 -1.505759239 -1.985873222 0.9270996451 
18.62702751 2.670493126 -1.985702038 0.927105546 
18.49035835 3.496467113 -1.985762715 0.9271034598 
18.10834885 5.126748085 -1.985978961 0.9270958304 
17.86380005 5.927587986 -1.986133814 0.9270902872 
17.26988602 7.493349552 -1.986539125 0.9270756841 
15.20220947 11.12799454 -1.988062382 0.9270222187 
14.69506454 11.79546738 -1.988450766 0.9270085096 
9.468775749 9.096899033 -1.385593414 0.948556602 
9.54597187 13.1634264 -1.715871096 0.9366900325 
8.94677639 14.97883987 -1.841122508 0.9322288632 
4.611245155 8.563903809 -1.026377678 0.9616335034 
1.467386484 3.423481464 -0.3930470049 0.9851301312 
6.153436184 16.32648468 -1.841146469 0.9322279692 
3.926674604 17.00427246 -1.841587067 0.9322123528 
2.400454044 17.29059219 -1.842078328 0.9321948886 
1.629118562 17.38312531 -1.842381954 0.9321841002 
0.07136107981 16.04249763 -1.692889333 0.937510848 
-3.021098614 17.23309135 -1.846242189 0.9320468903 
-3.786711454 17.09036636 -1.847188115 0.9320133328 
-4.545529842 16.91396523 -1.848163724 0.9319785833 
-6.036996841 16.45983315 -1.850055099 0.9319115281 
-4.134694576 8.770500183 -1.02319181 0.9617503285 
-8.187478065 15.53515816 -1.853074908 0.9318042397 
-10.83349133 13.8718605 -1.857327938 0.9316532016 
-3.496674776 4.088576794 -0.5677078366 0.9785934091 
-3.620153666 3.540512562 -0.5343394279 0.9798388481 
-14.15765572 10.55812263 -1.86367166 0.931427896 
-14.62089539 9.922953606 -1.864637256 0.9313937426 
-15.46096897 8.593070984 -1.866564035 0.9313251972 
-16.43605232 6.446681976 -1.863048077 0.9314501286 
-18.75460434 3.719726562 -2.017619371 0.9259784222 
-18.90324402 2.881958008 -2.017803907 0.9259719253 
-19.0141716 2.038459539 -2.017956734 0.9259665012 
-13.8690033 0.8651171923 -1.466362596 0.9456408024 
-13.85702133 -0.9883154035 -1.465969086 0.9456550479 
-18.53290749 -4.71634531 -2.01800704 0.9259647131 
-18.30349159 -5.535620213 -2.01786685 0.9259697199 
-17.73576546 -7.139167309 -2.017490864 0.9259829521 
-17.39856148 -7.920182705 -2.017255545 0.9259912968 
-16.62112236 -9.43260479 -2.016693592 0.9260111451 
-14.05187988 -10.67508316 -1.862179637 0.9314810038 
-13.56031227 -11.28736782 -1.86180079 0.9314943552 
-12.49785614 -12.44238472 -1.860970378 0.9315238595 
-11.96262455 -13.01943302 -1.865754247 0.9313540459 
-10.07960415 -13.14619637 -1.748080969 0.9355407953 
-8.57479763 -13.52244091 -1.689656138 0.9376265407 
-7.761113167 -13.53518009 -1.646437287 0.9391723275 
-6.986374378 -13.54729939 -1.60847342 0.9405323863 
-4.176555157 -13.59123516 -1.500396252 0.944414854 
-3.525851965 -13.60141087 -1.482721567 0.9450513721 
-2.888950109 -13.61137676 -1.468327403 0.9455699921 
-2.263183594 -13.62116623 -1.457069397 0.9459758401 
-1.645602942 -13.63082027 -1.448828101 0.9462730289 
-1.033884287 -13.64038563 -1.4435215 0.946464479 
1.36863029 -13.32524872 -1.413536787 0.9475468397 
3.339724064 -17.24023819 -1.853088498 0.9318038225 
4.855349064 -16.86315918 -1.851766586 0.9318506718 
5.598625183 -16.62464333 -1.85111475 0.9318739176 
6.330471039 -16.35341835 -1.850470424 0.9318968058 
7.049157619 -16.05013657 -1.849835038 0.9319193959 
8.437487602 -15.34136677 -1.847577929 0.9319995046 
9.749147415 -14.503232 -1.844082594 0.9321237206 
10.37029552 -14.03565884 -1.841520786 0.9322146177 
12.52322769 -14.12604904 -1.992084503 0.9268801212 
13.13555145 -13.55110836 -1.99151969 0.9269000292 
13.72152042 -12.94987011 -1.990973592 0.9269194007 
15.31154251 -10.99996281 -1.989469528 0.9269724488 
15.78207016 -10.30569553 -1.989019632 0.9269884229 
16.22146606 -9.591330528 -1.98859477 0.9270033836 
17.34398079 -7.342900276 -1.987480998 0.9270427227 
17.92254639 -5.770580769 -1.986878753 0.9270640016 
18.52478981 -3.332553625 -1.986197352 0.9270880818 
18.74481964 -1.672639132 -1.985895991 0.9270988107 
18.79970932 -0.8370239139 -1.985792518 0.927102387 
18.7986145 0.8371386528 -1.985679746 0.9271064401 
18.74269485 1.672453523 -1.985670686 0.9271067381 
18.64994812 2.504645824 -1.985693574 0.9271059036 
18.15304565 4.965219498 -1.985951662 0.9270967245 
17.91553116 5.768324852 -1.986100435 0.9270914793 
17.33535576 7.339238167 -1.986492753 0.9270777106 
16.99379539 8.104039192 -1.986735463 0.9270691872 
16.61874199 8.853240013 -1.987005591 0.9270595312 
16.21102524 9.585110664 -1.987304449 0.9270486832 
15.77106857 10.29850578 -1.987632275 0.9270374179 
15.30014038 10.99176502 -1.987987757 0.9270247817 
13.70940876 12.9384203 -1.989216089 0.9269815087 
12.12420654 12.50796318 -1.838202357 0.9323326349 
11.56529045 13.04550171 -1.839702845 0.9322792888 
10.38188934 14.05134201 -1.843581319 0.9321414828 
9.079888344 14.89870071 -1.841138244 0.9322282672 
4.708740234 8.561603546 -1.031082392 0.9614610672 
6.298530102 16.27089119 -1.841129899 0.9322285652 
4.828088284 16.76844788 -1.841367722 0.932220161 
3.319329739 17.13491249 -1.841764808 0.9322059751 
1.009577632 17.43265915 -1.84265244 0.9321744442 
0.2141369581 16.04465485 -1.693253279 0.9374979734 
-2.700624943 16.25399399 -1.738705516 0.9358751178 
-3.633986712 17.12164497 -1.846996427 0.9320200682 
-4.394389629 16.95188713 -1.847966313 0.9319857955 
-5.146672249 16.74818802 -1.84890759 0.9319522977 
-4.038674355 8.768227577 -1.01869452 0.9619152546 
-8.047904968 15.60571289 -1.852867365 0.9318115711 
-8.739115715 15.24079514 -1.853911757 0.9317745566 
-10.70842552 13.96608162 -1.857114792 0.9316607714 
-11.32555103 13.48372078 -1.85818553 0.9316227436 
-3.438618183 3.742331505 -0.5362991095 0.9797657132 
-3.753911018 3.418525219 -0.5357701182 0.9797854424 
-3.925331831 3.267377853 -0.538939178 0.9796671271 
-14.06167698 10.68254089 -1.863478661 0.9314348698 
-14.53044605 10.05172825 -1.864443898 0.9314005375 
-14.9709959 9.400229454 -1.865409017 0.9313662052 
-15.38224316 8.72951889 -1.866371751 0.9313319921 
-17.24337769 6.064560413 -1.928854346 0.9291166663 
-18.29658318 5.533527851 -2.017102957 0.9259966016 
-18.52698517 4.714665413 -2.017356396 0.9259876013 
-18.8765564 3.049973011 -2.017769575 0.9259730577 
-13.86580086 0.3703027368 -1.463700414 0.9457367063 
-13.85781956 -0.8644018173 -1.465181351 0.9456834793 
-14.0578537 -1.507097125 -1.491947889 0.9447191358 
-18.90696716 -2.882521868 -2.01820159 0.9259579182 
-18.75938416 -3.720680952 -2.018132925 0.9259603024 
-18.09369087 -6.183105469 -2.017731667 0.9259744287 
-17.10390854 -8.533513069 -2.017045498 0.9259985685 
-16.70491409 -9.28461647 -2.016755342 0.9260089397 
-14.60485363 -9.912248611 -1.862600684 0.9314659834 
-14.1468792 -10.55008316 -1.862252355 0.9314782619 
-13.66075611 -11.16673565 -1.861878514 0.931491673 
-13.14772892 -11.76079559 -1.861480117 0.9315057993 
-11.22526836 -13.12541485 -1.822499394 0.9328908324 
-10.26453114 -13.14330769 -1.759783387 0.9351236224 
-9.612206459 -13.5062151 -1.749326706 0.9354963303 
-8.742912292 -13.51981926 -1.698989391 0.9372929931 
-7.138559341 -13.54491711 -1.61567378 0.9402742982 
-6.391017914 -13.55660629 -1.581553102 0.9414979815 
-3.654758215 -13.59939957 -1.485988736 0.9449337125 
-3.015312433 -13.60939884 -1.470950842 0.9454754591 
-2.387565851 -13.6192131 -1.459076166 0.9459034801 
0.06075683609 -13.65750504 -1.441215158 0.9465477467 
0.6695458889 -13.66701603 -1.443934917 0.9464496374 
1.24864006 -13.32337379 -1.412102342 0.9475986362 
3.186296225 -17.27054596 -1.853221893 0.9317990541 
3.778962374 -16.36467171 -1.77231729 0.9346769452 
5.45087862 -16.6749649 -1.85124445 0.9318692684 
6.18500948 -16.41027832 -1.850598574 0.9318922758 
7.613994122 -15.78476524 -1.849333763 0.9319371581 
8.302282333 -15.41883278 -1.847937703 0.9319866896 
10.86059761 -13.65436935 -1.841074347 0.9322305918 
12.39778042 -14.23773384 -1.99219954 0.9268760681 
13.01508713 -13.66831017 -1.991631269 0.9268960953 
13.60650349 -13.07215309 -1.991081357 0.9269155264 
15.21367168 -11.13639355 -1.98956275 0.9269692302 
15.69045639 -10.4461689 -1.98910749 0.9269852638 
16.54986763 -9.006482124 -1.988273859 0.9270147085 
17.27854156 -7.497170448 -1.987547398 0.9270403981 
17.59211349 -6.719968319 -1.987226248 0.9270517826 
17.87097931 -5.929970741 -1.986933708 0.9270620942 
18.11469841 -5.128386021 -1.986670494 0.9270713925 
18.32274628 -4.317075253 -1.986437201 0.9270795584 
18.72942543 -1.839365244 -1.98592031 0.9270979166 
18.79165459 -1.004421353 -1.985810757 0.9271018505 
18.81700706 -0.1674218774 -1.985732198 0.9271045327 
18.8053875 0.6696947813 -1.985685229 0.9271062016 
18.54937172 3.166870117 -1.985734701 0.9271045327 
18.39089966 3.988959789 -1.985814452 0.9271016717 
18.19625282 4.803452015 -1.985925674 0.9270977378 
17.96588898 5.608451843 -1.986068249 0.9270926714 
17.06482315 7.952316761 -1.98668468 0.9270709157 
15.8615427 10.157444 -1.987564445 0.9270397425 
15.39675045 10.85480785 -1.987914562 0.9270274043 
14.90143108 11.5312109 -1.988292217 0.9270140529 
14.37671375 12.18509769 -1.988696575 0.9269997478 
13.82337379 12.81538296 -1.98912704 0.9269846082 
9.039456367 9.160889626 -1.358072758 0.9495517015 
7.666814804 8.494588852 -1.207493901 0.9550176859 
11.1028223 13.45992184 -1.841216207 0.9322254658 
9.549168587 13.93605042 -1.782706261 0.93430686 
8.543645859 15.2119627 -1.841084838 0.9322302341 
7.858309269 15.57673931 -1.84105444 0.9322312474 
1.528586388 3.397978544 -0.3931799233 0.9851251245 
6.442980766 16.21407127 -1.841115117 0.9322291017 
5.715565205 16.48545456 -1.841205716 0.932225883 
4.977003098 16.72456169 -1.841336608 0.9322212338 
4.228421688 16.9309864 -1.841507554 0.9322151542 
3.471563578 17.10425758 -1.841717958 0.9322077036 
2.707557201 17.24410439 -1.841967583 0.9321988225 
1.164589763 17.4223156 -1.842582464 0.9321770072 
-0.3886669874 17.46411514 -1.843347907 0.9321498275 
-1.941003323 17.37552643 -1.844945788 0.9320929646 
-2.570563793 16.37164116 -1.748774052 0.935516119 
-3.474299192 17.11775398 -1.843170166 0.932156086 
-4.242805004 16.98856735 -1.847769856 0.93199265 
-5.741960526 16.56117058 -1.849668503 0.9319252968 
-4.428127289 8.777434349 -1.037427068 0.9612286687 
-8.602199554 15.31621075 -1.853701472 0.9317820072 
-9.280236244 14.92694569 -1.854759812 0.9317444563 
-11.20384026 13.58238697 -1.857970595 0.931630373 
-3.557033539 3.604826689 -0.5344082713 0.9798363447 
-13.96455574 10.80623531 -1.863285661 0.9314416647 
-14.43896198 10.17956734 -1.864250898 0.9314073324 
-15.30237484 8.865104675 -1.866179466 0.9313389063 
-15.64864445 8.158376694 -1.862256885 0.9314782023 
-15.99902058 7.455646992 -1.862604737 0.9314658642 
-16.31768608 6.737673283 -1.862926722 0.9314544201 
-18.68469048 4.052688122 -2.01753664 0.9259812832 
-18.84830093 3.21790266 -2.017733812 0.925974369 
-13.862607 -0.1233349591 -1.462902904 0.9457656145 
-13.85861588 -0.7407445908 -1.464510798 0.9457076192 
-13.85632515 -1.360783696 -1.469216108 0.945538044 
-18.93197632 -2.714206457 -2.018211603 0.9259575009 
-18.61435318 -4.385781288 -2.018054247 0.9259630442 
-18.39966011 -5.209218502 -2.017926931 0.9259675145 
-18.14831543 -6.021992207 -2.017767429 0.925973177 
-17.86073685 -6.822743893 -2.017575979 0.9259799719 
-16.78744125 -9.135773659 -2.016815662 0.926006794 
-13.25243092 -11.6438694 -1.861561656 0.9315028787 
-11.42647457 -13.12226486 -1.836120009 0.9324066639 
-10.45178223 -13.140378 -1.771771908 0.9346963763 
-9.792355537 -13.50340271 -1.760178685 0.9351094961 
-8.912732124 -13.51716232 -1.708552241 0.9369513988 
-8.081486702 -13.53017044 -1.663056612 0.9385775328 
-7.291986942 -13.5425148 -1.623062611 0.9400095344 
-6.537958622 -13.5543108 -1.588007569 0.9412663579 
-4.44148922 -13.58709431 -1.508430719 0.9441257119 
-3.14226079 -13.60741711 -1.473703027 0.945376277 
-2.512290001 -13.61727047 -1.461205602 0.9458267689 
-1.891826153 -13.62696743 -1.451769948 0.9461669922 
-1.277995586 -13.63656712 -1.445296645 0.9464004636 
-0.6685278416 -13.64609814 -1.441723704 0.9465293288 
4.317680359 -16.06614685 -1.755524993 0.9352753162 
6.039186954 -16.46580505 -1.850727201 0.9318876266 
7.473630428 -15.85302734 -1.849458575 0.9319326282 
7.907238483 -12.22757816 -1.536595583 0.9431126714 
10.12000942 -14.21978474 -1.84174788 0.9322066903 
12.89366913 -13.78432083 -1.991743445 0.926892221 
13.49029064 -13.19352055 -1.991189957 0.9269117117 
14.06010437 -12.57691669 -1.990655303 0.926930666 
14.60195732 -11.93589783 -1.990144491 0.9269486666 
15.11488247 -11.27185726 -1.989657283 0.9269653559 
15.59759712 -10.58582783 -1.989196539 0.9269821048 
16.04950142 -9.879416466 -1.988761544 0.9269974828 
16.46975136 -9.153747559 -1.988352418 0.9270118475 
17.53211784 -6.876589298 -1.987288117 0.9270495772 
18.06875229 -5.289631367 -1.9867208 0.927069664 
18.71255112 -2.006120443 -1.985946178 0.9270970225 
18.78217888 -1.171581984 -1.985830069 0.9271010756 
18.81491089 -0.3349902332 -1.985745311 0.9271039963 
18.81066513 0.5023534894 -1.985692143 0.9271059632 
18.69147682 2.172238827 -1.985680699 0.9271063209 
17.75606155 6.244870663 -1.986204505 0.9270878434 
17.46248245 7.029169559 -1.986403108 0.9270808101 
15.00294685 11.39759254 -1.988214374 0.9270168543 
13.93633747 12.69121552 -1.989038825 0.926987648 
11.79086399 12.83250713 -1.838965893 0.9323055148 
11.21978283 13.35781002 -1.840833068 0.9322391748 
9.529706001 12.42900085 -1.652719259 0.9389477372 
9.98916626 14.30331802 -1.841017842 0.9322333932 
9.343640327 14.73492622 -1.841153026 0.9322276711 
5.125518799 16.67935181 -1.841307282 0.9322222471 
4.378946304 16.89230537 -1.841470122 0.9322165251 
3.623510599 17.07228661 -1.841672778 0.9322092533 
2.860936165 17.2188015 -1.841914535 0.9322007298 
1.319652081 17.41061401 -1.842514157 0.9321793914 
-0.2332604975 17.46611214 -1.843264699 0.9321526885 
-1.010241628 17.44421196 -1.843873739 0.932131052 
-1.786164522 17.39039803 -1.844763756 0.932099402 
-2.559179544 17.3023777 -1.845687628 0.932066679 
-3.328068733 17.18002701 -1.846616983 0.9320337176 
-5.593678951 16.60992813 -1.849476576 0.9319320917 
-6.314975262 16.31337929 -1.845938087 0.9320577383 
-3.849008799 8.763747215 -1.010052323 0.9622321725 
-4.832697868 8.786987305 -1.058227062 0.9604668617 
-9.146019936 15.00720215 -1.854546785 0.9317519665 
-9.810138702 14.59397411 -1.855618238 0.9317138791 
-10.45571041 14.15126419 -1.856690049 0.9316758513 
-11.08116436 13.68006039 -1.857755661 0.9316379428 
-3.44026351 3.880568743 -0.5472454429 0.9793570042 
-3.525102377 3.636623383 -0.534450531 0.9798347354 
-3.683789015 3.47663331 -0.5345115662 0.9798324108 
-3.857458353 3.328845024 -0.5376681685 0.9797145724 
-14.34631062 10.30655289 -1.864057899 0.9314143062 
-15.61458492 8.318300247 -1.866947412 0.9313117266 
-15.93147182 7.59742403 -1.862537384 0.9314682484 
-16.25648308 6.882490158 -1.862864494 0.9314566851 
-18.43922234 5.043490887 -2.017258644 0.9259910583 
-18.6474514 4.218828201 -2.017493486 0.9259828925 
-18.95213509 2.545234203 -2.017868757 0.9259696603 
-14.05711842 1.254350543 -1.489263773 0.9448157549 
-13.86739731 0.617426753 -1.464797139 0.9456971884 
-13.86339569 4.882812391e-06 -1.591207981 0.9457115531 
-13.85540295 -1.23635006 -1.59660697 0.9455323815 
-17.41580963 -2.338837862 -2.016888142 0.9316946864 
-17.29407501 -3.111169338 -2.016836882 0.9316964149 
-16.94747925 -4.635507584 -2.016644478 0.9317027926 
-16.72334671 -5.384423733 -2.016504049 0.9317073226 
-16.46589279 -6.122492313 -2.016334295 0.9317128658 
-16.17564964 -6.848212719 -2.016135454 0.9317193627 
-15.85321045 -7.56013155 -2.015908241 0.9317268133 
-15.49925709 -8.256833076 -2.015652895 0.9317350984 
-14.69973087 -9.598908424 -2.015060425 0.9317544699 
-13.6581831 -9.812231064 -1.930263877 0.9345301986 
-12.27285099 -10.59109592 -1.860651016 0.9368150234 
-11.78717709 -11.12427998 -1.860271811 0.9368274808 
-11.27821732 -11.6350975 -1.859871149 0.9368406534 
-10.22056103 -12.61751175 -1.86371839 0.936714232 
-9.057287216 -13.47390079 -1.863431692 0.9367235899 
-5.957021236 -13.56337833 -1.700302958 0.9420992732 
-5.254650593 -13.57436943 -1.670692444 0.9430783391 
-4.575007439 -13.58499527 -1.645298243 0.9439188242 
-3.269579887 -13.60541439 -1.606055737 0.9452190995 
-2.015278339 -13.62502384 -1.580861211 0.9460548162 
-0.182282716 -13.65369606 -1.567277551 0.9465057254 
0.4257275164 -13.66319752 -1.568990946 0.9464488626 
1.026828647 -13.54805183 -1.559471965 0.946764946 
2.646911621 -15.93102551 -1.853591323 0.9370470643 
3.351862669 -15.79228973 -1.852978945 0.9370671511 
5.418688774 -15.19081497 -1.851170421 0.9371266365 
6.743127346 -14.63982391 -1.850000143 0.9371650815 
7.381320477 -14.31303215 -1.848405361 0.937217474 
7.989675045 -13.9338131 -1.843549013 0.9373771548 
7.801271915 -12.30250454 -1.672020078 0.9430344105 
9.191052437 -13.1607933 -1.842464089 0.937412858 
12.82954597 -11.68338871 -1.99164331 0.9325201511 
13.33340836 -11.09847164 -1.991169691 0.9325356483 
14.26076126 -9.865139008 -1.990291715 0.9325643778 
14.68248272 -9.219120979 -1.989886761 0.9325776696 
15.07517815 -8.55521965 -1.98950541 0.932590127 
15.43806076 -7.874726295 -1.989148498 0.9326017499 
15.77044201 -7.178994179 -1.988816619 0.9326126575 
16.07170868 -6.469367504 -1.98851037 0.9326226115 
16.34127235 -5.74722147 -1.988230586 0.9326318502 
16.57865524 -5.013979435 -1.987977386 0.9326400757 
16.78336143 -4.271052361 -1.987751603 0.9326475263 
16.95506477 -3.51989007 -1.987553477 0.932653904 
17.0933857 -2.761935949 -1.987383485 0.9326595068 
17.30595589 -0.4621582031 -1.98704505 0.9326706529 
17.30906487 0.3079833984 -1.986990452 0.932671845 
17.21283722 1.845290542 -1.986968517 0.9326730967 
17.11399651 2.60920167 -1.987001181 0.9326720238 
16.61671257 4.864513874 -1.987273574 0.9326631427 
15.82565117 7.034780025 -1.987803578 0.9326457381 
15.14155483 8.415625572 -1.988299847 0.9326294661 
14.75432301 9.082152367 -1.98858583 0.9326201677 
13.42103863 10.97070312 -1.989597678 0.9325870872 
11.93984985 10.68035221 -1.838699937 0.9375366569 
9.883657455 12.65568829 -1.843073964 0.9373927712 
8.718577385 13.48226452 -1.84283185 0.9374007583 
8.109848022 13.85614204 -1.842751861 0.9374034405 
5.528563023 15.07354736 -1.842803717 0.9374017119 
4.852852821 15.30545139 -1.842909455 0.9373981953 
2.316076517 8.618116379 -1.024264693 0.9647078514 
1.911597848 8.627672195 -1.014278889 0.9650458097 
1.514147878 8.637063026 -1.006458521 0.9653105736 
2.061910391 15.88930416 -1.839027643 0.9375258684 
1.356694341 16.00833511 -1.843985081 0.9373629093 
0.6433605552 16.05563164 -1.844306588 0.9373522997 
-0.4253491163 8.682873726 -0.9977934957 0.9656040072 
-1.207983375 8.701361656 -1.008298397 0.9652482271 
-1.607099533 8.710790634 -1.016676664 0.9649646282 
-3.623705864 15.69241142 -1.848535061 0.9372132421 
-5.008947849 15.32310772 -1.850328803 0.9371542335 
-6.357189655 14.83163738 -1.852126122 0.9370952249 
-8.287453651 13.87485313 -1.854974627 0.9370015264 
-8.901159286 13.49958706 -1.855957389 0.9369693398 
-3.175046206 3.991789579 -0.5854243636 0.9796733856 
-3.304726601 3.470576048 -0.5500475764 0.9808899164 
-3.397394896 3.263981819 -0.5407444835 0.981210053 
-3.558703423 3.126733303 -0.5437213182 0.9811076522 
-3.772207022 3.027900219 -0.5551921129 0.9807128906 
-13.52358627 9.003561974 -1.864742041 0.9366805553 
-13.9173193 8.397057533 -1.8656286 0.9366514087 
-14.87985325 6.456381798 -1.861715317 0.9367800355 
-16.89980507 4.784518719 -2.015958786 0.931725204 
-17.26171112 3.264208794 -2.016372681 0.9317116737 
-13.86818314 0.7412426472 -1.594030142 0.9456179738 
-13.85620117 -1.11221683 -1.595496058 0.9455692768 
-17.17185211 -3.724601984 -2.016774178 0.9316985011 
-16.77086639 -5.235468864 -2.016534567 0.9317063093 
-16.52001381 -5.975815296 -2.016370535 0.9317117333 
-15.92026043 -7.418940067 -2.015955925 0.9317251444 
-15.57253361 -8.118774414 -2.015706301 0.9317333698 
-15.19386482 -8.80225563 -2.015428782 0.9317424893 
-13.91571712 -9.81069088 -1.954244018 0.9337443709 
-12.82356167 -9.923219681 -1.861076713 0.9368010759 
-6.83566618 -13.54964352 -1.74189496 0.9407257438 
-5.393188477 -13.57220173 -1.676267982 0.9428939223 
-4.709291935 -13.58289528 -1.650054097 0.9437613487 
-2.139057636 -13.62309551 -1.582781672 0.9459910393 
-1.522883296 -13.63272476 -1.574463964 0.9462671876 
-0.9119506478 -13.64227962 -1.569322824 0.9464378357 
0.913850069 -13.670825 -1.572605371 0.9463288188 
1.488737702 -13.32711887 -1.539169908 0.9474394917 
3.211401224 -15.82253838 -1.853101134 0.9370631576 
5.95437479 -14.98450184 -1.850698233 0.9371421933 
7.255617619 -14.38206959 -1.848910213 0.9372009635 
7.865819931 -14.00519943 -1.843660593 0.9373735189 
9.074103355 -13.24282455 -1.842569947 0.9374093413 
9.651452065 -12.82240677 -1.842045069 0.9374266863 
10.2094698 -12.37697506 -1.841536164 0.937443316 
11.6326828 -12.88861561 -1.992758393 0.9324837327 
12.19134521 -12.35518551 -1.992239833 0.9325006008 
12.72567844 -11.79768276 -1.991740584 0.9325169921 
13.23471165 -11.21721935 -1.991262794 0.9325326085 
13.71747017 -10.61494637 -1.990807772 0.9325475097 
14.1730051 -9.992084503 -1.990375519 0.932561636 
14.9990015 -8.689370155 -1.989579678 0.9325876832 
15.70642567 -7.319294453 -1.988880873 0.9326105714 
16.01395798 -6.612338543 -1.988569617 0.9326207638 
16.28991699 -5.89257288 -1.988284469 0.9326300621 
16.53378105 -5.161457539 -1.988025904 0.9326384664 
16.74504852 -4.420341492 -1.987794638 0.9326460958 
16.92336464 -3.670702934 -1.987590909 0.9326527715 
17.06840324 -2.913989305 -1.987415314 0.9326584935 
17.17986298 -2.151677132 -1.987267971 0.9326633215 
17.25752449 -1.385246515 -1.987149358 0.9326672554 
17.30130005 -0.6161718369 -1.987059474 0.9326701164 
17.31122971 0.1538867205 -1.986999273 0.9326714277 
17.2285614 1.692026377 -1.986965418 0.9326731563 
17.1364727 2.456772327 -1.98699224 0.9326723218 
17.01069832 3.216726065 -1.987048268 0.9326704741 
16.85147667 3.970427275 -1.987133384 0.9326677322 
15.56672287 7.594284534 -1.987990379 0.9326395988 
15.21541309 8.280296326 -1.988245845 0.9326313734 
14.83410931 8.95020771 -1.988526583 0.9326221347 
14.42354202 9.602718353 -1.988833308 0.9326120019 
13.51764584 10.85041618 -1.989523292 0.9325895309 
9.468653679 9.096847534 -1.507078528 0.9485065937 
8.451324463 8.875452995 -1.406660676 0.9518535733 
9.510360718 10.92186546 -1.66223228 0.9433583021 
9.995476723 12.56655025 -1.842995524 0.9373957515 
9.42647171 12.99873543 -1.842976689 0.9373959899 
7.611394882 14.13572598 -1.842714667 0.9374046326 
4.988803387 15.26144123 -1.842885375 0.9373990297 
1.991871238 8.625778198 -1.016100526 0.9649841785 
1.593157887 8.635193825 -1.007854104 0.9652633667 
1.499067307 15.99508858 -1.843924999 0.9373649359 
0.7861791849 16.04870033 -1.844239593 0.9373545051 
-1.526738286 8.708891869 -1.014828205 0.9650271535 
-3.483571768 15.72253609 -1.848357677 0.9372190833 
-4.181535721 15.55954838 -1.8492558 0.937189579 
-4.871926308 15.36560059 -1.850154281 0.9371600151 
-5.553271294 15.14089108 -1.851036787 0.9371310472 
-6.883800983 14.60183048 -1.852869272 0.9370708466 
-7.530375957 14.28846359 -1.853815556 0.9370396733 
-8.162790298 13.94658947 -1.85477972 0.9370079637 
-8.779733658 13.57683086 -1.855759859 0.9369757771 
-9.38000679 13.17989731 -1.856753826 0.9369431138 
-3.180158615 4.072087288 -0.5930263996 0.9794121981 
-3.200266123 3.741965294 -0.5651431084 0.9803706408 
-3.516560078 3.145612717 -0.5415390134 0.981182754 
-3.729179621 3.048330069 -0.5528298616 0.9807941318 
-4.015771389 2.994780302 -0.5749778748 0.9800325036 
-13.44164276 9.12269783 -1.864564657 0.936686337 
-13.84071541 8.51977253 -1.865451455 0.9366572499 
-14.17221451 7.876852989 -1.86101234 0.9368031025 
-14.82132244 6.588344574 -1.861656189 0.9367820024 
-15.51744843 6.086359501 -1.913155794 0.9350911379 
-16.85619354 4.934616566 -2.015911102 0.9317266345 
-17.46993637 1.872841716 -2.016646147 0.9317026138 
-13.86898422 0.8651269078 -1.594940662 0.945587635 
-13.86100101 -0.3701538146 -1.591498494 0.9457018375 
-17.34691048 -2.802892923 -2.016860962 0.9316956997 
-16.57283592 -5.828659534 -2.016405582 0.9317105412 
-16.29564857 -6.559506893 -2.016218424 0.9317166209 
-15.98600292 -7.277123928 -2.016002417 0.9317237139 
-15.27203083 -8.666935921 -2.015486479 0.931740582 
-12.46039295 -10.37179661 -1.860796571 0.9368101954 
-10.44275379 -12.43270206 -1.863583207 0.9367186427 
-9.881049156 -12.88711166 -1.863901377 0.9367082715 
-8.574846268 -13.52242661 -1.837818861 0.9375656843 
-6.986423016 -13.54728031 -1.749516845 0.9404742718 
-4.844374657 -13.58077621 -1.654970765 0.943598628 
-3.525822639 -13.60140133 -1.61273706 0.9449976087 
-2.888959885 -13.61136723 -1.597080231 0.9455167055 
-1.645620108 -13.63080502 -1.575871229 0.9462204576 
-0.4253100455 -13.64989185 -1.567461491 0.9464996457 
0.1823608428 -13.65939426 -1.567932725 0.9464840293 
1.368566871 -13.32523918 -1.537483931 0.9474954605 
1.972319245 -13.3346777 -1.547173023 0.9471734762 
3.070661545 -15.85153294 -1.853223562 0.937059164 
3.771516085 -15.694067 -1.852613449 0.9370792508 
4.464445591 -15.50570774 -1.852007985 0.9370990992 
5.148108006 -15.28682137 -1.851408362 0.9371187687 
6.482287407 -14.75936031 -1.850231409 0.9371575117 
7.129272461 -14.44999504 -1.849410534 0.937184453 
7.752385139 -14.09559536 -1.846405864 0.9372833371 
12.08150864 -12.46381569 -1.992342234 0.9324973822 
12.62079525 -11.91105652 -1.991838694 0.9325137734 
13.13497734 -11.33508968 -1.991356611 0.9325295687 
14.51724529 -9.479743004 -1.990045905 0.9325724244 
14.92164803 -8.822844505 -1.989654899 0.9325851798 
15.29651833 -8.148835182 -1.98928833 0.9325972199 
15.64118385 -7.45902586 -1.988946319 0.9326084256 
16.23727989 -6.037489891 -1.988339305 0.932628274 
17.16026115 -2.304531097 -1.987295151 0.9326624274 
17.29523659 -0.7701147199 -1.98707521 0.9326696992 
17.2429142 1.538637638 -1.98696363 0.9326732755 
17.15758514 2.304167509 -1.986984611 0.9326725602 
16.70024872 4.567890644 -1.987222195 0.932664752 
16.48164558 5.306606293 -1.987359166 0.9326603413 
16.2306366 6.035021782 -1.987524509 0.9326548576 
14.91271687 8.817586899 -1.988468289 0.9326241016 
14.5079298 9.473655701 -1.988769889 0.9326142073 
14.07446671 10.11130619 -1.989097238 0.9326034784 
13.61315918 10.72929668 -1.989449739 0.9325919151 
12.12568378 10.4641037 -1.838340998 0.9375485182 
11.65632629 11.00078869 -1.839620471 0.9375063777 
11.16512012 11.51842022 -1.841219306 0.9374538064 
10.65136719 12.01463127 -1.842896581 0.9373986721 
8.355303764 13.7098217 -1.842779517 0.9374024868 
5.795865536 14.97250462 -1.842771769 0.9374027848 
2.480246544 8.614242554 -1.028887749 0.9645513892 
1.672391295 8.633323669 -1.009333014 0.9652132392 
2.35020256 15.8894434 -1.843593597 0.9373757243 
0.214530021 16.06892967 -1.844516158 0.9373453856 
-4.042517185 15.59462643 -1.849074006 0.9371955395 
-4.734536171 15.40690899 -1.849980712 0.9371657372 
-5.417768478 15.18825436 -1.85085845 0.9371368885 
-6.752902508 14.66104698 -1.852682352 0.9370769262 
-4.539099216 8.80173111 -1.13667357 0.9609114528 
-8.657653809 13.65298557 -1.855562568 0.9369822145 
-3.181850433 3.788176298 -0.5678226948 0.980278492 
-3.686318159 3.06842041 -0.5505021811 0.9808742404 
-3.902321577 2.964577675 -0.562489152 0.9804618955 
-13.35864449 9.241062164 -1.864387035 0.9366922379 
-14.10102272 8.002372742 -1.860942841 0.9368054271 
-14.44566154 7.368525028 -1.861281276 0.936794281 
-14.76162529 6.719770432 -1.861595988 0.9367839694 
-15.15263653 6.099423885 -1.874796987 0.9363502264 
-16.56625175 5.826333046 -2.015601873 0.9317367673 
-16.81119919 5.084289551 -2.015862465 0.9317282438 
-17.02267838 4.331940651 -2.016094923 0.931720674 
-17.20027351 3.570791006 -2.016299009 0.9317139983 
-17.45233917 2.028229952 -2.016620398 0.9317035079 
-13.86978722 0.989177227 -1.595983386 0.945553124 
-13.85780716 -0.864440918 -1.593655944 0.945630312 
-17.3712616 -2.648425341 -2.016871214 0.9316952825 
-17.0658226 -4.18157196 -2.016714811 0.9317003489 
-16.62452126 -5.681035042 -2.016439676 0.9317087531 
-16.05049515 -7.134736061 -2.016047955 0.9317222238 
-15.7153635 -7.840739727 -2.015809536 0.931730032 
-14.45053482 -9.807404518 -2.004513741 0.9320992231 
-12.08145523 -10.80699158 -1.860502124 0.9368198514 
-11.06834698 -11.83294392 -1.85970521 0.936846137 
-10.55256557 -12.33880138 -1.863511562 0.9367210269 
-9.995029449 -12.79828358 -1.863843083 0.9367101192 
-9.415219307 -13.22935963 -1.863721013 0.9367141128 
-7.138520241 -13.54490662 -1.757346034 0.9402160645 
-4.980270863 -13.57865715 -1.660046101 0.9434306026 
-4.308664322 -13.58916473 -1.636253953 0.9442182779 
-3.654762983 -13.59938908 -1.616289735 0.9448798299 
-2.387556076 -13.6192131 -1.587018847 0.9458504915 
-1.768591285 -13.62888622 -1.577407479 0.9461694956 
-0.5468676686 -13.64798832 -1.567739367 0.946490407 
0.0607836917 -13.65749454 -1.567588806 0.9464953542 
0.6695141196 -13.66700649 -1.570546746 0.9463971853 
1.248664498 -13.32336426 -1.53592515 0.9475473166 
2.929650784 -15.87928677 -1.853345871 0.9370551109 
5.012204647 -15.33301258 -1.851527691 0.9371148944 
5.687482834 -15.0900383 -1.850933671 0.9371343851 
8.235407829 -13.78772926 -1.84332788 0.9373844862 
9.422746658 -12.99362564 -1.842253566 0.9374198914 
9.988630295 -12.55810547 -1.841737986 0.9374367595 
11.402668 -13.09498978 -1.992970586 0.9324768186 
11.97074413 -12.5715065 -1.99244523 0.9324939251 
12.51492882 -12.02348804 -1.991937637 0.9325105548 
13.03420353 -11.45207977 -1.991451383 0.9325264692 
14.84309292 -8.955644608 -1.989731193 0.932582736 
15.22394276 -8.284912109 -1.989359736 0.932594955 
16.1833744 -6.181931019 -1.988395333 0.9326263666 
16.8560257 -3.97150135 -1.987668991 0.9326501489 
17.01439857 -3.217448711 -1.987482071 0.9326563478 
17.31122971 -0.1540576071 -1.98701942 0.9326714277 
17.25590515 1.38511467 -1.986963034 0.9326733351 
17.17735481 2.151362181 -1.986978054 0.9326727986 
16.91916466 3.669775248 -1.987095952 0.9326689243 
16.74002838 4.419033051 -1.987198234 0.9326655865 
16.5279789 5.159653187 -1.987329483 0.9326612949 
16.28339767 5.89023447 -1.987489104 0.9326561093 
16.00677872 6.609369755 -1.987677097 0.9326499104 
14.59121799 9.343867302 -1.988707542 0.9326162338 
14.16341686 9.985336304 -1.989029646 0.9326056242 
13.70761108 10.60733891 -1.98937726 0.9325942993 
13.22465134 11.20870304 -1.989749432 0.93258214 
9.039299965 9.160770416 -1.477170587 0.9495028853 
9.656598091 12.82923794 -1.843025804 0.9373943806 
4.810717583 8.565552711 -1.127579451 0.9612178802 
1.537597656 3.41796875 -0.4301745594 0.9850232601 
5.928851128 14.92022514 -1.84275794 0.9374032021 
2.982522011 8.602379799 -1.045020938 0.9640057087 
2.562902689 8.612289429 -1.031338334 0.9644684792 
1.751859069 8.631444931 -1.010895729 0.9651603699 
2.491442919 15.8674736 -1.843543172 0.9373773932 
1.07162714 16.03103447 -1.844109654 0.937358737 
0.3575146496 16.06575966 -1.84444499 0.9373477101 
-0.193095699 8.677389145 -0.9962165356 0.9656574726 
-3.903200626 15.62845898 -1.848893404 0.9372014403 
-6.621477127 14.71907902 -1.852496028 0.9370831251 
-7.911603928 14.08674049 -1.854392052 0.9370206594 
-9.141994476 13.34189701 -1.856354594 0.9369561672 
-3.179089308 3.854023457 -0.5734289289 0.9800857306 
-3.253561974 3.604833841 -0.5573565364 0.9806384444 
-3.437206984 3.186562538 -0.5379687548 0.9813055992 
-3.858784199 2.986027718 -0.5600215197 0.9805467725 
-13.27461147 9.358688354 -1.864209533 0.9366980791 
-13.68427944 8.763085365 -1.865096807 0.936668992 
-14.37899876 7.496530533 -1.861215472 0.9367964864 
-14.7007637 6.850649357 -1.861534953 0.936785996 
-14.99333477 6.190912724 -1.861830711 0.9367762804 
-16.98309135 4.483161449 -2.016050577 0.9317221045 
-17.16749001 3.723637581 -2.016260624 0.93171525 
-17.31769562 2.956547737 -2.016441584 0.9317092896 
-13.87059021 1.113376498 -1.597152472 0.9455143213 
-13.86658669 0.4938476384 -1.592581749 0.9456659555 
-13.86259747 -0.1233642548 -1.591179132 0.9457125068 
-13.85642815 -1.360859394 -1.598057508 0.9454842806 
-17.39421082 -2.493745089 -2.016880274 0.931695044 
-17.26559258 -3.264958382 -2.016823053 0.9316968322 
-17.10251617 -4.029567719 -2.016735792 0.9316997528 
-16.90536118 -4.786083698 -2.016618967 0.9317035675 
-16.41043854 -6.268669128 -2.016296864 0.9317141175 
-16.11371613 -6.99173069 -2.0160923 0.9317207932 
-15.42473602 -8.394223213 -2.015598536 0.9317368865 
-14.61323738 -9.729032516 -2.014995337 0.9317566156 
-13.40678883 -9.813705444 -1.907006383 0.9352930188 
-11.17374229 -11.73448658 -1.859788656 0.9368433356 
-10.1081953 -12.70841026 -1.863782048 0.9367121458 
-8.912724495 -13.51714802 -1.858369112 0.9368900061 
-7.291977406 -13.54250431 -1.765384436 0.939950943 
-5.814558029 -13.56560516 -1.694029212 0.9423066974 
-5.117006779 -13.57652283 -1.665287733 0.9432572126 
-1.278022408 -13.63655758 -1.57202971 0.9463479519 
-0.6684960723 -13.64609337 -1.568143487 0.9464769959 
1.729909658 -13.33088875 -1.542917609 0.947314918 
3.492040873 -15.76079559 -1.852856994 0.9370712042 
4.875832558 -15.3779974 -1.851647496 0.9371110201 
6.219372272 -14.87426281 -1.850463986 0.9371498823 
6.872736454 -14.57831955 -1.849885106 0.9371688962 
7.506340027 -14.24282646 -1.847896218 0.9372342825 
8.112836838 -13.86130333 -1.843438029 0.9373809099 
12.93239021 -11.5681715 -1.991546988 0.9325233698 
13.90300465 -10.3682127 -1.990632176 0.9325532317 
14.34738731 -9.737417221 -1.990208864 0.9325671196 
14.76337147 -9.087729454 -1.98980844 0.9325802326 
15.15015125 -8.420410156 -1.989431977 0.9325925112 
15.50699711 -7.736774921 -1.989079952 0.9326040149 
15.83320808 -7.03811264 -1.988753319 0.9326147437 
16.1281662 -6.325876236 -1.988452435 0.9326245785 
16.39133453 -5.601410866 -1.988177776 0.9326335788 
17.27913284 -1.077822208 -1.9871099 0.9326684475 
17.30927658 -0.3081079125 -1.987031698 0.9326710701 
17.26756287 1.231498957 -1.986963511 0.9326732755 
17.090168 2.761413574 -1.987011194 0.9326717854 
16.57299423 5.012255669 -1.987300992 0.9326622486 
16.06464386 6.466540337 -1.987637281 0.9326512218 
14.67333698 9.21336174 -1.98864603 0.9326182604 
14.2512598 9.858547211 -1.988963246 0.9326078296 
13.80098438 10.4845295 -1.989305854 0.9325966239 
13.32336617 11.09014893 -1.989673138 0.9325846434 
11.84627438 10.78797817 -1.839003563 0.9375267029 
10.33266926 12.30164814 -1.843939304 0.9373643994 
9.529830933 12.42905712 -1.797671437 0.9388876557 
8.598165512 13.55917931 -1.842812896 0.9374013543 
7.358541012 14.26890182 -1.842704892 0.9374049306 
1.589592218 3.451132774 -0.4361113012 0.9848181605 
6.061358452 14.86677742 -1.842745781 0.9374035597 
2.645955801 8.610327721 -1.033884048 0.96438241 
1.83160758 8.629561424 -1.012545109 0.9651045203 
1.435356379 8.638922691 -1.005147099 0.965354979 
1.92533195 15.94790363 -1.843752861 0.9373704791 
1.214207768 16.0203228 -1.844046593 0.9373608232 
0.5004491806 16.06132317 -1.844375134 0.9373500347 
-0.8929101229 8.693918228 -1.003114939 0.9654237628 
-1.287289977 8.703231812 -1.009804249 0.9651973248 
-3.76359129 15.66104412 -1.848713756 0.9372074008 
-4.458715916 15.48573685 -1.84962213 0.9371774793 
-5.145617485 15.27936745 -1.850504398 0.9371484518 
-3.39072752 8.759279251 -1.078065872 0.9628888369 
-6.489582539 14.77594662 -1.852310538 0.9370891452 
-7.144057274 14.47996044 -1.853245497 0.9370583892 
-4.83272934 8.786999702 -1.151023746 0.9604277611 
-3.177182436 3.922299623 -0.5793575644 0.9798818827 
-13.95529556 8.251440048 -1.860801101 0.9368100762 
-14.93719673 6.323896408 -1.861773491 0.9367781281 
-16.71722412 5.38245821 -2.015761614 0.9317314625 
-17.29039192 3.110488176 -2.016407728 0.9317104816 
-17.41300583 2.338452101 -2.016565561 0.931705296 
-17.50091362 1.561650395 -2.016694069 0.9317010641 
-13.86738491 0.6174926758 -1.593242168 0.9456440806 
-13.85540009 -1.236340284 -1.596606731 0.9455323815 
-17.41579247 -2.338820696 -2.016888142 0.931694746 
-17.13788223 -3.877253294 -2.016755581 0.9316990376 
-16.94747925 -4.635498047 -2.016644478 0.9317027926 
-16.46589279 -6.122492313 -2.016334295 0.9317128658 
-16.17564392 -6.848203182 -2.016135454 0.9317193627 
-15.85321236 -7.560126781 -2.015908241 0.9317268133 
-15.11450386 -8.936894417 -2.015370131 0.9317442775 
-14.6997242 -9.598913193 -2.015060425 0.9317544699 
-12.73427486 -10.03659153 -1.861008048 0.9368032813 
-12.27284431 -10.59110069 -1.860651016 0.9368150234 
-11.27821732 -11.63508987 -1.859871149 0.936840713 
-10.76964569 -12.14801216 -1.863360763 0.9367260337 
-10.22057152 -12.61750507 -1.86371839 0.936714232 
-9.64999485 -13.06084919 -1.863884807 0.9367088079 
-7.446852684 -13.54008293 -1.773636699 0.9396789074 
-6.686215878 -13.55197716 -1.734476924 0.9409705997 
-1.400354028 -13.63464355 -1.573183537 0.9463096857 
-0.790175736 -13.64418888 -1.568670034 0.9464594722 
-0.1822900325 -13.65369129 -1.567275763 0.9465057254 
1.026833415 -13.54785633 -1.559450626 0.9467656612 
1.609189391 -13.32900333 -1.540979028 0.9473792911 
3.351862669 -15.79228497 -1.852978945 0.9370672107 
4.049714088 -15.62243652 -1.85237062 0.9370871186 
5.418679237 -15.19082451 -1.851170421 0.9371265769 
7.38133049 -14.31301689 -1.848405361 0.9372175336 
7.801271915 -12.30250454 -1.672019362 0.9430344105 
13.81077385 -10.49197197 -1.990719438 0.9325504303 
15.07517815 -8.55521965 -1.98950541 0.932590127 
15.77043152 -7.179003716 -1.988816619 0.9326126575 
16.34127808 -5.747211933 -1.988230586 0.9326317906 
17.0933857 -2.761935949 -1.987383485 0.9326595068 
17.19810295 -1.998686433 -1.987241983 0.932664156 
17.26901054 -1.231596708 -1.987128973 0.9326678514 
17.30595589 -0.4621752799 -1.98704505 0.9326706529 
17.30887604 0.308190912 -1.986990571 0.9326725602 
17.27785873 1.077780724 -1.986964941 0.9326732159 
17.21283722 1.845297813 -1.986968517 0.9326730967 
17.1139946 2.609208822 -1.987001181 0.9326720238 
15.49886227 7.732724667 -1.988039494 0.9326381087 
14.75432205 9.082155228 -1.98858583 0.9326201081 
13.42104626 10.97069836 -1.989597678 0.9325870872 
10.96226501 11.7195282 -1.841881037 0.9374320507 
10.43974495 12.20688248 -1.843588829 0.9373759031 
9.883655548 12.65568066 -1.843073964 0.9373927712 
6.091803074 8.559614182 -1.205857873 0.9585820436 
5.528559685 15.07354736 -1.842803717 0.9374017119 
1.911597848 8.627672195 -1.014278889 0.9650458097 
1.356710196 16.0083313 -1.843985081 0.9373629093 
-0.07149901986 16.0714798 -1.844662428 0.9373405576 
-0.8146020174 8.6920681 -1.00202632 0.9654607177 
-1.607116699 8.710790634 -1.016677022 0.9649646282 
-3.623728037 15.69240665 -1.848535061 0.9372132421 
-4.320300102 15.523242 -1.849438429 0.9371836185 
-5.008972168 15.32310009 -1.850328803 0.9371541739 
-7.014191628 14.54146194 -1.853057027 0.9370646477 
-7.658041954 14.22235107 -1.854007125 0.9370333552 
-8.90114975 13.4995966 -1.855957389 0.9369693398 
-9.497951508 13.09732437 -1.856953979 0.9369364977 
-4.172065258 3.053923368 -0.5934397578 0.9793979526 
-14.24227715 7.750695705 -1.861081004 0.9368008971 
-14.87985516 6.456374168 -1.861715317 0.9367800355 
-17.09779167 4.028466702 -2.016180038 0.9317179322 
-17.26171112 3.264218569 -2.016372681 0.9317116737 
-13.868186 0.7412646413 -1.594030023 0.9456179738 
-13.86419392 0.1234155223 -1.591362 0.9457064271 
-13.85620117 -1.112246037 -1.595496297 0.9455692768 
-17.43596458 -2.183791399 -2.016894817 0.9316945672 
-17.32117844 -2.957177639 -2.016849518 0.9316959977 
-17.17184448 -3.72461915 -2.016774178 0.9316985011 
-16.98828888 -4.484570026 -2.016669273 0.9317018986 
-16.77084923 -5.235471249 -2.016534567 0.9317063689 
-16.52002716 -5.975830078 -2.016370535 0.9317116737 
-16.23628807 -6.704133034 -2.016177416 0.9317179918 
-15.92026043 -7.418940067 -2.015955925 0.9317251444 
-15.57253361 -8.118774414 -2.015706301 0.9317333698 
-15.19386482 -8.80225563 -2.015428782 0.9317424893 
-14.78505135 -9.467988014 -2.015124559 0.9317523837 
-13.91576099 -9.810692787 -1.954247832 0.9337442517 
-12.36711407 -10.48184586 -1.86072433 0.9368126392 
-11.88620853 -11.01937199 -1.860349536 0.9368249774 
-11.38179684 -11.53481197 -1.859952927 0.9368379712 
-10.85498524 -12.02699184 -1.859535813 0.9368516803 
-10.33205318 -12.52563 -1.86365211 0.9367163777 
-9.765942574 -12.97459698 -1.863905311 0.9367081523 
-8.408657074 -13.52503395 -1.827927351 0.9378910065 
-7.603208065 -13.53764153 -1.782110572 0.9393996 
-6.835659027 -13.54963875 -1.741894484 0.9407257438 
-6.100575924 -13.5611372 -1.706760883 0.9418858886 
-5.393188477 -13.57220173 -1.676267982 0.9428939223 
-4.709303856 -13.58289528 -1.650054932 0.9437612891 
-3.397439003 -13.60340786 -1.609325171 0.9451107383 
-2.763022423 -13.61333466 -1.594364285 0.9456068277 
-2.139069796 -13.62309074 -1.582782149 0.9459910393 
-1.522905231 -13.63272953 -1.574464202 0.946267128 
0.3040258586 -13.66129398 -1.568398118 0.9464685321 
2.094074726 -13.33657646 -1.549495101 0.9470963478 
3.211413383 -15.82253361 -1.853101134 0.9370631576 
3.91079092 -15.65886211 -1.852491856 0.9370831847 
5.95437479 -14.98450184 -1.850698233 0.9371421933 
6.612966061 -14.70017052 -1.850115657 0.9371613264 
7.255615234 -14.38207531 -1.848910213 0.9372009635 
8.478478432 -13.63735771 -1.843108177 0.9373916984 
9.074091911 -13.24284172 -1.842569947 0.9374093413 
11.63271236 -12.88858604 -1.992758393 0.9324837327 
13.71747494 -10.61493587 -1.990807772 0.9325475097 
14.17301464 -9.992070198 -1.99037528 0.932561636 
14.9990015 -8.689360619 -1.989579678 0.9325876832 
15.3678875 -8.012075424 -1.989217997 0.9325995445 
15.70642567 -7.319294453 -1.988880873 0.9326105714 
16.01395798 -6.612338543 -1.988569617 0.9326207638 
