# .PCD v0.7 - Point Cloud Data file format
VERSION 0.7
FIELDS x y z intensities
SIZE 4 4 4 4
TYPE F F F F
COUNT 1 1 1 1
WIDTH 923
HEIGHT 1
VIEWPOINT 0 0 0 1 0 0 0
POINTS 923
DATA ascii
2.33359623 -7.138766766 -2.002400875 0.9693869352 
2.959056377 -6.903608322 -2.00254488 0.9693847895 
3.561170578 -6.613735199 -2.002681017 0.9693827629 
3.851976156 -6.448981762 -2.002745867 0.9693817496 
4.410178185 -6.081474304 -2.002868414 0.9693799019 
4.676469803 -5.8794384 -2.002925634 0.9693790674 
5.18081665 -5.440810204 -2.003031731 0.9693774581 
5.859279633 -4.703173637 -2.003168583 0.9693753719 
6.599882603 -3.59168458 -2.003305674 0.9693733454 
7.131825924 -2.366547823 -2.003386736 0.9693720341 
7.230077744 -2.046938419 -2.00339818 0.9693719149 
7.314001083 -1.723229885 -2.003405571 0.9693718553 
7.438226223 -1.066459894 -2.003409624 0.969371736 
7.513901234 -0.06693847477 -2.00338769 0.9693720937 
7.406738281 1.264526367 -2.003307581 0.9693732858 
7.343048096 1.592636704 -2.003278732 0.9693738222 
6.944523811 2.867499828 -2.003129244 0.9693759084 
6.500601768 3.765986204 -2.002984047 0.9693781734 
5.508534908 5.10682869 -2.002686024 0.9693827033 
5.275734901 5.346638203 -2.002619028 0.969383657 
4.779316425 5.7939744 -2.002479076 0.9693858027 
3.870456457 6.22549057 -1.954424858 0.9701093435 
3.502690315 6.236596584 -1.907061219 0.9708230495 
3.150903225 6.245717525 -1.86509788 0.9714558125 
2.272562265 6.554677486 -1.849621654 0.9716892838 
0.5357323885 3.411957979 -0.9208205342 0.985804081 
0.462764889 6.922709942 -1.849807143 0.9716864824 
-0.1543444842 6.935964108 -1.84967947 0.9716883898 
-0.4627062976 6.921869755 -1.849582672 0.9716898799 
-1.076000929 6.852731705 -1.849416971 0.9716923833 
-1.68049562 6.728723049 -1.84907186 0.9716975689 
-2.271306038 6.55106163 -1.848600864 0.9717047215 
-2.560095072 6.442599773 -1.848330021 0.9717087746 
-2.843925714 6.321845531 -1.848184824 0.9717109799 
-1.987978458 3.940561533 -1.176733017 0.9818947315 
-2.083561897 3.70981431 -1.134407043 0.9825401902 
-2.180905819 3.50789547 -1.101267099 0.9830459356 
-2.290214777 3.342353344 -1.080241799 0.9833669066 
-3.083832979 2.613732815 -1.077778697 0.9834045172 
-3.659435987 2.579921722 -1.193745971 0.9816353321 
-4.366350174 2.529548168 -1.345370412 0.979327023 
-6.932695389 2.862580538 -1.999719977 0.9694273472 
-7.053114891 2.551342726 -1.99970305 0.969427526 
-7.159574986 2.235053778 -1.999689579 0.9694277644 
-7.476242542 0.6001025438 -1.999677896 0.9694279432 
-7.495568752 0.2669458091 -1.999686599 0.969427824 
-7.424670219 -1.064455509 -1.999757767 0.9694267511 
-7.370072842 -1.393693805 -1.99978447 0.9694263339 
-7.300888538 -1.720190406 -1.999814749 0.9694258571 
-7.217270374 -2.043290854 -1.999848247 0.9694253206 
-7.11935997 -2.362358332 -1.999885201 0.9694247842 
-7.007365704 -2.676762581 -1.999925494 0.9694242477 
-6.881508827 -2.985891104 -1.999968886 0.9694235325 
-6.58920145 -3.585888624 -2.00006485 0.969422102 
-6.423332214 -3.875549316 -2.00011754 0.9694213271 
-6.05380106 -4.431357384 -2.000230551 0.9694195986 
-5.850861549 -4.696408749 -2.000291348 0.9694187045 
-4.927548885 -5.658894062 -2.000556946 0.969414711 
-4.130973816 -6.265089989 -2.000777245 0.9694113731 
-3.848339796 -6.442890644 -2.000853777 0.9694102407 
-3.558058977 -6.607961178 -2.00093174 0.9694090486 
-3.260722637 -6.759963036 -2.001010895 0.9694078565 
-2.95690918 -6.898593426 -2.001091242 0.9694066644 
-2.647197247 -7.023591042 -2.001172543 0.9694054127 
-2.332243681 -7.13468504 -2.00125432 0.9694042206 
-2.012639046 -7.231669903 -2.001336575 0.9694029689 
-1.689027071 -7.314340591 -2.001419544 0.9694017172 
-0.7005553842 -7.474999905 -2.00166893 0.9693979621 
-0.03341674805 -7.508300781 -2.001834154 0.9693954587 
0.300643295 -7.502663612 -2.001915932 0.9693942666 
1.296715021 -7.396784306 -2.002156496 0.9693906307 
1.624531269 -7.332072735 -2.002234221 0.9693894386 
2.269951105 -7.159191608 -2.002385855 0.9693871737 
2.586251259 -7.051401138 -2.002459288 0.9693860412 
2.89748168 -6.929618835 -2.002530813 0.9693849683 
3.502149582 -6.645119667 -2.002667904 0.9693829417 
3.794410229 -6.482963562 -2.002732992 0.9693819284 
4.623939037 -5.920795918 -2.00291419 0.9693791866 
4.882872105 -5.709399223 -2.002969265 0.9693784118 
5.132165432 -5.486670017 -2.003021717 0.9693775773 
5.817172527 -4.755077839 -2.003160238 0.9693755507 
6.567632675 -3.650270939 -2.00330019 0.969373405 
7.110471249 -2.429902315 -2.003384113 0.9693720937 
7.211565971 -2.111161947 -2.003396034 0.9693719745 
7.298368931 -1.788315415 -2.003404379 0.9693718553 
7.513020992 -0.1337475628 -2.003390074 0.9693720937 
7.49505949 0.534550786 -2.003358841 0.9693725109 
7.417722225 1.198562026 -2.003312826 0.9693731666 
7.356957912 1.527270436 -2.003284693 0.9693736434 
7.191854 2.175068378 -2.003217936 0.9693746567 
7.087834358 2.49278307 -2.00317955 0.9693752527 
6.969790936 2.805515051 -2.003137827 0.9693759084 
6.837939262 3.112758636 -2.003093243 0.9693765044 
6.692543983 3.413789034 -2.003045321 0.9693772197 
6.5338974 3.70800519 -2.002994537 0.9693779945 
6.362314224 3.994921684 -2.002940655 0.9693787098 
5.981730938 4.544279575 -2.002825022 0.9693805575 
5.553797245 5.057641506 -2.002699137 0.9693824649 
5.323142052 5.299511433 -2.002632618 0.9693834782 
5.081959248 5.530871391 -2.002563953 0.9693844914 
4.569941521 5.960234165 -2.002420902 0.9693866372 
3.946214437 6.223120213 -1.964632392 0.9699556231 
3.220123291 6.244123459 -1.873104692 0.9713350534 
2.902289867 6.301098347 -1.849597454 0.9716896415 
2.619039297 6.42374754 -1.849535584 0.9716905951 
0.7183276415 3.384379864 -0.9224222898 0.9857795835 
0.8315991163 6.888266563 -1.84984076 0.9716860056 
0.5243542194 6.918344498 -1.849815011 0.9716863632 
0.2160778791 6.934643269 -1.84976685 0.9716870785 
-0.7087438703 6.900727272 -1.84950614 0.9716910124 
-1.014971852 6.862099648 -1.849434495 0.9716921449 
-1.620584726 6.743559361 -1.849113703 0.9716969728 
-2.212980986 6.571200848 -1.848652244 0.971703887 
-2.502736807 6.465324402 -1.848386049 0.9717079401 
-2.787595034 6.346950531 -1.848197579 0.9717107415 
-2.1621387 3.547744036 -1.107693434 0.9829478264 
-2.268261671 3.374343157 -1.084012985 0.9833093286 
-2.623811007 2.959624052 -1.054514408 0.9837598205 
-2.847524405 2.687382698 -1.043900609 0.9839219451 
-3.297121525 2.598647356 -1.119267344 0.9827712178 
-3.925148726 2.563107967 -1.249854207 0.9807805419 
-4.744132996 2.527309418 -1.433133245 0.9779934287 
-5.279384613 2.517646313 -1.559413075 0.9760776758 
-6.906962872 2.924174786 -1.999723792 0.969427228 
-7.030138969 2.614011288 -1.99970603 0.969427526 
-7.139409065 2.298681498 -1.999692082 0.9694277048 
-7.315404892 1.655009747 -1.999674797 0.9694280028 
-7.381767273 1.327954054 -1.999671578 0.9694280624 
-7.470597744 0.6666137576 -1.999676585 0.9694279432 
-7.492990494 -0.333645016 -1.999711394 0.9694274068 
-7.4708004 -0.6666406393 -1.999730349 0.9694271684 
-7.433830261 -0.9983202815 -1.999752879 0.9694268107 
-7.315886021 -1.655143976 -1.999808431 0.9694259763 
-7.235136509 -1.978972077 -1.999841213 0.9694254994 
-7.030878544 -2.614287138 -1.99991715 0.969424367 
-6.77100563 -3.228984356 -2.00000596 0.969422996 
-6.620824814 -3.527072668 -2.000054836 0.9694222808 
-6.457531452 -3.818215132 -2.000106573 0.9694215059 
-6.281464577 -4.101799011 -2.000161409 0.9694206715 
-6.092956543 -4.377280235 -2.000218868 0.969419837 
-4.977687836 -5.614772797 -2.000542879 0.9694148898 
-4.723161697 -5.830844402 -2.000614166 0.9694138765 
-4.18653059 -6.22802496 -2.000761986 0.9694116116 
-3.905490637 -6.4083395 -2.000838518 0.9694104791 
-3.616696596 -6.575983524 -2.000916004 0.969409287 
-2.70958972 -6.999694824 -2.001156092 0.9694056511 
-2.076894522 -7.213403225 -2.001320124 0.9694032669 
-1.754035592 -7.298954964 -2.001403093 0.9694019556 
-0.7670471072 -7.468417645 -2.001652241 0.9693982005 
-0.4340820312 -7.495449066 -2.00173521 0.9693969488 
-0.1002331525 -7.507646084 -2.001817703 0.9693957567 
0.5675011873 -7.487451077 -2.00198102 0.9693932533 
0.9000439048 -7.455097675 -2.002061367 0.9693920612 
1.230828881 -7.407975674 -2.00214076 0.9693908691 
1.559207678 -7.346176624 -2.002218962 0.969389677 
1.884518981 -7.269824028 -2.002295732 0.9693885446 
2.20613265 -7.179062366 -2.002371073 0.9693874121 
2.835664034 -6.955082893 -2.002516747 0.9693852067 
3.142352343 -6.82229948 -2.002586603 0.9693841338 
4.831846714 -5.752590179 -2.002958536 0.9693785906 
5.554944992 -5.058671951 -2.003108263 0.969376266 
5.774597168 -4.806660175 -2.003151894 0.96937567 
6.534873962 -3.708561897 -2.00329423 0.9693735242 
6.970586777 -2.805869102 -2.00336504 0.9693724513 
7.357409477 -1.527458429 -2.003408194 0.969371736 
7.418072224 -1.198691368 -2.003410101 0.969371736 
7.464046478 -0.8674365282 -2.003407955 0.9693717957 
7.512977123 0.1337353438 -2.003379583 0.9693722725 
7.499531269 0.4677782953 -2.003362417 0.9693725109 
7.428099155 1.132412076 -2.003318071 0.9693732262 
7.210953236 2.110986233 -2.003225327 0.9693745375 
6.994515419 2.743410587 -2.003146648 0.9693757296 
6.566666126 3.649736166 -2.003004789 0.9693778753 
6.215954304 4.218691349 -2.002895594 0.9693795443 
6.021965027 4.490898132 -2.002836943 0.9693803787 
5.816057205 4.754187107 -2.002775908 0.9693812728 
5.59863615 5.008041859 -2.002712011 0.9693822861 
4.881745338 5.708076 -2.002507687 0.9693853855 
4.35478878 6.118927956 -2.002361536 0.9693875313 
3.28995347 6.242487431 -1.881325126 0.9712110758 
2.95827508 6.275073051 -1.849612236 0.9716894031 
2.680668831 6.411046982 -1.85267365 0.9716432095 
2.09680295 6.613134384 -1.849654794 0.971688807 
1.800591946 6.700009823 -1.849695444 0.9716881514 
0.7556433082 3.410473585 -0.9313297868 0.985643208 
0.592073977 3.377324104 -0.9141731262 0.9859058261 
0.5859167576 6.913432598 -1.849821925 0.971686244 
0.277797848 6.932485104 -1.849778295 0.9716868997 
-0.03086303733 6.937729359 -1.849712133 0.9716879129 
-0.9538854957 6.870922565 -1.849450827 0.9716918468 
-1.56054318 6.75786829 -1.849154472 0.9716963172 
-2.154472589 6.590812683 -1.848702669 0.9717031717 
-2.445175648 6.487534046 -1.848441124 0.9717071056 
-2.730998516 6.371547699 -1.848210573 0.9717105627 
-1.947971106 4.0384202 -1.195411563 0.9816100001 
-2.043811083 3.795722485 -1.149369359 0.982311964 
-2.712087393 2.84820056 -1.048563242 0.9838507175 
-2.812287569 2.701862812 -1.039759517 0.9839851856 
-2.990905762 2.627844095 -1.061478376 0.9836534262 
-3.240856886 2.601379395 -1.107980967 0.9829434156 
-3.53420639 2.587006807 -1.167731047 0.9820319414 
-3.857062817 2.567893028 -1.23540175 0.9810006618 
-4.645151138 2.527897835 -1.409970641 0.9783451557 
-6.880683422 2.985524893 -1.999727726 0.9694271684 
-7.118679047 2.36212635 -1.999694467 0.9694277048 
-7.300383091 1.720060945 -1.99967587 0.9694279432 
-7.489611626 0.4003198147 -1.999682546 0.9694278836 
-7.500048637 0.06676024944 -1.999693513 0.9694277048 
-7.442404747 -0.9321435094 -1.999747992 0.9694268703 
-7.160222054 -2.235261202 -1.999870062 0.9694250226 
-6.491228104 -3.760556459 -2.000096083 0.9694216251 
-6.131642818 -4.322844028 -2.000207186 0.9694200158 
-5.50223875 -5.100976467 -2.000393152 0.9694171548 
-5.027409554 -5.570221901 -2.000528812 0.9694151282 
-4.77481699 -5.7885499 -2.000599861 0.9694140553 
-4.512756348 -5.995429516 -2.00067234 0.9694129825 
-3.962331533 -6.373281002 -2.000823021 0.9694107175 
-3.675046206 -6.54348135 -2.000900269 0.9694095254 
-2.77175045 -6.975244045 -2.001139879 0.9694059491 
-2.141008139 -7.194580078 -2.001303673 0.9694034457 
-1.818918467 -7.282998085 -2.001386404 0.969402194 
0.167061761 -7.506699085 -2.001883268 0.9693947434 
0.5008434653 -7.492148399 -2.001964569 0.9693934917 
1.164846182 -7.418576717 -2.002124786 0.9693911076 
1.493763447 -7.359696865 -2.002203226 0.9693899155 
1.819739938 -7.286249638 -2.002280474 0.969388783 
2.142126322 -7.198369026 -2.002356052 0.9693875909 
2.460306406 -7.096213341 -2.002430201 0.969386518 
2.773638964 -6.979994774 -2.002502441 0.9693853855 
3.966194868 -6.379479885 -2.002771139 0.969381392 
4.780416012 -5.795346737 -2.002947569 0.9693787098 
5.276889324 -5.347780704 -2.003051519 0.9693771601 
5.731569767 -4.857834339 -2.003143311 0.9693757892 
6.140888691 -4.329365253 -2.003222704 0.9693745971 
6.662798882 -3.473666906 -2.003316402 0.9693731666 
6.810808182 -3.173911095 -2.003340483 0.9693727493 
7.06607151 -2.556076527 -2.003378153 0.9693722129 
7.172826767 -2.239262581 -2.003391743 0.9693719745 
7.49017334 -0.6012451053 -2.003403425 0.9693718553 
7.50947237 -0.2673925757 -2.003394842 0.9693719745 
7.513887882 0.06690917909 -2.003382444 0.9693721533 
7.503410339 0.4010204971 -2.003366232 0.9693724513 
7.478066444 0.7343944907 -2.003346443 0.9693727493 
7.383015156 1.396127939 -2.003296375 0.9693734646 
7.229477406 2.046743155 -2.003232479 0.9693744183 
6.598932743 3.591157198 -2.003015041 0.9693776965 
6.432477951 3.881039858 -2.002962351 0.969378531 
6.061719894 4.437177658 -2.002848864 0.9693801999 
5.85816288 4.702280045 -2.002788305 0.969381094 
5.416695595 5.203999043 -2.002659321 0.9693830609 
5.17966032 5.439621449 -2.00259161 0.9693840742 
4.675362587 5.878041744 -2.002449989 0.96938622 
3.7212255 6.23007822 -1.934765935 0.970405519 
3.360319853 6.240712643 -1.889728665 0.9710843563 
3.018763304 6.258320332 -1.852522373 0.971645534 
2.732988119 6.376176834 -1.849552751 0.9716902971 
1.321977496 3.507460833 -0.9993539453 0.9846027493 
2.155574799 6.594167233 -1.849644423 0.9716889262 
1.860152602 6.683691025 -1.849688888 0.9716882706 
1.56101799 6.759912014 -1.849714756 0.9716879129 
0.6216967702 3.369741201 -0.9135818481 0.985914886 
0.4883361757 3.517646313 -0.9468458891 0.9854058027 
0.3394640982 6.929780006 -1.849788785 0.9716867805 
-0.2777734399 6.93198204 -1.849643469 0.9716889262 
-0.5858227611 6.912367821 -1.849537611 0.9716905355 
-1.197768569 6.832353592 -1.849378586 0.9716929793 
-1.500360131 6.771637917 -1.849194288 0.9716957211 
-2.095778704 6.609904766 -1.84875226 0.9717023969 
-2.387399912 6.509233475 -1.848495245 0.9717062712 
-2.026203632 3.844626427 -1.158669472 0.982170105 
-2.123561859 3.628244638 -1.120844603 0.9827471375 
-2.223788977 3.438808441 -1.091835499 0.9831898808 
-2.578295946 3.014699697 -1.057620406 0.9837123752 
-2.690346718 2.876181602 -1.050009012 0.9838286042 
-2.781330585 2.720119476 -1.03722012 0.9840239882 
-2.954667807 2.642985821 -1.056927562 0.9837229252 
-3.185610294 2.603991747 -1.096973777 0.9831114411 
-3.788808584 2.571420908 -1.220823407 0.9812226892 
-4.130351543 2.542465687 -1.293114185 0.9801219702 
-4.549191952 2.528425217 -1.387621522 0.9786847234 
-5.657104492 2.514682531 -1.650559664 0.9746972322 
-7.097375393 2.425405264 -1.999697208 0.9694276452 
-7.198198318 2.107272863 -1.999685287 0.969427824 
-7.414587021 1.130410075 -1.999671578 0.9694280624 
-7.457541466 0.7994652987 -1.99967432 0.9694280028 
-7.485751629 0.4669384658 -1.999680877 0.9694278836 
-7.499150276 0.1334887594 -1.999691129 0.9694277644 
-7.481454849 -0.5335693359 -1.999722362 0.9694272876 
-7.404592037 -1.196437955 -1.999768019 0.9694265723 
-7.344145298 -1.524653316 -1.999796152 0.9694261551 
-7.269179344 -1.849868178 -1.999827743 0.9694256186 
-7.179804325 -2.171420813 -1.999862671 0.9694252014 
-6.958681583 -2.801071644 -1.999942422 0.9694239497 
-6.682473183 -3.408657074 -2.000034809 0.9694225788 
-6.524396896 -3.702641487 -2.000085592 0.969421804 
-6.169828892 -4.268095493 -2.000195503 0.969420135 
-5.974038124 -4.538469315 -2.000254631 0.969419241 
-5.076760292 -5.525214672 -2.000514984 0.969415307 
-4.018879414 -6.337709904 -2.000807524 0.9694108963 
-3.733119965 -6.51046133 -2.000884771 0.9694097638 
-3.439948559 -6.670341492 -2.000963449 0.9694085717 
-2.20491457 -7.175182819 -2.001287222 0.9694037437 
-1.230441809 -7.405732155 -2.001535892 0.9693999887 
-0.5674011111 -7.486405849 -2.00170207 0.9693974853 
-0.2338293344 -7.504550457 -2.001784801 0.9693962336 
0.1002319306 -7.50783205 -2.001867056 0.9693949819 
0.4341284037 -7.49625206 -2.001948595 0.9693937302 
2.077958822 -7.217084885 -2.002341032 0.9693878889 
2.711375713 -7.004360199 -2.002488136 0.9693856239 
3.909255266 -6.414482117 -2.002758503 0.9693815708 
4.190852165 -6.234423637 -2.002820492 0.9693806171 
4.464167595 -6.042011738 -2.002879858 0.9693797231 
4.728658199 -5.837612152 -2.002936602 0.9693788886 
4.983786583 -5.621635437 -2.002990484 0.9693780541 
5.229048729 -5.394516468 -2.003041744 0.9693772793 
5.463970661 -5.156699181 -2.003089666 0.969376564 
5.688079834 -4.908647537 -2.003134966 0.9693759084 
5.900925159 -4.650868893 -2.003176689 0.9693752527 
6.102088451 -4.383840084 -2.003215313 0.9693747163 
6.291168213 -4.108139515 -2.003250599 0.9693741202 
6.631594181 -3.532822132 -2.003310919 0.9693732858 
6.782272816 -3.23435545 -2.003335953 0.9693728685 
7.04304409 -2.618806124 -2.003375292 0.9693722725 
7.395563602 -1.330493093 -2.003409624 0.969371736 
7.447423935 -1.000234365 -2.003409147 0.969371736 
7.484532356 -0.6678661704 -2.003404856 0.9693718553 
7.514190674 -2.19726553e-05 -2.003385067 0.9693721533 
7.484323502 0.6678124666 -2.003350735 0.9693726897 
7.395170689 1.330380797 -2.003302097 0.969373405 
7.328560829 1.657939434 -2.003272533 0.9693738818 
7.247437477 1.982319236 -2.003239393 0.969374299 
7.151944637 2.302729368 -2.003203154 0.9693748951 
6.918691158 2.929155111 -2.003120422 0.9693760872 
6.466789246 3.823681593 -2.002973318 0.9693783522 
6.101000786 4.382705212 -2.002860785 0.9693808556 
5.686950684 4.907670975 -2.002737761 0.9693818688 
5.462834358 5.15561533 -2.002672911 0.9693828821 
5.227913857 5.393339634 -2.002605438 0.9693838358 
4.727531433 5.836235046 -2.002464533 0.9693859816 
4.463069916 6.040532112 -2.002391338 0.969387114 
3.43117547 6.238676548 -1.898282528 0.9709553719 
2.789633751 6.351655006 -1.849567652 0.9716901183 
1.173122525 3.483479023 -0.9799941778 0.984898746 
1.91953361 6.666850567 -1.849681377 0.9716883898 
0.4011389017 6.926513672 -1.849798441 0.9716866612 
0.09261840582 6.93729496 -1.84974122 0.9716874957 
-0.2160595655 6.934247971 -1.849661946 0.9716886878 
-0.8314330578 6.886928558 -1.84948051 0.9716914296 
-1.440057397 6.784862995 -1.84923315 0.9716951847 
-2.036936045 6.628466606 -1.848800778 0.9717016816 
-2.61725831 6.419362545 -1.848273158 0.971709609 
-2.007365704 3.892443657 -1.167653441 0.9820331335 
-2.10374999 3.668876886 -1.127571821 0.9826444983 
-2.201979876 3.472485304 -1.096260905 0.9831223488 
-2.313969612 3.31339097 -1.077494264 0.9834088087 
-2.554992676 3.04186511 -1.059127569 0.9836893082 
-2.66837883 2.904086828 -1.051483154 0.9838060737 
-2.765185595 2.752910137 -1.040296793 0.9839770198 
-2.918698549 2.657953978 -1.052482009 0.9837908149 
-3.723391056 2.57573247 -1.207086205 0.9814320207 
-4.060439587 2.549528837 -1.278278232 0.9803477526 
-4.456264496 2.528930664 -1.366085172 0.9790120721 
-5.526403904 2.51570797 -1.618893266 0.9751766324 
-6.957892895 2.800754309 -1.999716282 0.9694273472 
-7.075529575 2.488452196 -1.99969995 0.9694276452 
-7.268620491 1.849719167 -1.999678254 0.9694279432 
-7.497655869 0.2002246082 -1.999688625 0.9694277644 
-7.485890865 -0.4669506848 -1.999718547 0.9694273472 
-7.098083496 -2.42564702 -1.99989295 0.969424665 
-6.71252203 -3.349030733 -2.000025034 0.969422698 
-6.557062626 -3.644396782 -2.000075102 0.9694219828 
-6.388628006 -3.932575703 -2.000128269 0.9694211483 
-6.014164925 -4.485080242 -2.000242472 0.9694194198 
-5.808876991 -4.748322487 -2.000303507 0.9694185257 
-5.592077732 -5.002175331 -2.000367165 0.969417572 
-4.87703371 -5.702548504 -2.000571012 0.9694145322 
-4.351198673 -6.11391592 -2.000716925 0.9694122672 
-3.790861845 -6.476938248 -2.000869274 0.9694100022 
-3.499128342 -6.639423847 -2.000947475 0.9694088101 
-3.200444221 -6.788762093 -2.001027107 0.9694076777 
-2.58460927 -7.046928406 -2.001188755 0.9694051743 
-2.268676758 -7.155212402 -2.001270771 0.9694039822 
-1.296301246 -7.394423485 -2.001519203 0.9694002271 
0.03340331838 -7.508364201 -2.001850605 0.9693952203 
1.0326159 -7.4380126 -2.002093077 0.9693915844 
1.362515807 -7.38501215 -2.002172232 0.9693903923 
2.013654709 -7.235239029 -2.002326012 0.9693880677 
2.33359623 -7.138766766 -2.002400875 0.9693869352 
2.648934364 -7.028156757 -2.002473593 0.9693858027 
2.959056377 -6.903608322 -2.00254488 0.9693847895 
3.263336182 -6.765370846 -2.002614021 0.9693837762 
4.135164738 -6.271445274 -2.002808332 0.969380796 
4.933520317 -5.665747166 -2.002979994 0.969378233 
5.644159794 -4.959037781 -2.003125906 0.9693760276 
5.859283447 -4.703383446 -2.003168583 0.9693748951 
6.062822342 -4.437944412 -2.003207922 0.9693747759 
6.753212929 -3.29458499 -2.003331184 0.9693729281 
6.893156528 -2.990947247 -2.003353357 0.9693726301 
7.019444466 -2.68140626 -2.003371954 0.9693722725 
7.131825924 -2.366547823 -2.003386736 0.9693720341 
7.230077744 -2.046938419 -2.00339818 0.9693719149 
7.314001083 -1.723229885 -2.003405571 0.9693718553 
7.383425236 -1.396308541 -2.003409386 0.969371736 
7.438226223 -1.066459894 -2.003409624 0.969371736 
7.503534794 -0.4010790884 -2.003398657 0.9693719149 
7.509387016 0.2674462795 -2.003373146 0.9693723321 
7.48998785 0.6012011766 -2.003354788 0.9693726301 
7.455747128 0.9338549376 -2.003333092 0.9693729281 
7.406735897 1.264526367 -2.003307581 0.9693732858 
7.264809608 1.917766094 -2.003246307 0.9693742394 
6.944523811 2.867499828 -2.003129244 0.9693759084 
6.809934139 3.173486233 -2.003083944 0.9693766236 
6.661867619 3.473159075 -2.003035307 0.9693773985 
6.500601768 3.765986204 -2.002984047 0.9693781734 
6.326470852 4.0513134 -2.002929688 0.9693790078 
6.139826298 4.328857422 -2.002872467 0.9693793058 
5.941012859 4.597304821 -2.002812862 0.9693807364 
5.508545876 5.10682106 -2.002686024 0.9693826437 
5.275722504 5.346650124 -2.002619028 0.969383657 
4.245117188 6.195383072 -2.002331495 0.9693880081 
3.870456457 6.22549057 -1.954424858 0.9701093435 
3.502690315 6.236596584 -1.907061219 0.9708230495 
3.150903225 6.245717525 -1.86509788 0.9714558125 
1.681074142 6.731032372 -1.849706531 0.9716880322 
0.6844189167 3.372109413 -0.9173810482 0.9858567119 
-0.4627197087 6.921869755 -1.849582672 0.9716898799 
-1.379661798 6.797548771 -1.849271059 0.9716945887 
-1.68049562 6.728723049 -1.84907186 0.9716975689 
-2.083561897 3.70981431 -1.134407043 0.9825401902 
-2.409150362 3.200688362 -1.068065524 0.9835528135 
-2.531489134 3.068911076 -1.060661793 0.9836659431 
-2.748940468 2.785866737 -1.043468714 0.9839285612 
-2.882995605 2.672749043 -1.048141599 0.9838571548 
-3.353950024 2.59536624 -1.130671144 0.9825972319 
-3.992043257 2.556403637 -1.263860464 0.9805672765 
-4.846369743 2.526662588 -1.457166433 0.9776285291 
-7.053114891 2.551342726 -1.99970305 0.969427526 
-7.159574986 2.235053778 -1.999689579 0.9694277644 
-7.251870155 1.914353013 -1.999679804 0.9694279432 
-7.329828739 1.589855909 -1.999673843 0.9694280028 
-7.476242542 0.6000927687 -1.999677896 0.9694279432 
-7.495568752 0.2669311464 -1.999686599 0.969427824 
-7.500070572 -0.06676757336 -1.999698877 0.9694276452 
-7.48973608 -0.4003368914 -1.999714971 0.9694274068 
-7.464587212 -0.7331127524 -1.99973464 0.9694271088 
-7.217270374 -2.043290854 -1.999848247 0.9694253206 
-6.742031097 -3.289125919 -2.000015259 0.9694228768 
-6.423339844 -3.875536919 -2.00011754 0.9694213271 
-6.244758129 -4.157553673 -2.000172615 0.9694204926 
-4.927548885 -5.658894062 -2.000556946 0.969414711 
-4.130973816 -6.265089989 -2.000777245 0.9694113731 
-3.848339796 -6.442890644 -2.000853777 0.9694102407 
-3.558058977 -6.607961178 -2.00093174 0.9694090486 
-3.260722637 -6.759963036 -2.001010895 0.9694078565 
-2.95690918 -6.898593426 -2.001091242 0.9694066644 
-2.012653828 -7.231667519 -2.001336575 0.9694029689 
-1.032319307 -7.436132431 -2.001585722 0.9693992138 
-0.3673510551 -7.499076843 -2.001751661 0.9693967104 
0.300643295 -7.502663612 -2.001915932 0.9693942666 
2.269951105 -7.159191608 -2.002385855 0.9693871737 
3.202962637 -6.794111252 -2.002600431 0.969383955 
3.502139807 -6.645122051 -2.002667904 0.9693829417 
4.355871677 -6.120439529 -2.002856493 0.9693800807 
4.882891655 -5.709384441 -2.002969265 0.9693784118 
5.132165432 -5.486670017 -2.003021717 0.9693775773 
5.37127924 -5.253076077 -2.003070831 0.969376862 
5.599768162 -5.009057522 -2.003117085 0.9693761468 
6.023055077 -4.491718769 -2.003200293 0.9693748951 
6.217012882 -4.219433308 -2.003237009 0.9693743587 
6.723596096 -3.3545506 -2.003326416 0.9693730474 
7.29837513 -1.788269043 -2.003404379 0.9693718553 
7.428447247 -1.132583022 -2.003409863 0.969371736 
7.49967289 -0.4678320289 -2.003400326 0.9693719149 
7.49505949 0.534550786 -2.003358841 0.9693725109 
7.463778019 0.8673681617 -2.003337622 0.9693728685 
7.417722225 1.198562026 -2.003312826 0.9693731666 
7.356957912 1.527270436 -2.003284693 0.9693736434 
7.191854 2.175068378 -2.003217936 0.9693746567 
6.837946415 3.112753868 -2.003093243 0.9693765044 
6.533888817 3.708022356 -2.002994299 0.9693779945 
6.362303257 3.994892597 -2.002940655 0.969378829 
5.553797245 5.057641506 -2.002699137 0.9693824649 
4.830723763 5.751254559 -2.002493382 0.9693855643 
4.300129414 6.157387733 -2.002346516 0.9693877697 
3.574868202 6.234469891 -1.916064978 0.9706873298 
3.220145226 6.244121075 -1.873106599 0.9713349938 
2.61904788 6.423745155 -1.849535584 0.9716905951 
2.037866116 6.631567001 -1.84966445 0.9716886282 
0.5633935332 3.390922785 -0.9164584279 0.9858708382 
-0.7087438703 6.900727272 -1.84950614 0.9716910124 
-1.014971852 6.862099648 -1.849434495 0.9716921449 
-1.620570064 6.743561745 -1.849113703 0.9716969728 
-1.918718219 6.66401577 -1.848895073 0.9717002511 
-2.21296382 6.571203232 -1.848652244 0.9717039466 
-2.0630126 3.751008272 -1.141345382 0.982434392 
-2.162141085 3.547739267 -1.107691765 0.982947886 
-2.268269062 3.374338388 -1.084011912 0.9833093286 
-2.384682655 3.227548838 -1.069906712 0.9835246801 
-2.50776124 3.095883608 -1.062224507 0.9836420417 
-2.623811007 2.959624052 -1.054514408 0.9837598205 
-3.59680891 2.58400631 -1.180774331 0.9818331003 
-3.925136566 2.563107967 -1.249851823 0.9807805419 
-5.279406548 2.517646313 -1.559419036 0.9760775566 
-6.90696764 2.924155235 -1.999723792 0.969427228 
-7.139413834 2.298666954 -1.999692082 0.9694277048 
-7.234562874 1.978796363 -1.999681473 0.9694278836 
-7.315404892 1.655009747 -1.999674797 0.9694280028 
-7.470597744 0.6666137576 -1.999676585 0.9694279432 
-7.500356197 -4.882812391e-06 -1.999696136 0.9694276452 
-7.492990494 -0.333645016 -1.999711394 0.9694274068 
-7.433830261 -0.9983202815 -1.999752879 0.9694268107 
-7.382163048 -1.328032255 -1.999778867 0.9694263935 
-7.235138893 -1.978952646 -1.999841213 0.9694254994 
-7.14006567 -2.298911095 -1.999877572 0.969424963 
-7.030878544 -2.614301682 -1.99991715 0.9694243073 
-6.770998478 -3.229001284 -2.00000596 0.969422996 
-6.457531452 -3.818215132 -2.000106573 0.9694215059 
-6.092956543 -4.377280235 -2.000218868 0.969419837 
-5.892392635 -4.644128323 -2.00027895 0.9694188833 
-5.680141449 -4.90180397 -2.000341415 0.9694179296 
-4.977687836 -5.614772797 -2.000542879 0.9694148898 
-4.723161697 -5.830844402 -2.000614166 0.9694138765 
-3.320710421 -6.730637074 -2.000995159 0.9694080949 
-2.395620108 -7.113586426 -2.001237631 0.969404459 
-2.076894522 -7.213403225 -2.001320124 0.9694032669 
-1.427674532 -7.370068073 -2.001486063 0.9694007039 
-1.098461866 -7.426586628 -2.001569271 0.9693994522 
-0.7670471072 -7.468417645 -2.001652241 0.9693982005 
-0.4340820312 -7.495449066 -2.00173521 0.9693969488 
1.230817795 -7.407978535 -2.00214076 0.9693908691 
1.559194326 -7.346179008 -2.002218962 0.969389677 
1.884539723 -7.269814491 -2.002295732 0.9693885446 
2.206135273 -7.179062366 -2.002371073 0.9693874121 
2.523388624 -7.074086666 -2.002444744 0.9693862796 
2.835678577 -6.955080509 -2.002516747 0.9693852067 
3.142373085 -6.822289944 -2.002586603 0.9693841338 
3.44285512 -6.675973892 -2.002654552 0.9693831205 
3.736545324 -6.516438007 -2.002720356 0.9693821073 
4.022847652 -6.343964577 -2.002783537 0.9693812132 
4.831846714 -5.752590179 -2.002958536 0.9693785906 
5.083096981 -5.532099724 -2.003011465 0.9693777561 
5.324291706 -5.300644398 -2.003061295 0.9693769813 
5.98281002 -4.545136452 -2.003192663 0.9693750143 
6.179207802 -4.274558067 -2.003229856 0.9693744779 
6.363343239 -3.995532036 -2.003263712 0.9693739414 
6.693471432 -3.414233208 -2.003321409 0.969373107 
6.970586777 -2.805869102 -2.00336504 0.9693724513 
7.088556767 -2.493076086 -2.003381252 0.9693721533 
7.192480087 -2.175287962 -2.003393888 0.9693719745 
7.357409477 -1.527458429 -2.003408194 0.969371736 
7.418072224 -1.198691368 -2.003410101 0.969371736 
7.464046478 -0.8674365282 -2.003407955 0.9693717957 
7.495224476 -0.5346093774 -2.003401995 0.9693718553 
7.512978554 0.133657217 -2.003379583 0.9693722725 
7.37027216 1.461733341 -2.003290653 0.9693735838 
7.297839165 1.788176179 -2.003259659 0.969374001 
7.109774113 2.429643393 -2.003187418 0.9693750739 
6.994515419 2.743410587 -2.003146648 0.9693757296 
6.72269249 3.354125977 -2.003055096 0.9693770409 
6.566666126 3.649736166 -2.003004789 0.9693778753 
6.215954304 4.218691349 -2.002895594 0.9693795443 
6.021965027 4.490898132 -2.002836943 0.9693803787 
5.816057205 4.754187107 -2.002775908 0.9693812728 
5.59863615 5.008041859 -2.002712011 0.9693822861 
5.131026268 5.485454082 -2.00257802 0.969384253 
4.881761551 5.708071232 -2.002507687 0.9693853259 
4.022724628 6.220695496 -1.975087881 0.9697981477 
3.647681713 6.232299805 -1.925295234 0.9705482125 
2.680668831 6.411046982 -1.85267365 0.9716432095 
2.388828039 6.513105392 -1.849595904 0.9716897011 
0.7556433082 3.410473585 -0.9313297868 0.985643208 
0.892880857 6.880605221 -1.849843383 0.971685946 
0.5859167576 6.913432598 -1.849821925 0.971686244 
-1.859396935 6.680991173 -1.84894073 0.9716995358 
-2.730998516 6.371547699 -1.848210573 0.9717105627 
-2.043811083 3.795722485 -1.149369359 0.982311964 
-2.14302969 3.587856293 -1.114217281 0.9828482866 
-2.483505726 3.122355938 -1.063680887 0.9836198092 
-2.990905762 2.627844095 -1.061478376 0.9836534262 
-3.240856886 2.601379395 -1.107980967 0.9829434156 
-4.201899529 2.535217285 -1.30839777 0.9798893929 
-5.162553787 2.518566847 -1.531462669 0.9765013456 
-7.006611347 2.676476955 -1.999709249 0.9694274664 
-7.216667175 2.043117523 -1.99968338 0.9694278836 
-7.300383091 1.720060945 -1.99967587 0.9694279432 
-7.369655609 1.393608332 -1.999672055 0.9694280624 
-7.500046253 0.06673339754 -1.999693513 0.9694277048 
-7.442404747 -0.9321435094 -1.999747992 0.9694268703 
-7.393666744 -1.262299776 -1.999773383 0.9694265127 
-7.330300331 -1.589970708 -1.999802232 0.9694260955 
-7.252433777 -1.914501905 -1.999834418 0.969425559 
-7.160222054 -2.235261202 -1.999870062 0.9694250226 
-7.053833008 -2.551604033 -1.999909043 0.9694244862 
-6.799433231 -3.16858387 -1.999996424 0.9694231749 
-6.491228104 -3.760556459 -2.000096083 0.9694216251 
-6.131642818 -4.322844028 -2.000207186 0.9694200158 
-5.502211571 -5.100998402 -2.000393152 0.9694172144 
-5.270036697 -5.3408885 -2.000459909 0.9694161415 
-4.77481699 -5.7885499 -2.000599861 0.9694140553 
-3.962331533 -6.373281002 -2.000823021 0.9694107175 
-3.380461454 -6.700751781 -2.000979185 0.9694083333 
-3.079164982 -6.844762802 -2.001059055 0.9694071412 
-2.141008139 -7.194580078 -2.001303673 0.9694034457 
-1.818918467 -7.282998085 -2.001386404 0.969402194 
-1.164511681 -7.416454792 -2.001552582 0.9693996906 
-0.5007470846 -7.491225243 -2.00171876 0.9693972468 
0.5008434653 -7.492148399 -2.001964569 0.9693934917 
0.8336572051 -7.46274662 -2.002045393 0.9693922997 
1.493763447 -7.359696865 -2.002203226 0.9693899155 
2.142126322 -7.198369026 -2.002356052 0.9693875909 
2.773638964 -6.979994774 -2.002502441 0.9693853855 
3.081491709 -6.849941254 -2.002572775 0.9693843722 
3.383270264 -6.706313133 -2.002641201 0.969383359 
3.678362846 -6.549394608 -2.002707243 0.9693823457 
3.966194868 -6.379479885 -2.002771139 0.969381392 
4.246179104 -6.196928501 -2.002832651 0.9693804383 
5.033659458 -5.577079773 -2.003000975 0.9693778753 
6.140888691 -4.329365253 -2.003222704 0.9693745971 
6.327488899 -4.052033424 -2.003257275 0.969374001 
6.810808182 -3.173911095 -2.003340483 0.9693727493 
6.945336819 -2.867768526 -2.003361225 0.9693725109 
7.40710783 -1.264624 -2.003409863 0.969371736 
7.490171909 -0.6012743711 -2.003403425 0.9693718553 
7.50947237 -0.2673925757 -2.003394842 0.9693719745 
7.503410339 0.4010204971 -2.003366232 0.9693724513 
7.43791008 1.066332936 -2.003323317 0.969373107 
6.752299786 3.294167519 -2.003064871 0.9693769217 
6.253293514 4.16322279 -2.002907038 0.9693793654 
5.643001556 4.958066463 -2.002725124 0.9693820477 
4.932414532 5.664433479 -2.002521992 0.9693850875 
4.409117222 6.079956055 -2.002376556 0.9693873525 
4.100069523 6.21821785 -1.985810637 0.9696366787 
3.721191406 6.230080605 -1.934761167 0.9704055786 
3.018713236 6.2583251 -1.852519155 0.9716455936 
1.56101799 6.759912014 -1.849714756 0.9716879129 
0.6216967702 3.369741201 -0.9135818481 0.985914886 
0.6474047899 6.907963753 -1.849828005 0.9716861844 
0.3394933939 6.929775238 -1.849788785 0.9716867805 
0.0308654774 6.937792778 -1.849727154 0.9716876745 
-0.2777453661 6.93198204 -1.849643469 0.9716889858 
-1.197768569 6.832353592 -1.849378586 0.9716929793 
-1.799899817 6.697433949 -1.848985434 0.9716988802 
-2.095808029 6.609894753 -1.84875226 0.9717023969 
-2.387399912 6.509233475 -1.848495245 0.9717062712 
-2.123561859 3.628244638 -1.120844603 0.9827471375 
-2.337775946 3.284833908 -1.074929118 0.9834480286 
-2.458933115 3.148564339 -1.065113544 0.9835979342 
-2.690346718 2.876181602 -1.050009012 0.9838286042 
-3.185637236 2.603991747 -1.096979856 0.9831113815 
-4.130351543 2.542465687 -1.293114185 0.9801219702 
-5.049789906 2.519445658 -1.504606485 0.9769086242 
-5.657163143 2.514682531 -1.650575519 0.9746970534 
-7.414587021 1.130410075 -1.999671578 0.9694280624 
-7.457539082 0.7995019555 -1.99967432 0.9694280028 
-7.485751629 0.4669384658 -1.999680877 0.9694278836 
-7.499147892 0.1335156262 -1.999691129 0.9694277644 
-7.497712135 -0.2002368122 -1.999704838 0.969427526 
-7.481452465 -0.5335986018 -1.999722362 0.9694272876 
-7.450390339 -0.8658520579 -1.999743462 0.96942693 
-7.4045825 -1.196462393 -1.999768019 0.9694265723 
-7.344145298 -1.524653316 -1.999796152 0.9694261551 
-7.269159794 -1.849897385 -1.999827743 0.9694256783 
-7.179804325 -2.171420813 -1.999862671 0.9694252014 
-7.076237679 -2.488735199 -1.999900937 0.9694245458 
-6.827326298 -3.107941866 -1.999987125 0.9694232941 
-6.682487488 -3.408630371 -2.000034809 0.9694225788 
-6.169828892 -4.268095493 -2.000195503 0.969420135 
-5.766413212 -4.799870491 -2.000316143 0.9694183469 
-5.31732893 -5.293737888 -2.00044632 0.9694163799 
-4.826122761 -5.745780945 -2.000585318 0.9694142938 
-4.56589365 -5.95501709 -2.000657797 0.9694131613 
-4.018847466 -6.337721825 -2.000807524 0.9694109559 
-3.139943838 -6.817033768 -2.001042843 0.9694073796 
-2.833679199 -6.950253963 -2.001123667 0.9694061875 
-2.521835804 -7.069694519 -2.001205206 0.9694049358 
-2.20491457 -7.175182819 -2.001287222 0.9694037437 
-1.558597326 -7.343371391 -2.001452684 0.9694011807 
-1.230473638 -7.405732155 -2.001535892 0.9693999887 
-0.2338293344 -7.504550457 -2.001784801 0.9693962336 
0.4341284037 -7.49625206 -2.001948595 0.9693937302 
0.7672216892 -7.469814301 -2.002029181 0.9693925381 
1.428210378 -7.372641563 -2.002187729 0.9693901539 
1.754787564 -7.302106857 -2.002265215 0.9693889618 
2.397037268 -7.117768288 -2.002415657 0.9693867564 
2.711421967 -7.004340649 -2.002488136 0.9693856239 
3.020379543 -6.877053261 -2.002558947 0.969384551 
3.323453188 -6.736103535 -2.002627611 0.9693835378 
3.61989975 -6.581830978 -2.002694368 0.9693825245 
4.464167595 -6.042011738 -2.002879858 0.9693797231 
4.728625298 -5.837636471 -2.002936602 0.9693788886 
5.688104153 -4.908622742 -2.003134966 0.9693758488 
6.467804909 -3.824245453 -2.003282547 0.969373703 
6.631594181 -3.532822132 -2.003310919 0.9693732858 
6.782286167 -3.23435545 -2.003335953 0.9693728685 
7.04304409 -2.618806124 -2.003375292 0.9693722725 
7.248013973 -1.982509732 -2.003399849 0.9693719149 
7.395563602 -1.330493093 -2.003409624 0.969371736 
7.447419167 -1.000278354 -2.003409147 0.969371736 
7.484532356 -0.6678661704 -2.003404856 0.9693718553 
7.514190674 -2.19726553e-05 -2.003385067 0.9693721533 
7.484323502 0.6678124666 -2.003350735 0.9693726897 
7.395170689 1.330380797 -2.003302097 0.969373405 
7.328557014 1.657997966 -2.003272533 0.9693738222 
7.151944637 2.302729368 -2.003203154 0.9693748951 
6.466805458 3.823652267 -2.002973318 0.9693783522 
6.290119648 4.107450962 -2.002918243 0.9693791866 
6.101011753 4.382392406 -2.002860785 0.9693815112 
5.899820328 4.649972916 -2.002800465 0.9693809748 
5.462834358 5.15561533 -2.002672911 0.9693828821 
4.982648849 5.620361328 -2.002536058 0.9693849087 
4.178217888 6.215688229 -1.996796012 0.9694713354 
3.43117547 6.238676548 -1.898282528 0.9709553719 
3.084653139 6.25203371 -1.858715653 0.9715520144 
1.919564128 6.666840553 -1.849681377 0.9716883898 
1.621094942 6.745744705 -1.849710941 0.9716879725 
0.6524108648 3.367831945 -0.9146023393 0.9858992696 
0.7088415623 6.901952744 -1.849833131 0.9716860652 
0.09259155393 6.93729496 -1.84974122 0.9716874957 
-0.2160595655 6.934247971 -1.849661946 0.9716886878 
-1.440057397 6.784862995 -1.84923315 0.9716951847 
-2.036911488 6.62846899 -1.848800778 0.9717016816 
-2.617233753 6.419372559 -1.848273158 0.971709609 
-1.906237721 4.138566971 -1.214819312 0.9813142419 
-2.10374999 3.668876886 -1.127571821 0.9826444983 
-2.313969612 3.31339097 -1.077494264 0.9834088087 
-2.554992676 3.04186511 -1.059127569 0.9836893082 
-2.668390989 2.904072285 -1.051482439 0.9838060737 
-2.765185595 2.752910137 -1.040296793 0.9839770198 
-2.918713331 2.657949209 -1.052484393 0.9837908149 
-3.132624388 2.607541561 -1.086678386 0.9832686186 
-3.723391056 2.57573247 -1.207086205 0.9814320207 
-4.060439587 2.549528837 -1.278278232 0.9803477526 
-5.526345253 2.515705585 -1.618879318 0.9751768708 
-6.957892895 2.800754309 -1.999716282 0.9694273472 
-7.075522423 2.488483906 -1.99969995 0.9694275856 
-7.268630028 1.849687457 -1.999678254 0.9694279432 
-7.343691349 1.524545908 -1.999673128 0.9694280028 
-7.404240608 1.196328044 -1.999671459 0.9694280028 
-7.450131893 0.8658178449 -1.999673605 0.9694280028 
-7.497655869 0.2002246082 -1.999688625 0.9694277644 
-7.499191761 -0.13351807 -1.999701858 0.9694275856 
-7.457785606 -0.7995336652 -1.999738932 0.9694269896 
-7.285322189 -1.785075665 -1.999821067 0.9694257975 
-7.098088264 -2.425610304 -1.99989295 0.9694247246 
-6.854701996 -3.047011614 -1.999977946 0.9694234133 
-6.71252203 -3.349030733 -2.000025034 0.969422698 
-6.388628006 -3.932575703 -2.000128269 0.9694211483 
-5.36418438 -5.246179104 -2.000432968 0.9694165587 
-5.125702858 -5.479765415 -2.000501156 0.9694155455 
-4.877011776 -5.702575684 -2.000571012 0.9694144726 
-4.351198673 -6.11391592 -2.000716925 0.9694122672 
-3.790861845 -6.476938248 -2.000869274 0.9694100022 
-2.895437002 -6.924682617 -2.001107454 0.969406426 
-2.58460927 -7.046928406 -2.001188755 0.9694051743 
-1.948222637 -7.249352932 -2.001353264 0.9694027305 
-1.623851299 -7.329145432 -2.001435995 0.9694014788 
-1.296301246 -7.394423485 -2.001519203 0.9694002271 
-0.966093719 -7.445085049 -2.001602411 0.9693989754 
-0.3005798161 -7.502114296 -2.001768351 0.969396472 
0.7006628513 -7.476281643 -2.002013206 0.9693928361 
1.362484097 -7.385014534 -2.002171993 0.9693903923 
1.689746022 -7.317372799 -2.002249956 0.9693892002 
2.013622999 -7.235241413 -2.002326012 0.9693880677 
2.33359623 -7.138766766 -2.002400875 0.9693869352 
3.561170578 -6.613735199 -2.002681017 0.9693827629 
3.852003098 -6.448964596 -2.002745867 0.9693817496 
4.410204887 -6.081462383 -2.002868414 0.9693799019 
4.676469803 -5.8794384 -2.002925634 0.9693790674 
5.180790901 -5.44082737 -2.003031731 0.9693774581 
5.417851448 -5.205082893 -2.003080368 0.9693766832 
5.644136906 -4.959059715 -2.003125906 0.9693760276 
5.859283447 -4.703383446 -2.003168583 0.9693748951 
6.062802792 -4.437973499 -2.003207922 0.9693747759 
6.254343033 -4.1639328 -2.003243923 0.9693742394 
6.599882603 -3.59168458 -2.003305674 0.9693733454 
6.753194332 -3.294628859 -2.003331184 0.9693729281 
6.893156528 -2.990947247 -2.003353357 0.9693726301 
7.131825924 -2.366547823 -2.003386736 0.9693720341 
7.314001083 -1.723229885 -2.003405571 0.9693718553 
7.383437157 -1.396171808 -2.003409386 0.9693717957 
7.478295803 -0.7344189286 -2.003406048 0.9693717957 
7.513903618 -0.06690917909 -2.00338769 0.9693720937 
7.509382248 0.2673559487 -2.003373146 0.9693723321 
7.455747128 0.9337182641 -2.003333092 0.9693729877 
7.406735897 1.264526367 -2.003307581 0.9693732858 
7.343052864 1.592641592 -2.003278732 0.9693737626 
7.264809608 1.917766094 -2.003246307 0.9693742394 
7.172193527 2.238955021 -2.003210545 0.9693747759 
6.809934139 3.173486233 -2.003083944 0.9693766236 
6.326453686 4.051362038 -2.002929688 0.9693789482 
6.139826298 4.328857422 -2.002872467 0.9693793058 
5.940993309 4.59732914 -2.002812862 0.9693807364 
5.275745869 5.346623421 -2.002619028 0.969383657 
5.032495022 5.575849533 -2.002549887 0.9693846703 
4.516673565 6.000632286 -2.00240612 0.9693868756 
4.245148659 6.195356369 -2.002331734 0.9693880081 
3.870456457 6.22549057 -1.954424858 0.9701093435 
3.150903225 6.245717525 -1.86509788 0.9714558125 
2.84605217 6.326638222 -1.849582434 0.9716898799 
0.6844189167 3.372109413 -0.9173810482 0.9858567119 
0.1543664485 6.936244965 -1.849754453 0.9716872573 
-0.1543579102 6.935961723 -1.84967947 0.9716883898 
-1.075972915 6.852734089 -1.849416971 0.9716923833 
-1.680463791 6.728732586 -1.84907186 0.9716975689 
-1.977912545 6.64650631 -1.848848343 0.9717009664 
-2.560095072 6.442599773 -1.848330021 0.9717087746 
-2.843950033 6.321828365 -1.848184824 0.9717109799 
-1.987978458 3.940561533 -1.176733017 0.9818947315 
-2.180903196 3.507902861 -1.101268172 0.983045876 
-2.409150362 3.200688362 -1.068065524 0.9835528135 
-2.531489134 3.068911076 -1.060661793 0.9836659431 
-2.646196127 2.9319067 -1.052985311 0.9837831259 
-3.353923321 2.59536624 -1.130664706 0.9825972915 
-3.992011547 2.556411028 -1.263854027 0.9805673361 
-4.366350174 2.529548168 -1.345370412 0.979327023 
-6.932717323 2.862553596 -1.999719977 0.9694272876 
-7.393290997 1.262221694 -1.999671459 0.9694280624 
-7.442128658 0.9320654273 -1.999672771 0.9694280028 
-7.476242542 0.6001220345 -1.999677896 0.9694279432 
-7.495568752 0.2669311464 -1.999686599 0.969427824 
-7.50007534 -0.06673339754 -1.999698877 0.9694275856 
-7.48973608 -0.4003368914 -1.999714971 0.9694274068 
-7.300888538 -1.720190406 -1.999814749 0.9694258571 
-7.217255592 -2.043317795 -1.999848247 0.9694253802 
-7.11935997 -2.362358332 -1.999885201 0.9694247842 
-6.742016315 -3.289155245 -2.000015259 0.9694228768 
-5.850869179 -4.696393967 -2.000291348 0.9694187045 
-5.636322975 -4.952179909 -2.00035429 0.9694178104 
-5.410656452 -5.198156834 -2.000419617 0.9694167972 
-5.174218655 -5.433906078 -2.000487328 0.9694157839 
-4.92757082 -5.658874512 -2.000556946 0.969414711 
-4.671105862 -5.872700214 -2.00062871 0.9694136381 
-3.558058977 -6.607961178 -2.00093174 0.9694090486 
-2.647189856 -7.023598671 -2.001172543 0.9694054127 
-2.332260609 -7.13468504 -2.00125432 0.969404161 
-1.362026334 -7.382543564 -2.001502752 0.9694004655 
-1.032354712 -7.436132431 -2.001585722 0.9693992138 
-0.03340331838 -7.508300781 -2.001834154 0.9693954587 
0.3006054759 -7.502670765 -2.001915932 0.969394207 
1.296715021 -7.396784306 -2.002156496 0.9693906307 
2.269978046 -7.159191608 -2.002385855 0.9693871737 
2.897496223 -6.929609299 -2.002530813 0.9693849683 
3.202962637 -6.794111252 -2.002600431 0.969383955 
3.794398069 -6.482968807 -2.002732992 0.9693819284 
4.355848312 -6.120453835 -2.002856493 0.9693800807 
4.623951435 -5.920781136 -2.00291419 0.9693792462 
5.132165432 -5.486670017 -2.003021717 0.9693775773 
5.599768162 -5.009057522 -2.003117085 0.9693761468 
6.023055077 -4.491718769 -2.003200293 0.9693748951 
6.217027664 -4.21944809 -2.003237009 0.9693742394 
6.39866209 -3.938725471 -2.003270149 0.9693739414 
6.723596096 -3.3545506 -2.003326416 0.9693730474 
6.866259575 -3.052148342 -2.003349304 0.9693726897 
7.513020992 -0.1338061541 -2.003390074 0.9693720341 
7.511481762 0.2005517483 -2.003376245 0.9693722725 
7.463778019 0.8673681617 -2.003337622 0.9693728685 
7.087834358 2.492790461 -2.00317955 0.9693752527 
6.837935448 3.112797737 -2.003093243 0.9693765044 
6.178124905 4.273837566 -2.00288415 0.9693796635 
5.773468971 4.805737019 -2.002763271 0.9693815112 
5.323142052 5.299511433 -2.002632618 0.9693834782 
4.830723763 5.751254559 -2.002493382 0.9693855643 
4.569915771 5.960248947 -2.002420902 0.9693866968 
3.946180344 6.223120213 -1.964627743 0.9699556828 
3.574868202 6.234469891 -1.916064978 0.9706873298 
2.330803156 6.534147739 -1.849609137 0.9716894627 
0.7183178663 3.384374857 -0.9224207997 0.9857795835 
0.5634057522 3.39091301 -0.916457355 0.9858708978 
0.8315991163 6.888266563 -1.84984076 0.9716860056 
0.2160778791 6.934643269 -1.84976685 0.9716870785 
-0.401096195 6.925790787 -1.849603891 0.9716895819 
-1.014971852 6.862099648 -1.849434495 0.9716921449 
-1.620570064 6.743561745 -1.849113703 0.9716969728 
-2.502753735 6.465322018 -1.848386049 0.9717079401 
-2.162141085 3.547739267 -1.107691765 0.982947886 
-2.623811007 2.959624052 -1.054514408 0.9837598205 
-2.847524405 2.687382698 -1.043900609 0.9839219451 
-3.596843243 2.584011078 -1.180780411 0.9818329811 
-3.925136566 2.563107967 -1.249851823 0.9807805419 
-4.282636642 2.532209396 -1.326466918 0.9796144962 
-4.744111061 2.527309418 -1.433127522 0.9779934883 
-7.234562874 1.978796363 -1.999681473 0.9694278836 
-7.381767273 1.327954054 -1.999671578 0.9694280624 
-7.470597744 0.6666137576 -1.999676585 0.9694279432 
-7.227138519 -0.3218139708 -1.999776244 0.970423758 
-7.205737114 -0.6429882646 -1.999794602 0.97042346 
-7.17008543 -0.9629052281 -1.999816298 0.970423162 
-6.978417873 -1.908752441 -1.999901533 0.9704219103 
-6.530734539 -3.114399433 -2.00006032 0.9704195857 
-5.876733303 -4.221935749 -2.000265837 0.9704166055 
-5.683276176 -4.479289532 -2.000323534 0.970415771 
-5.478552341 -4.72783947 -2.000384092 0.9704148769 
-5.036989689 -5.196383953 -2.000511408 0.9704130292 
-4.555510044 -5.623881817 -2.00064683 0.9704110622 
-4.037922382 -6.006943226 -2.000789642 0.9704089761 
-3.766852856 -6.180849552 -2.000863314 0.9704079032 
-3.202834368 -6.491677284 -2.001014471 0.9704056978 
-2.911003351 -6.627975941 -2.00109148 0.9704045653 
-2.613388538 -6.751176834 -2.001169682 0.9704034328 
-2.310573578 -6.86101532 -2.001248598 0.9704023004 
-2.003166437 -6.957284927 -2.001327991 0.9704011083 
-1.37698245 -7.108356953 -2.001487732 0.9703987837 
-1.059458017 -7.162863731 -2.001568079 0.9703975916 
-0.7398071289 -7.20318079 -2.001648188 0.9703964591 
-0.4186645448 -7.229255199 -2.001728058 0.970395267 
-0.09666991979 -7.241010666 -2.001807928 0.9703941345 
0.225543201 -7.238427639 -2.001886845 0.970393002 
0.8680627346 -7.190297604 -2.00204277 0.9703906775 
1.187103271 -7.14483881 -2.002119303 0.9703896046 
1.817570806 -7.011571884 -2.002268791 0.9703873992 
2.433735371 -6.822768211 -2.002412558 0.970385313 
2.734918118 -6.707985878 -2.002481937 0.9703842998 
3.603766918 -6.284899712 -2.002678394 0.9703814983 
3.879891157 -6.118564129 -2.002739429 0.9703805447 
4.902461052 -5.335519791 -2.002959013 0.9703773856 
5.357525349 -4.878901482 -2.003052235 0.9703760147 
5.770195007 -4.383593559 -2.003133774 0.9703748226 
5.959587097 -4.122656345 -2.003169775 0.9703742862 
6.595734596 -3.002499819 -2.00328064 0.9703726768 
6.836613655 -2.404365063 -2.003315926 0.9703722596 
6.936844349 -2.097956419 -2.003328085 0.9703719616 
7.095901966 -1.473164082 -2.003341913 0.9703717828 
7.154416561 -1.156054616 -2.003343344 0.9703717232 
