# .PCD v0.7 - Point Cloud Data file format
VERSION 0.7
FIELDS x y z intensities
SIZE 4 4 4 4
TYPE F F F F
COUNT 1 1 1 1
WIDTH 928
HEIGHT 1
VIEWPOINT 0 0 0 1 0 0 0
POINTS 928
DATA ascii
-36.37186432 28.66669655 1.058634043 0.8308619261 
-36.66563416 26.34095955 1.032024503 0.8347411752 
-44.04573059 23.46431351 1.140819073 0.818996191 
-35.39277267 14.9841814 0.8785772324 0.8574638367 
-35.31429291 13.13078785 0.8612639904 0.8600667119 
-35.54468155 11.44444084 0.85360533 0.8612196445 
-44.20240784 10.00040722 1.035974145 0.834163785 
-13.66959572 0.6086156964 0.3127888441 0.9467247725 
-13.63565063 2.441406195e-06 0.1870010346 0.9469133019 
-13.62155819 -1.215493083 0.187550202 0.9467616677 
-97.97915649 -17.62629509 1.365274906 0.6714971662 
-94.09013367 -21.28682327 1.322977304 0.6798327565 
-36.46897888 -13.5602417 0.533595562 0.8558600545 
-32.14826965 -13.61050034 0.478769511 0.8696573973 
-28.62638664 -13.65146732 0.4349426031 0.8808469772 
-23.73705482 -12.64530468 0.3688421547 0.8979948759 
-22.06296349 -14.40708733 0.3613717556 0.8999544382 
-22.07988167 -15.86253643 0.3728489578 0.8969467282 
-22.09795761 -17.41662788 0.3858669996 0.8935470581 
-12.10971069 -12.49291515 0.2386120558 0.9327652454 
-11.6846714 -13.18017292 0.241558522 0.9319630265 
-9.116991043 -13.56273651 0.224118039 0.9367161989 
-8.271658897 -13.57256603 0.2179791182 0.9383953214 
-6.705359936 -13.59078789 0.2078358382 0.9411757588 
-5.267478943 -13.60750675 0.2001080215 0.9432996511 
-3.922425508 -13.62317085 0.1944201589 0.9448663592 
-2.018270254 -13.64531422 0.1891693026 0.9463145733 
-1.402181387 -13.65247726 0.1882167011 0.9465776086 
-0.7910583615 -13.65959167 0.1876429766 0.9467359185 
0.4150695801 -13.3209343 0.1827731282 0.9480816722 
1.320621252 -17.4242115 0.239642635 0.9324839711 
2.104683876 -17.43332672 0.2408184707 0.9321642518 
3.704119682 -17.451931 0.2446711659 0.9311177731 
4.526446342 -17.46150017 0.2473846376 0.9303807616 
5.368922234 -17.47130013 0.2506605387 0.9294916987 
29.08039474 -50.71552658 0.8017440438 0.7914665937 
29.13585472 -45.94685364 0.7461273074 0.8044114113 
36.95476913 -43.99676514 0.787979722 0.7946513295 
40.46332932 -44.03759766 0.8201614022 0.7872251868 
44.27862549 -44.08198166 0.8568584919 0.7788431048 
29.73073196 -24.74729156 0.5305009484 0.856633544 
30.87500954 -21.35833168 0.5148664713 0.8605492711 
34.85234451 -19.77882957 0.5495752096 0.851880312 
35.31432724 -18.01333618 0.5436739922 0.8533481359 
35.3367424 -16.08592415 0.5324604511 0.8561430573 
63.85903168 -16.25092888 0.903678596 0.768279016 
119.532341 7.456262112 1.64246726 0.6193382144 
70.86416626 14.05478954 0.9907769561 0.7490083575 
82.22438049 32.25055695 1.211267114 0.7023488283 
80.57595825 35.81744766 1.209275126 0.7027559876 
80.63291168 40.22944641 1.235800743 0.6973416805 
54.5157547 30.29966736 0.8553475738 0.7791870832 
23.06645012 15.65496063 0.3823119998 0.8944740891 
39.58906555 32.3611145 0.701236248 0.8150145411 
35.74409103 34.95751572 0.6856594682 0.8187262416 
7.903958797 9.24185276 0.1667758077 0.952516675 
36.05201721 46.16331482 0.803275764 0.7911132574 
36.31238556 56.15291977 0.9170742631 0.7652831078 
41.73776627 88.53372192 1.342326045 0.6760068536 
32.6163559 102.8690796 1.47996521 0.6494010687 
4.483306885 111.8859711 1.535659432 0.6389397383 
-54.44148254 101.1075363 1.574837565 0.6316782832 
-54.74279022 91.6503067 1.464039922 0.6524252295 
-35.04124451 53.14387512 0.8729894757 0.775187552 
-34.8627243 48.07436371 0.8144076467 0.7885483503 
-35.03053665 33.65497589 0.6662011743 0.8233867884 
-35.12299728 25.7098465 0.5969347954 0.8401915431 
-36.37822723 19.79718971 0.5679940581 0.8473169208 
-35.22220993 17.18330193 0.5374560356 0.854896009 
-35.2442131 15.29247761 0.5268818736 0.8575376272 
-35.35039902 10.00806332 0.5038534403 0.8633173108 
-14.09848976 1.384621501 0.1942771822 0.9449052811 
-13.64426136 0.7292650938 0.1873853952 0.9468069077 
-13.63707829 0.1213696226 0.1870266646 0.9469058514 
-13.62998581 -0.4854247868 0.1870426834 0.9469020367 
-13.622962 -1.093505859 0.1874285787 0.946795404 
-14.08614063 -1.764223576 0.1946875006 0.9447923303 
-103.453476 -17.66212654 1.439304113 0.657151401 
-22.53294373 -13.05400372 0.357131958 0.9010682106 
-22.0596962 -14.12654018 0.3592454493 0.9005129933 
-22.07641029 -15.56406975 0.3704359233 0.8975780606 
-14.62196827 -12.3930006 0.2628652751 0.9261891842 
-13.3350811 -12.36263371 0.2493798733 0.9298397899 
-12.21069717 -12.3748064 0.23841995 0.9328168631 
-11.89364815 -13.17774105 0.2434452772 0.9314504862 
-10.19921494 -13.5501442 0.2325851321 0.9344052076 
-6.116985798 -13.59763432 0.2044795156 0.9420977235 
-5.406566143 -13.605896 0.2007833868 0.943113625 
-3.403873205 -13.62919617 0.1926525831 0.9453532696 
-2.767725706 -13.63659382 0.190827325 0.9458571076 
-2.142313242 -13.6438694 0.1894056648 0.946249187 
-1.524920583 -13.65105152 0.1883779913 0.9465334415 
0.8908410668 -13.32646656 0.1831690967 0.9479724169 
1.947227716 -17.43149567 0.2405447364 0.9322388172 
3.541719913 -17.45004654 0.244191736 0.9312476516 
5.198619366 -17.46931839 0.2499589473 0.929682076 
6.060220718 -17.47933769 0.2537122965 0.9286648631 
40.76683807 -80.80794525 1.241250634 0.6962339282 
29.06829071 -51.75644302 0.8140777349 0.7886243463 
29.12537956 -46.84706879 0.7565069199 0.801979661 
33.24060059 -44.16172791 0.7580319047 0.8016235828 
36.28548431 -43.98898315 0.7820214629 0.7960326672 
43.48834229 -44.07278061 0.8491274714 0.780602634 
29.37903786 -27.23660851 0.5494112968 0.8519197702 
29.6752243 -25.15153503 0.5334774852 0.8558885455 
30.79538918 -21.71100235 0.5167385936 0.8600789905 
30.81282234 -19.73182297 0.5017889142 0.8638373017 
44.29600906 -16.02326775 0.6460018754 0.8282520771 
51.59992981 -16.10825348 0.7413244247 0.8055391312 
61.45551682 -16.22296143 0.8716790676 0.7754848599 
76.51215363 -16.59562683 1.073690176 0.7311076522 
29.84296799 8.448862076 0.4253561199 0.8833133578 
80.55857849 34.95447922 1.204311848 0.7037770748 
24.59206581 14.83769417 0.3938920498 0.8914579749 
23.06373215 15.35512066 0.3799832165 0.895080924 
23.73502922 17.37392998 0.4033900499 0.8889906406 
40.30567169 32.35277939 0.708796382 0.8132180572 
36.09120178 37.90249252 0.7177596688 0.811096549 
37.21975327 51.324646 0.8694662452 0.7759844065 
36.27898788 55.02114105 0.9038391113 0.7682458758 
29.76133156 49.82646561 0.7959448099 0.7928081751 
47.66175842 88.51646423 1.378710628 0.6688681841 
41.42159653 96.63868713 1.44192934 0.6566483974 
4.390509129 89.62555695 1.230623722 0.6983981729 
-4.717527866 21.29177856 0.2991412282 0.9164564013 
-30.15009117 112.1887512 1.593182683 0.6283100247 
-34.95738602 54.05751038 0.8828628063 0.7729606628 
-34.90210342 44.6909256 0.7776547074 0.7970478535 
-34.9466629 40.86196136 0.7373760939 0.8064678907 
-35.3000145 26.32509041 0.6039034724 0.8384858966 
-35.14461899 23.85228729 0.5824984908 0.8437376618 
-35.17024994 21.64933777 0.5663875937 0.8477129936 
-35.60332108 19.78817558 0.5586276054 0.8496363163 
-36.30015564 16.13604164 0.5447971821 0.8530690074 
-35.26122665 13.83038807 0.5194445848 0.8594002724 
-35.34852982 10.34819603 0.5051211715 0.8629985452 
-43.68161011 10.70311737 0.6167721152 0.8353437185 
-48.70500565 9.659874916 0.6809570193 0.8198503256 
-14.13173199 1.51497066 0.1949150115 0.9447299242 
-13.63850403 0.2427856326 0.1870698482 0.9468942881 
-13.63139725 -0.3640307486 0.1870115548 0.946911037 
-88.95802307 -26.90416718 1.274559855 0.6895027161 
-37.51433563 -13.19379139 0.5453710556 0.8529261351 
-29.95482826 -13.63601303 0.4513655007 0.8766369224 
-22.64557076 -12.85144234 0.3570899963 0.9010792375 
-22.05647469 -13.849226 0.3571682572 0.901057899 
-22.09057999 -16.78213501 0.3804617226 0.8949570656 
-14.89667034 -12.39970875 0.2658074796 0.9253941774 
-12.42747879 -12.37228775 0.2404931635 0.9322529435 
-11.08088017 -13.19244862 0.2362757772 0.9334003329 
-9.468914986 -13.55863953 0.226802513 0.9359837174 
-8.604175568 -13.56869888 0.2203404158 0.9377487898 
-7.007044315 -13.58728218 0.2096557617 0.9406760931 
-6.262310505 -13.59593964 0.2052841187 0.9418766499 
-5.546602726 -13.60426521 0.2014808655 0.9429221153 
-4.855613708 -13.61231136 0.1982011348 0.94382447 
-3.532637835 -13.62769699 0.1930688471 0.9452387094 
0.1778088361 -13.3181715 0.1826635748 0.9481121898 
0.7716955543 -13.32507992 0.1830474883 0.9480057955 
1.790123224 -17.42967415 0.2402886897 0.9323080182 
5.029249191 -17.46734619 0.2492791712 0.9298661351 
5.885799408 -17.47731209 0.2529136539 0.928881526 
33.31394958 -86.06003571 1.265583515 0.6913102269 
6.709344387 -12.19910336 0.1909353584 0.9458276629 
29.65791512 -44.12004852 0.7290661335 0.8084253073 
32.62366486 -44.15456009 0.7528951764 0.8028256893 
39.02606964 -44.02086639 0.8067932129 0.7903030515 
42.7121582 -44.06377029 0.8415957689 0.7823193073 
29.34809494 -27.69764328 0.5534228683 0.850924015 
29.61839294 -25.55977821 0.536528945 0.8551282883 
30.20643997 -19.72477341 0.494758606 0.8656119704 
35.30508804 -18.80789757 0.5485955477 0.8521230221 
35.32788849 -16.84728241 0.5367663503 0.8550697565 
37.66508102 -15.94611073 0.5609292388 0.8490632772 
43.05421829 -16.00881577 0.6299474835 0.8321405053 
59.21632004 -16.19690704 0.8419280648 0.782243669 
83.81424713 11.25581741 1.159761071 0.7129824162 
41.07303619 13.22431755 0.5917590261 0.8414622545 
85.59323883 31.82603264 1.252361774 0.6939821839 
80.86687469 34.23629379 1.204320669 0.7037758827 
80.66055298 38.4656868 1.225537419 0.6994329691 
55.86613464 29.76127815 0.8680914044 0.7762973309 
25.08400345 14.83162975 0.3996415734 0.8899642229 
23.06104851 15.05882549 0.3777168095 0.8956731558 
37.55929565 32.41257858 0.6803796291 0.819989562 
36.46603775 34.4152565 0.6876425147 0.8182516694 
36.16099167 44.64160156 0.7878671288 0.7946757078 
35.78800201 53.23932648 0.879763186 0.7736593485 
35.72323227 58.61662292 0.9414159656 0.7598733306 
47.63857651 96.55638123 1.476583242 0.650043726 
37.62063217 97.1857605 1.42918396 0.6590921879 
-30.87637138 100.4764175 1.441509008 0.6567224264 
-34.97917557 38.06903076 0.7090048194 0.8131694794 
-35.01649857 34.8610611 0.6776263118 0.8206466436 
-35.61962509 29.6490345 0.635576129 0.8307753205 
-35.11177826 26.6742115 0.6047213674 0.8382861614 
-35.16523743 22.08017731 0.5694436431 0.8469563723 
-35.18978882 19.97030449 0.5548907518 0.850559175 
-35.42441177 16.1258564 0.5337794423 0.8558132052 
-35.25701523 14.19207764 0.5212159753 0.858954668 
-36.73864365 12.92092514 0.5340908766 0.8557364345 
-35.34670639 10.69007587 0.5064308047 0.8626679778 
-101.6036148 16.41701317 1.411477327 0.6625068784 
-13.63281345 -0.2426977456 0.1869909614 0.9469158649 
-13.62576294 -0.8499706984 0.1872286946 0.946850419 
-94.05155945 -18.65371704 1.31494689 0.6814241409 
-22.06960487 -14.97841549 0.365788579 0.8987953663 
-22.10555077 -18.06964493 0.3915533423 0.8920658827 
-13.83344078 -12.37417221 0.2545397878 0.9284412861 
-12.64802074 -12.36971664 0.2426231354 0.9316744208 
-13.21780872 -14.13088608 0.2653568983 0.9255157113 
-11.27619743 -13.18493176 0.237929374 0.9329502583 
-10.57875824 -13.54572964 0.2357060164 0.9335554242 
-8.77320385 -13.56673527 0.2215682864 0.9374130964 
-7.159910679 -13.58549976 0.2106051594 0.9404160976 
-3.661959171 -13.626194 0.1935009658 0.945119381 
-3.02074337 -13.63365459 0.191507712 0.9456692338 
-1.771087646 -13.6481905 0.1887412965 0.9464324713 
-1.157283902 -13.6553297 0.1879429519 0.9466533661 
-0.5474352837 -13.66241932 0.1875189096 0.94677037 
0.05927367881 -13.3167944 0.1826313734 0.9481214285 
6.571790695 -12.20499229 0.1901054382 0.946056962 
32.0149765 -44.14748001 0.7478799224 0.8039995432 
35.01185608 -44.01828003 0.7713433504 0.7985170484 
29.34236336 -28.19012451 0.5580227375 0.8497828841 
29.56046867 -25.97233582 0.5396417379 0.8543512821 
29.61675644 -19.71791267 0.4879488945 0.8673314452 
58.29871368 -16.50498772 0.8309389949 0.784755528 
69.23866272 -16.31352806 0.9755450487 0.7523415089 
86.50850677 10.83470917 1.19567132 0.7055552006 
70.7410202 12.0772047 0.9841830134 0.7504478097 
81.5881958 33.6886673 1.210542321 0.7024981976 
59.1428833 27.56096458 0.8948458433 0.7702637911 
53.44974518 30.96498871 0.8471462727 0.7810556889 
23.20284653 14.85855579 0.37786147 0.8956362009 
23.35356903 16.46449661 0.3918646276 0.8919845819 
41.78647232 32.33555222 0.7246023417 0.8094778061 
38.20047379 32.37726593 0.6867440939 0.8184678555 
36.72704697 34.04880905 0.6868298054 0.8184471726 
37.73234177 50.12913895 0.8604663014 0.7780263424 
36.01039505 52.55382538 0.8736953735 0.7750294805 
36.21873474 58.25664902 0.940753758 0.7600156069 
54.1866188 96.48023224 1.517533183 0.6423233747 
48.7054863 96.54396057 1.482958674 0.6488351226 
32.78224945 110.1604156 1.57623744 0.6314211488 
-11.21739101 100.4178238 1.385718107 0.6675055027 
-30.09480476 101.1294327 1.446853042 0.65567559 
-31.18263626 89.93927765 1.305490136 0.6833131909 
-50.56800842 100.2357788 1.539667964 0.6381905675 
-34.83063507 50.8320694 0.8450680375 0.7815276384 
-35.07885361 46.60387421 0.7999489903 0.791881144 
-35.00930023 35.4797821 0.6835720539 0.8192250729 
-35.47446823 32.88756561 0.6634011865 0.8240585923 
-35.07622528 29.72923088 0.6305733919 0.831987679 
-35.1060524 27.16594505 0.6087616086 0.8372986317 
-35.13393784 24.76965523 0.5895385742 0.8420074582 
-35.16016388 22.51572418 0.5725872517 0.8461809158 
-35.34495163 11.03388405 0.5077911019 0.8623253703 
-35.61154556 9.400636673 0.5050906539 0.8630008698 
-44.29972458 9.608634949 0.6216552854 0.8341547847 
-56.71784592 9.683083534 0.7890908718 0.7943941355 
-13.67770576 1.097893 0.188180849 0.9465873837 
-13.62717152 -0.7283471227 0.1871508807 0.9468717575 
-13.62016201 -1.337666035 0.1876869202 0.9467237592 
-92.99837494 -21.91165733 1.310306072 0.6823480725 
-35.52734756 -13.57118893 0.5215628147 0.858868897 
-31.38817406 -13.61933327 0.4692359865 0.8720791936 
-26.65951157 -13.00600815 0.4067890942 0.8881073594 
-22.05013657 -13.30405045 0.353174597 0.9021081328 
-22.10173225 -17.74074936 0.3886727691 0.8928155303 
-12.87261295 -12.36710453 0.244808495 0.9310803413 
-11.47887325 -13.1825676 0.2397187799 0.9324629307 
-10.77239609 -13.54347897 0.2373257428 0.9331145287 
-9.829454422 -13.55444527 0.2296218872 0.9352140427 
-8.944107056 -13.56474304 0.2228269875 0.9370690584 
-8.108023643 -13.57446957 0.2168421894 0.9387066364 
-5.129290581 -13.60911846 0.1994543374 0.9434800148 
-4.451233864 -13.6170187 0.1964688003 0.9443015456 
-3.791871309 -13.62468433 0.1939511001 0.9449952841 
-3.147940636 -13.63217545 0.191873312 0.9455685019 
-1.89453733 -13.64675522 0.1889482141 0.9463756084 
2.262515783 -17.4351635 0.2411122024 0.932084322 
2.823883057 -16.10811806 0.2242758125 0.9366728067 
4.693194389 -17.46343994 0.2479943782 0.9302153587 
5.540186882 -17.47328758 0.2513882518 0.9292949438 
6.412423134 -17.4834404 0.2553887963 0.9282110333 
6.495279312 -12.32440186 0.1910566688 0.9457942843 
29.09213829 -49.70557404 0.7898412943 0.7942196727 
29.14603996 -45.07093811 0.7360885739 0.8067708611 
31.41434097 -44.14047623 0.7429983616 0.8051458001 
41.2002182 -44.04616928 0.8271267414 0.7856293321 
29.78518486 -24.34715462 0.5275833011 0.8573624492 
29.41510201 -21.93641281 0.5032339096 0.8634752035 
29.43787003 -19.97916794 0.4878993034 0.8673408628 
32.07904053 -19.74656487 0.5166056752 0.8601124287 
35.8248024 -15.92470455 0.5376574397 0.8548461795 
40.74692154 -15.98196983 0.6002560258 0.8393790126 
66.44604492 -16.28102684 0.9382076859 0.7605813742 
115.9956818 -23.00593376 1.621759653 0.6230896115 
70.03314972 11.31591034 0.9728921056 0.752922833 
70.7607193 14.68998241 0.9911090136 0.7489334941 
82.05693817 33.03056717 1.213083506 0.7019767761 
53.28791809 30.24110603 0.8402801156 0.7826209664 
36.98746872 33.68317795 0.686062932 0.8186292648 
35.58069611 35.4227829 0.6885424852 0.8180370927 
36.13682556 39.32894516 0.732472837 0.8076226115 
36.17469025 43.06808472 0.7713451982 0.7985162139 
35.71046829 46.57453156 0.8048727512 0.790745616 
36.32556534 57.28489304 0.9302486777 0.7623485923 
55.31422806 96.46710968 1.525028944 0.6409241557 
49.78176117 96.53147125 1.489523292 0.6475958228 
40.88860321 88.77236176 1.340369582 0.6763919592 
39.4102478 96.66208649 1.431582332 0.6586329937 
-11.51764965 112.1421051 1.546028376 0.6370096207 
-50.6231575 102.6056519 1.569083571 0.6327371597 
-55.64385986 101.1731949 1.583518386 0.63008219 
-34.82928085 51.81325912 0.8561908007 0.7789958715 
-35.21767426 39.72504044 0.7280535698 0.8086630106 
-35.00197601 36.10958481 0.6896777153 0.8177675009 
-35.10025787 27.66448021 0.6129098535 0.8362867236 
-35.12850571 25.23689079 0.5931884646 0.8411102891 
-35.38431549 23.10586166 0.5795596242 0.8444607854 
-35.2266922 16.79901123 0.5352230668 0.855453372 
-35.26955414 13.11425018 0.5160432458 0.8602525592 
-35.34326553 11.3795042 0.5092076063 0.8619706035 
-43.68209457 9.882482529 0.6141970754 0.8359712958 
-91.34916687 12.2676487 1.264017344 0.6916248798 
-13.87127495 1.237768531 0.1909895241 0.9458126426 
-13.64281368 0.6074829102 0.1872834712 0.9468349814 
-13.62155819 -1.215488195 0.187550202 0.9467616677 
-97.97851562 -17.62627602 1.365265727 0.6714988947 
-94.0901413 -21.28692055 1.322978139 0.6798326969 
-36.46897888 -13.5602417 0.533595562 0.8558600545 
-32.14826965 -13.61050034 0.478769511 0.8696573973 
-28.62641525 -13.65146255 0.4349430799 0.880846858 
-22.08632851 -13.05920601 0.3518702686 0.9024491906 
-22.06296349 -14.40713596 0.3613719046 0.8999543786 
-22.07988167 -15.86257553 0.3728494048 0.896946609 
-22.09795761 -17.41665649 0.3858671486 0.8935469985 
-14.35333824 -12.38650322 0.2600059509 0.9269616008 
-11.68467903 -13.18017101 0.241558373 0.9319630265 
-10.01313114 -13.55230713 0.2310858071 0.9348146915 
-6.705359936 -13.59078789 0.2078358382 0.9411757588 
-3.275635958 -13.63069057 0.1922553927 0.9454632401 
-0.1777502447 -13.31404018 0.1826060414 0.9481278658 
0.4150598049 -13.32092953 0.1827731282 0.9480817318 
1.320640802 -17.4242115 0.239642635 0.9324839711 
41.71516037 -80.88922882 1.248152137 0.6948334575 
29.13585472 -45.94680405 0.7461333871 0.8044115901 
33.86603928 -44.16901398 0.7632961869 0.8003926277 
44.27855682 -44.08198166 0.8568578959 0.7788432837 
29.44075584 -26.81053352 0.5460848808 0.8527477384 
29.99186516 -22.78466034 0.5165409446 0.8601278663 
30.87500954 -21.35831261 0.5148662925 0.8605493307 
31.43674278 -19.73907852 0.5090643167 0.8620049357 
35.31432724 -18.01334763 0.5436736941 0.8533481359 
39.67277908 -15.96947002 0.5865060091 0.8427531719 
58.28564453 -17.62763405 0.8350878954 0.7838052511 
115.6673965 -24.01260376 1.620095134 0.6233925223 
119.5323486 7.456320763 1.64246726 0.6193382144 
80.57596588 35.81751251 1.209275484 0.702755928 
80.63287354 40.22949982 1.235801101 0.6973417401 
54.51570511 30.29969597 0.8553472757 0.7791871428 
23.06645012 15.65496063 0.3823119998 0.8944740891 
39.58912659 32.3611145 0.7012368441 0.8150143623 
35.74404526 34.95756912 0.6856594682 0.818726182 
7.903954983 9.24186039 0.1667762697 0.952516675 
36.87337494 51.81096649 0.8721197248 0.7753859162 
36.31238556 56.15287781 0.9170809984 0.765283227 
56.45336151 96.45386505 1.532686472 0.6394910216 
4.483414173 111.8859634 1.53565824 0.6389397383 
-20.68566895 112.1187363 1.563508868 0.6337587833 
-20.75021935 89.85798645 1.264776587 0.6914768815 
-54.44148254 101.1075363 1.574837565 0.6316782832 
-54.74279022 91.6503067 1.464039922 0.6524252295 
-34.91140366 43.89197159 0.7691283822 0.7990326881 
-34.95503998 40.14302444 0.7299856544 0.8082081079 
-34.99451065 36.75088882 0.6959472299 0.8162729144 
-35.03053665 33.65510559 0.6662026644 0.8233864903 
-35.06367493 30.8074131 0.6401022077 0.8296779394 
-35.09437943 28.16963577 0.6171603203 0.8352507353 
-35.17520905 21.22299004 0.5633972287 0.848451376 
-35.2442131 15.2924633 0.5268815756 0.8575376868 
-35.26540375 13.47111511 0.5177157521 0.8598328829 
-35.35039902 10.00806332 0.5038534403 0.8633173108 
-43.68176651 10.29197502 0.615460515 0.8356643319 
-53.5116539 10.11913776 0.7468698025 0.8042375445 
-90.95921326 13.04051018 1.260182738 0.692399919 
-14.09849167 1.384636164 0.1942771822 0.9449052215 
-13.63707829 0.1213891581 0.1870269775 0.9469058514 
-13.6299839 -0.4854540825 0.1870425344 0.9469020367 
-13.62296009 -1.093530297 0.1874282807 0.946795404 
-14.08615112 -1.764243126 0.1946876496 0.9447923303 
-103.453476 -17.66226196 1.439304829 0.6571513414 
-88.96812439 -27.77384377 1.278187275 0.6887718439 
-37.45517349 -13.54876232 0.5462388396 0.852709353 
-32.93999481 -13.60128117 0.4887412786 0.8671322465 
-22.5329628 -13.05401325 0.3571229577 0.901068151 
-22.05970192 -14.12651062 0.3592453003 0.9005129933 
-22.0942421 -17.09710693 0.3831304908 0.8942607641 
-13.33512783 -12.36263657 0.2493803352 0.9298396707 
-11.08372211 -13.43690109 0.2388786227 0.9326922297 
-8.437007904 -13.57064152 0.2191447467 0.9380761385 
-6.855535507 -13.5890398 0.208732605 0.9409292936 
-5.406566143 -13.605896 0.2007833868 0.943113625 
-3.403880596 -13.62919617 0.1926527321 0.9453532696 
-2.767742872 -13.63659859 0.190827325 0.9458571076 
-1.524940133 -13.65105152 0.1883779913 0.9465333819 
-0.913030982 -13.6581707 0.1877288818 0.9467125535 
-0.3040563762 -13.6652565 0.1874519289 0.9467883706 
0.2964269817 -13.31955814 0.182711944 0.9480988979 
0.8908630013 -13.32646179 0.1831689477 0.9479724169 
4.360511303 -17.45956802 0.246799469 0.9305400252 
5.198624134 -17.46931267 0.2499584854 0.9296821356 
6.060220718 -17.47933769 0.2537122965 0.9286648631 
40.7667923 -80.80794525 1.241250634 0.6962339282 
29.12538528 -46.84719467 0.7565081716 0.801979363 
30.23594666 -44.1267662 0.7335934043 0.8073582649 
36.28533554 -43.98898315 0.7820199132 0.7960330248 
39.73894882 -44.02915955 0.8133941293 0.7887823582 
43.48852921 -44.07279205 0.8491296172 0.7806022167 
29.94175148 -23.1696949 0.5192140341 0.8594588637 
30.81285095 -19.73182297 0.5017892122 0.8638371825 
28.15030289 -13.11820984 0.4259176552 0.8831686974 
38.64645004 -15.9575367 0.5734100342 0.8459785581 
51.59976578 -16.10824966 0.7413210869 0.805539608 
61.45522308 -16.2229557 0.8716750741 0.775485754 
76.51218414 -16.59571457 1.073691368 0.7311074734 
80.55857849 34.95439148 1.20431304 0.7037771344 
80.68926239 39.36454773 1.231244445 0.6982688904 
55.20259476 30.04141045 0.8618963361 0.7777004838 
23.06373024 15.35504246 0.3799838126 0.8950811028 
23.73506355 17.37403297 0.403391242 0.8889903426 
40.30549622 32.3527832 0.7087945342 0.8132184744 
37.27048111 32.7466774 0.6803948879 0.8199843764 
7.969088078 9.151860237 0.1664732397 0.9526141286 
36.15391922 45.45410919 0.7965017557 0.7926779389 
37.21975327 51.324646 0.8694662452 0.7759844065 
41.42173767 96.63870239 1.441929936 0.6566482782 
-11.66380692 89.88230896 1.242962003 0.695880115 
-30.15009117 112.1887512 1.593182683 0.6283100247 
-52.23080826 99.10526276 1.536336303 0.6388103366 
-34.95737839 54.05716705 0.8828594685 0.7729616165 
-34.85229492 48.97095108 0.8243075609 0.7862738967 
-34.94667053 40.86190414 0.7373754978 0.8064680099 
-35.02358246 34.25281525 0.6718389988 0.8220337629 
-35.3000145 26.32509041 0.6039034724 0.8384858966 
-35.17024994 21.64933777 0.5663875937 0.8477129936 
-36.30005264 16.13604164 0.54479599 0.853069365 
-35.26122665 13.83043194 0.5194448829 0.8594002128 
-43.69033051 14.93036842 0.6331948638 0.8313525319 
-43.68161011 10.70302486 0.6167721152 0.8353437781 
-48.70560074 9.659885406 0.6809655428 0.8198483586 
-13.63850403 0.2427661121 0.1870698482 0.9468942881 
-13.63140011 -0.3640405238 0.1870115548 0.9469109774 
-88.95802307 -26.90408897 1.274559855 0.6895027757 
-37.51433563 -13.19373226 0.5453693867 0.8529261947 
-29.95497894 -13.63600826 0.4513671696 0.8766364455 
-24.85687447 -12.67920589 0.3826772869 0.8943786621 
-22.64557076 -12.851511 0.3570904434 0.9010791183 
-22.05647469 -13.84929371 0.3571690321 0.9010577798 
-22.09057999 -16.78217506 0.3804623187 0.894957006 
-14.89663696 -12.39971447 0.2658074796 0.9253942966 
-13.58162403 -12.36829853 0.2519213855 0.9291504622 
-12.10330391 -13.17243385 0.2452844232 0.9309392571 
-11.08088017 -13.19244862 0.2362757772 0.9334003329 
-10.38772774 -13.54795647 0.2341282666 0.9339855909 
-9.468914986 -13.55863953 0.226802513 0.9359837174 
-5.546639442 -13.60426521 0.2014811635 0.9429220557 
-4.18542099 -13.62010479 0.1954077035 0.944593966 
-2.266649008 -13.64242363 0.1896586567 0.9461795092 
-1.647864938 -13.64962101 0.1885513216 0.9464850426 
-0.4257385135 -13.66383553 0.1874772608 0.9467814565 
0.1778088361 -13.3181715 0.1826635748 0.9481121898 
1.790123224 -17.42967415 0.2402886897 0.9323080182 
2.579371214 -17.43885422 0.2417616248 0.9319081903 
5.029234409 -17.46734619 0.2492793202 0.9298661351 
29.1146183 -47.77259827 0.7672460675 0.7994730473 
32.62372589 -44.15454865 0.7528948784 0.8028255701 
35.62620163 -43.98131561 0.7762215734 0.7973814607 
39.02606964 -44.02086639 0.8067932129 0.7903030515 
42.7121582 -44.06377029 0.8415957689 0.7823193073 
29.34809494 -27.69764328 0.5534228683 0.850924015 
30.23296356 -21.71985054 0.5105261207 0.8616393209 
30.20637131 -19.72477341 0.4947575331 0.8656121492 
35.30508804 -18.80794716 0.5485952497 0.8521229625 
37.66530991 -15.94611549 0.5609319806 0.849062562 
43.05449677 -16.0088253 0.629951179 0.8321396708 
59.21659088 -16.19690704 0.8419317603 0.7822428942 
72.26368713 -16.34871864 1.01608181 0.7434991598 
83.81446838 11.2557497 1.159763217 0.7129818201 
69.59715271 15.74543667 0.9785808921 0.7516751885 
41.07310867 13.22444153 0.5917605162 0.8414618969 
55.86602783 29.76132202 0.8680914044 0.7762975693 
25.08393478 14.83163071 0.3996407986 0.8899644017 
23.54569817 16.91559982 0.3976014555 0.8904939294 
41.11009216 32.40116501 0.7178469896 0.8110748529 
8.103057861 9.140146255 0.1675173938 0.9523107409 
36.16099167 44.64148712 0.7878661752 0.7946759462 
37.35803604 50.56214142 0.8621563315 0.7776426077 
35.72324371 58.61636734 0.9414080381 0.7598739266 
47.63830566 96.55638123 1.476581097 0.650044024 
37.62064362 97.18596649 1.429186702 0.6590916514 
-21.31053734 100.4052124 1.407694101 0.6632482409 
-30.87658691 100.4764252 1.441635966 0.6567222476 
-51.64159393 100.1372833 1.545155287 0.6371699572 
-35.02507782 55.2339325 0.8969369531 0.7697908878 
-34.8925972 45.50786972 0.7864325047 0.7950088978 
-34.97917557 38.06903076 0.7090048194 0.8131694794 
-35.01649857 34.8610611 0.6776263118 0.8206466436 
-35.61946106 29.6490345 0.6355743408 0.8307757378 
-35.13930511 24.30830193 0.5859719515 0.8428828716 
-35.42461395 16.1258564 0.5337818861 0.8558125496 
-36.73864365 12.92092514 0.5340908766 0.8557364345 
-35.34670639 10.69007587 0.5064308047 0.8626679778 
-46.83969116 9.723928452 0.6560659409 0.8258256912 
-101.6036148 16.41701317 1.411477327 0.6625068784 
-13.63994026 0.3642602563 0.1871273816 0.946878612 
-13.62576294 -0.8499413729 0.1872286946 0.946850419 
-13.76087952 -1.475209951 0.1897996515 0.9461405873 
-94.05155945 -18.6539135 1.31494689 0.6814240217 
-89.55576324 -21.94372749 1.264510512 0.6915258765 
-34.62694168 -13.58166218 0.5101007223 0.8617457747 
-22.06960487 -14.97841549 0.365788579 0.8987953663 
-22.08696747 -16.4714222 0.3778585792 0.8956366181 
-22.10555077 -18.06964493 0.3915533423 0.8920658827 
-13.83344078 -12.37417221 0.2545397878 0.9284412861 
-12.6480751 -12.36971855 0.2426232845 0.931674242 
-13.2178669 -14.13088608 0.2653576732 0.9255155921 
-7.946043491 -13.57635498 0.2157321125 0.9390101433 
-7.159871578 -13.58550549 0.2106048465 0.9404161572 
-6.408761024 -13.59423542 0.206112355 0.9416493773 
-4.992022514 -13.61071968 0.1988169849 0.9436549544 
-4.317984581 -13.61856651 0.1959284991 0.9444502592 
-3.661959171 -13.626194 0.1935009658 0.945119381 
-2.391370773 -13.64097404 0.1899262965 0.9461054802 
-1.771087646 -13.6481905 0.1887412965 0.9464324713 
-1.157283902 -13.6553297 0.1879429519 0.9466533661 
-0.5474670529 -13.66241932 0.1875186116 0.94677037 
4.030919075 -17.45573044 0.245690003 0.9308406711 
5.712498665 -17.47529411 0.2521363795 0.9290915132 
6.590350151 -17.48550987 0.2562648058 0.9279735684 
29.10353851 -48.72516632 0.778342545 0.7968870401 
29.15595055 -44.21828842 0.7263574004 0.8090607524 
35.01185608 -44.01828003 0.7713433504 0.7985170484 
41.94944382 -44.05489349 0.8342626691 0.7839948535 
29.56047821 -25.97223282 0.5396410823 0.8543514609 
29.83850479 -23.9508419 0.5247297287 0.8580762148 
32.74089432 -19.75426483 0.524410069 0.8581562042 
48.43392563 -16.07142258 0.699837327 0.8153464794 
58.29871368 -16.50498772 0.8309389949 0.784755528 
69.23866272 -16.31352806 0.9755450487 0.7523415089 
116.132782 -21.96088028 1.620883107 0.6232495308 
92.86873627 7.454670429 1.277705669 0.688868463 
70.74108887 12.07736588 0.9841845632 0.7504475117 
87.9077301 31.79911232 1.282025099 0.6880012751 
59.1428833 27.56096458 0.8948458433 0.7702637911 
80.71247101 42.07963943 1.248305082 0.6948032975 
53.44974518 30.96498871 0.8471462727 0.7810556889 
23.20284653 14.85855579 0.37786147 0.8956362009 
38.20064163 32.3772583 0.686745286 0.8184674382 
36.04735947 36.5320015 0.7038452029 0.8143953681 
36.21873474 58.25664902 0.940753758 0.7600156069 
48.7054863 96.54396057 1.482958674 0.6488351226 
38.41523743 96.67366791 1.426628351 0.6595843434 
33.25048828 95.90344238 1.392030001 0.6662740111 
32.78224945 110.1604156 1.57623744 0.6314211488 
-2.269661903 101.983139 1.398958683 0.6649310589 
-31.18263626 89.93927765 1.305490136 0.6833131909 
-34.97128296 38.74676514 0.7158099413 0.8115583062 
-35.00930405 35.47964859 0.6835708618 0.8192253709 
-35.47463608 32.88756943 0.6634029746 0.8240581751 
-35.13393784 24.76965523 0.5895385742 0.8420074582 
-35.16016388 22.51572418 0.5725872517 0.8461809158 
-35.23111725 16.41791725 0.5330494642 0.8559959531 
-35.68569565 12.90867901 0.5204333663 0.859152317 
-35.61122513 9.400636673 0.5050991774 0.8630019426 
-44.29929733 9.608634949 0.6216409206 0.8341562152 
-56.71710205 9.683078766 0.7890813947 0.7943964601 
-13.67767143 1.097863793 0.188180387 0.9465875626 
-13.64137554 0.4857934415 0.187197566 0.9468588829 
-13.63423157 -0.1213696226 0.1869882196 0.9469166398 
-13.62016201 -1.337666035 0.1876869202 0.9467237592 
-94.04143524 -17.7834053 1.312545419 0.6819025874 
-92.99837494 -21.91165733 1.310306072 0.6823480725 
-88.98853302 -29.52830696 1.285804987 0.6872383952 
-35.52734756 -13.57118893 0.5215628147 0.858868897 
-23.20718765 -12.629426 0.3623428345 0.8996995091 
-22.06625938 -14.69096375 0.3635508716 0.8993821144 
-22.10173225 -17.74082756 0.3886733949 0.8928154111 
-14.09051895 -12.380229 0.2572317421 0.9277121425 
-13.45297432 -14.12814713 0.2675447166 0.9249256849 
-11.47887325 -13.1825676 0.2397187799 0.9324629307 
-10.77239609 -13.54347897 0.2373257428 0.9331145287 
-8.108023643 -13.57446957 0.2168421894 0.9387066364 
-7.314158916 -13.58370781 0.2115777582 0.9401492476 
-3.791900635 -13.62468433 0.193951264 0.9449952841 
-3.147908926 -13.63217545 0.191873312 0.9455685616 
-2.516397715 -13.63951874 0.190209493 0.9460271001 
-1.894508004 -13.64675522 0.1889485121 0.946375668 
-1.279615402 -13.65390396 0.1880723536 0.9466175437 
-0.05923217535 -13.31541729 0.1826121509 0.9481266141 
1.476856709 -17.42602348 0.2398397774 0.932430625 
2.823883057 -16.10811806 0.2242758125 0.9366728067 
3.867164135 -17.453825 0.2451696694 0.9309821725 
4.693194389 -17.46343994 0.2479943782 0.9302153587 
29.14603996 -45.07075119 0.7360861301 0.8067713976 
37.63449478 -44.00467682 0.7940963507 0.7932363153 
29.41510201 -21.93641281 0.5032339096 0.8634752035 
29.43787003 -19.97916794 0.4878993034 0.8673408628 
35.3188858 -17.62134933 0.541307807 0.8539372087 
46.97977448 -16.05449867 0.6808657646 0.8198716044 
58.29218674 -17.06476212 0.8329730034 0.7842891812 
115.9960022 -23.00574493 1.621763825 0.6230888963 
82.05706024 33.03040695 1.213084102 0.7019766569 
23.65197372 14.85112286 0.3830088675 0.8942924738 
36.98746872 33.68317795 0.686062932 0.8186292648 
36.13682556 39.32894516 0.732472837 0.8076226115 
36.17469025 43.06808472 0.7713451982 0.7985162139 
35.71046829 46.57453156 0.8048727512 0.790745616 
36.52484131 52.30029297 0.8748455644 0.7747685313 
36.32556534 57.28489304 0.9302486777 0.7623485923 
55.31449509 96.46710968 1.52503109 0.6409237981 
37.72029877 105.7462692 1.539719224 0.6381819248 
-11.51764965 112.1421051 1.546028376 0.6370096207 
-30.28503799 89.92883301 1.301356196 0.6841341257 
-55.64418793 101.1732101 1.583520174 0.6300817728 
-55.82157135 91.59449768 1.471033335 0.6510967612 
-34.82927322 51.81298828 0.8561877012 0.7789965868 
-34.87292099 47.19866562 0.8048003912 0.7907615304 
-35.21767426 39.72504044 0.7280535698 0.8086630106 
-35.00197601 36.10958481 0.6896777153 0.8177675009 
-35.06999588 30.2643528 0.6352798343 0.8308466077 
-35.10025787 27.66448021 0.6129098535 0.8362867236 
-35.35232162 9.66956234 0.5026347041 0.8636243939 
-53.62861252 9.647628784 0.7472811937 0.8041427732 
-13.87127495 1.237768531 0.1909895241 0.9458126426 
-13.64281368 0.6074829102 0.1872834712 0.9468349814 
-13.62155819 -1.215488195 0.187550202 0.9467616677 
-97.97972107 -17.62627602 1.365282536 0.671495676 
-90.43382263 -24.73548508 1.285774469 0.6872494817 
-36.46873474 -13.5602417 0.5335922241 0.8558608294 
-28.62626457 -13.65145683 0.434941411 0.8808473349 
-23.73695755 -12.64529991 0.3688409328 0.8979952335 
-22.08632851 -13.05920601 0.3518702686 0.9024491906 
-22.06296349 -14.40713596 0.3613719046 0.8999543786 
-22.07988167 -15.86257553 0.3728494048 0.896946609 
-13.10124397 -12.36444092 0.2470526099 0.9304706454 
-9.117019653 -13.56273651 0.224118188 0.9367161393 
-8.2716856 -13.57256603 0.2179792672 0.9383952618 
-7.469815731 -13.58189678 0.212575838 0.9398754835 
-6.705323219 -13.59078789 0.2078355402 0.9411758184 
-5.267454624 -13.60750675 0.2001078725 0.9432996511 
-4.585230827 -13.61545181 0.1970281899 0.9441477656 
-3.922405958 -13.62317085 0.1944200099 0.9448664188 
-3.275635958 -13.63069057 0.1922553927 0.9454632401 
-2.018265247 -13.64531422 0.1891693026 0.9463145733 
1.320601821 -17.4242115 0.239642486 0.9324839711 
2.104664326 -17.43332672 0.2408186346 0.9321642518 
5.368958473 -17.47129631 0.2506605387 0.9294916987 
29.08038902 -50.71545792 0.8017431498 0.7914668322 
30.82147789 -44.13358307 0.7382403612 0.8062649965 
33.86603928 -44.16901398 0.7632961869 0.8003926277 
44.27855682 -44.08198166 0.8568578959 0.7788432837 
29.44074059 -26.81064606 0.5460857749 0.8527475595 
29.73072243 -24.74735069 0.5305013657 0.8566334844 
31.436903 -19.73908424 0.5090662837 0.8620044589 
34.85253525 -19.77882957 0.5495772958 0.8518797755 
35.33675385 -16.08585739 0.5324587822 0.856143117 
39.67277908 -15.96947002 0.5865060091 0.8427531719 
58.28564453 -17.62763405 0.8350878954 0.7838052511 
63.85913849 -16.25092888 0.9036791921 0.768278718 
115.6673965 -24.01260376 1.620095134 0.6233925223 
119.53228 7.456086159 1.642466426 0.6193383932 
82.12034607 12.52028084 1.139214396 0.7172660232 
70.86417389 14.05498505 0.9907778502 0.7490081787 
82.22431183 32.25064087 1.211266398 0.7023488879 
80.63287354 40.22949982 1.235801101 0.6973417401 
54.51570511 30.29969597 0.8553472757 0.7791871428 
24.11414909 14.84368038 0.388331145 0.8929033875 
39.58912659 32.3611145 0.7012368441 0.8150143623 
35.74411011 34.9574852 0.6856588721 0.8187262416 
36.11377716 38.60834503 0.7250103354 0.8093824387 
7.90396595 9.241827965 0.1667758077 0.9525167346 
36.05184174 46.16331482 0.8032528758 0.791113615 
36.87329483 51.81106949 0.8721197248 0.775385797 
56.453125 96.45387268 1.532685161 0.6394913197 
41.73769379 88.53379059 1.342328191 0.676006794 
40.41225815 96.6504364 1.436685801 0.6576544642 
32.93632889 89.80054474 1.311745882 0.6820608974 
-54.74279022 91.6503067 1.464039922 0.6524252295 
-35.0411911 53.14387894 0.8729888797 0.7751876116 
-34.8627243 48.0744133 0.8144079447 0.7885482311 
-34.91140366 43.89197159 0.7691283822 0.7990326881 
-35.06367493 30.8074131 0.6401022077 0.8296779394 
-35.09437943 28.16963577 0.6171603203 0.8352507353 
-35.12299728 25.70978165 0.5969341993 0.8401916623 
-35.17520905 21.22299004 0.5633972287 0.848451376 
-36.37831116 19.79719353 0.5679953098 0.8473166227 
-35.26540375 13.47111511 0.5177157521 0.8598328829 
-90.95921326 13.04051018 1.260182738 0.692399919 
-14.09849167 1.384636164 0.1942771822 0.9449052215 
-13.63707352 0.1213378906 0.1870269775 0.9469058514 
-13.62296009 -1.093530297 0.1874282807 0.946795404 
-103.453476 -17.66226196 1.439304829 0.6571513414 
-95.58029175 -20.73168564 1.341279864 0.6762123704 
-88.96812439 -27.77384377 1.278187275 0.6887718439 
-32.93999481 -13.60128117 0.4887412786 0.8671322465 
-29.27828598 -13.64387417 0.4429791272 0.8787829876 
-22.5329628 -13.05401325 0.3571229577 0.901068151 
-22.07641602 -15.56402111 0.3704357743 0.8975781202 
-14.62201023 -12.39300251 0.2628652751 0.926189065 
-13.3350029 -12.3626318 0.2493789643 0.9298400283 
-11.08372211 -13.43690109 0.2388786227 0.9326922297 
-8.437007904 -13.57064152 0.2191447467 0.9380761385 
-6.116985798 -13.59763432 0.2044795156 0.9420977235 
-4.720037937 -13.61388397 0.197606191 0.9439887404 
-4.053614616 -13.6216383 0.1949050874 0.9447326064 
-3.403880596 -13.62919617 0.1926527321 0.9453532696 
-2.767742872 -13.63659859 0.190827325 0.9458571076 
-1.524940133 -13.65105152 0.1883779913 0.9465333819 
-0.9129723907 -13.6581707 0.1877287179 0.9467125535 
-0.3040563762 -13.6652565 0.1874519289 0.9467883706 
0.2964269817 -13.31955814 0.182711944 0.9480988979 
0.8908630013 -13.32646179 0.1831689477 0.9479724169 
2.738499641 -17.44070053 0.2421157807 0.9318119884 
3.541739464 -17.45004654 0.244191736 0.931247592 
40.7667923 -80.80794525 1.241250634 0.6962339282 
29.12538528 -46.84719467 0.7565081716 0.801979363 
30.23594666 -44.1267662 0.7335934043 0.8073582649 
33.2404747 -44.16172791 0.7580316067 0.8016238213 
36.28564072 -43.98898315 0.7820230126 0.7960323691 
39.73894882 -44.02915955 0.8133941293 0.7887823582 
29.67523384 -25.15146255 0.5334770083 0.8558887243 
29.94172859 -23.16988945 0.519215405 0.8594585061 
30.7953949 -21.71095848 0.5167382956 0.8600790501 
35.30973434 -18.40859985 0.5461000204 0.8527438641 
28.15030289 -13.11820984 0.4259176552 0.8831686974 
38.64691925 -15.95754147 0.5734161139 0.8459771276 
51.60047913 -16.1082592 0.7413281202 0.8055374026 
61.45522308 -16.2229557 0.8716750741 0.775485754 
70.74035645 13.37679863 0.9873366952 0.7497592568 
29.84293365 8.44899559 0.4253562689 0.8833133578 
80.55857849 34.95439148 1.20431304 0.7037771344 
80.68927002 39.3649292 1.231246948 0.6982684135 
24.59189415 14.83769512 0.3938902318 0.8914585114 
23.73506355 17.37403297 0.403391242 0.8889903426 
36.20273209 34.78092957 0.6884930134 0.8180504441 
36.0912056 37.90260315 0.7177612185 0.8110963106 
7.969125748 9.151823997 0.1664361507 0.9526141882 
37.2199173 51.32442093 0.8694649935 0.7759846449 
41.42173767 96.63870239 1.441929936 0.6566482782 
4.39079237 89.62555695 1.230612755 0.6983981133 
-30.15009117 112.1887512 1.593182683 0.6283100247 
-52.23111725 99.10475159 1.536334157 0.6388111115 
-34.95737839 54.05716705 0.8828594685 0.7729616165 
-34.85229111 48.97136688 0.8243117929 0.7862728238 
-34.90211487 44.69073486 0.7776525617 0.7970482707 
-34.9466629 40.86225891 0.7373791337 0.8064671755 
-35.02357864 34.25309372 0.6718414426 0.8220331073 
-35.05725861 31.35910416 0.6450628638 0.8284800649 
-35.08841705 28.6818676 0.6215175986 0.8341895938 
-35.3000145 26.32509041 0.6039034724 0.8384858966 
-35.14461899 23.85206223 0.5824911594 0.8437380791 
-36.30046463 16.13604736 0.5448011756 0.8530680537 
-43.69033051 14.93017292 0.6331936717 0.8313527107 
-35.34852982 10.348279 0.5051214695 0.8629984856 
-43.68161011 10.70302486 0.6167721152 0.8353437781 
-101.0317535 15.40314674 1.401577115 0.6644237041 
-14.13174629 1.515024424 0.1949154586 0.9447298646 
-13.63850403 0.2428198159 0.1870698482 0.9468942881 
-13.63140011 -0.3640405238 0.1870115548 0.9469109774 
-37.51433563 -13.19392776 0.5453739762 0.8529260159 
-29.95469093 -13.63600826 0.4513636827 0.8766373396 
-22.05647469 -13.84917736 0.3571678102 0.9010580182 
-13.58175659 -12.3683033 0.2519227564 0.9291501045 
-12.42744446 -12.37228203 0.2404927015 0.9322530627 
-11.08088017 -13.19244862 0.2362757772 0.9334003329 
-5.546570778 -13.60426521 0.2014808655 0.9429221153 
-1.647864938 -13.64962101 0.1885513216 0.9464850426 
-0.4257385135 -13.66383553 0.1874772608 0.9467814565 
0.1778674275 -13.3181715 0.1826635748 0.9481121898 
0.7716955543 -13.32507992 0.1830474883 0.9480057955 
2.579371214 -17.43885422 0.2417616248 0.9319081903 
3.380013466 -17.44816589 0.2437341213 0.9313716888 
4.195308685 -17.45764351 0.246232748 0.930693388 
5.029310226 -17.46734619 0.2492796332 0.9298660755 
33.31417465 -86.06004333 1.265584707 0.6913099289 
6.709300518 -12.19909382 0.1909348965 0.9458277822 
29.1146183 -47.77259827 0.7672460675 0.7994730473 
29.65770912 -44.12004852 0.7290649414 0.8084256649 
32.62372589 -44.15454865 0.7528948784 0.8028255701 
39.02606964 -44.02086639 0.8067932129 0.7903030515 
42.71250916 -44.06377029 0.8415991068 0.7823185921 
29.34809494 -27.69764328 0.5534228683 0.850924015 
29.61842728 -25.55958748 0.5365273952 0.8551286459 
33.42306519 -19.7621994 0.5324935913 0.856134057 
35.30508804 -18.80794716 0.5485952497 0.8521229625 
72.262146 -16.34870338 1.01606071 0.7435036302 
83.813591 11.25600815 1.159751892 0.7129842043 
80.66053772 38.46546173 1.22553587 0.6994332075 
55.86602783 29.76132202 0.8680914044 0.7762975693 
25.08416939 14.83162594 0.3996435404 0.8899636865 
41.11009216 32.40116501 0.7178469896 0.8110748529 
36.16099167 44.64188766 0.7878701687 0.7946749926 
37.35803604 50.56214142 0.8621563315 0.7776426077 
35.72324371 58.61636734 0.9414080381 0.7598739266 
47.63883209 96.55638123 1.476584435 0.6500433683 
42.43819427 96.6268692 1.447327852 0.6556147933 
37.62062836 97.18469238 1.429170489 0.6590948105 
-2.792415619 89.61910248 1.229628325 0.6985949874 
-51.64131546 100.1377945 1.545159936 0.6371691227 
-53.42089081 93.16445923 1.47281158 0.6507594585 
-34.86362839 49.92160416 0.8350640535 0.7838132977 
-34.93811798 41.59584808 0.7449837923 0.8046815395 
-35.01649857 34.8610611 0.6776263118 0.8206466436 
-35.05074692 31.9191761 0.6501434445 0.8272532821 
-35.61946106 29.6490345 0.6355743408 0.8307757378 
-35.11177826 26.67411804 0.6047207713 0.8382863402 
-35.13930511 24.30830193 0.5859719515 0.8428828716 
-35.189785 19.97040176 0.5548913479 0.8505589962 
-35.21315765 17.96162224 0.5421098471 0.8537361026 
-35.25701523 14.1919899 0.5212163925 0.8589547873 
-36.73812103 12.92092037 0.5340844393 0.8557381034 
-46.83969116 9.723928452 0.6560659409 0.8258256912 
-13.76097965 -1.475273371 0.1898016334 0.9461401701 
-94.05155945 -18.6539135 1.31494689 0.6814240217 
-88.94797516 -26.03957748 1.271039963 0.6902098656 
-37.68427277 -12.87775612 0.5461491346 0.8527315855 
-34.62694168 -13.58166218 0.5101007223 0.8617457747 
-25.44949722 -12.6973114 0.390046984 0.8924584985 
-22.05329132 -13.57510471 0.3551479876 0.9015895128 
-13.83344078 -12.37417221 0.2545397878 0.9284412861 
-12.64796448 -12.36971855 0.2426223755 0.93167454 
-10.57880497 -13.54572964 0.2357064784 0.9335553646 
-9.648020744 -13.55655479 0.2281933576 0.9356037378 
-8.773245811 -13.56673527 0.2215685993 0.9374130368 
-7.159945011 -13.58549976 0.2106051594 0.940416038 
-6.408761024 -13.59423542 0.206112355 0.9416493773 
-5.687694073 -13.60262394 0.2021993995 0.9427247047 
-3.020684719 -13.63365459 0.191507414 0.9456692934 
-1.771028996 -13.6481905 0.1887411475 0.9464324713 
-0.5474060178 -13.66241932 0.1875186116 0.94677037 
3.218721867 -17.44628716 0.243296802 0.9314902425 
4.860738277 -17.46538353 0.2486251742 0.9300439358 
5.712498665 -17.47529411 0.2521363795 0.9290915132 
6.571790695 -12.20499229 0.1901054382 0.946056962 
29.10353851 -48.72471619 0.7783373594 0.7968882918 
29.15595055 -44.21828842 0.7263574004 0.8090607524 
32.01525879 -44.14748001 0.7478823662 0.8039990067 
38.32492447 -44.01271439 0.8003597856 0.7917869091 
29.34236717 -28.19003105 0.5580218434 0.8497831225 
29.56044769 -25.97243881 0.53964293 0.8543511033 
29.66289902 -21.71321487 0.5041425824 0.8632449508 
29.61688423 -19.71791267 0.4879505932 0.8673310876 
35.30039978 -19.21059227 0.5511578321 0.8514865637 
48.43392563 -16.07142258 0.699837327 0.8153464794 
58.29870605 -16.50470924 0.8309371471 0.784755826 
69.23866272 -16.31352806 0.9755450487 0.7523415089 
116.1327896 -21.96035385 1.620881557 0.6232497692 
86.50862122 10.83452415 1.19567287 0.7055549622 
70.74108887 12.07736588 0.9841845632 0.7504475117 
69.57453918 18.36629105 0.9868334532 0.7498676181 
87.9077301 31.79911232 1.282025099 0.6880012751 
53.44974518 30.96498871 0.8471462727 0.7810556889 
23.35354996 16.46440697 0.3918635547 0.8919848204 
36.72698212 34.04889679 0.6868298054 0.818447113 
36.16035843 40.06458282 0.7401507497 0.8058161736 
36.16791916 43.84626389 0.7794915438 0.7966217399 
37.73225021 50.12925339 0.8604592681 0.7780262828 
36.0104866 52.55369949 0.8736947179 0.7750296593 
36.21873474 58.25664902 0.940753758 0.7600156069 
43.46242905 96.61495209 1.452883601 0.6545530558 
38.41523743 96.67366791 1.426628351 0.6595843434 
33.25007248 95.90356445 1.392029643 0.6662740707 
32.78224945 110.1604156 1.57623744 0.6314211488 
-20.38866615 100.4542084 1.405754685 0.663618207 
-30.09480476 101.1294327 1.446853042 0.65567559 
-31.18310547 89.93928528 1.305423498 0.6833127141 
-50.56800842 100.2357788 1.539667964 0.6381905675 
-56.60852432 91.05280304 1.470365882 0.6512238383 
-34.83063889 50.83185959 0.8450658917 0.7815281749 
-34.92940903 42.34482193 0.7527932525 0.8028485179 
-34.97127914 38.7471199 0.7158132792 0.8115574718 
-35.00930405 35.47964859 0.6835708618 0.8192253709 
-35.4743042 32.88756561 0.6633996367 0.8240590096 
-35.07622528 29.72909927 0.6305721998 0.8319879174 
-35.1060524 27.16620255 0.6087636948 0.8372980952 
-35.13393784 24.76965523 0.5895385742 0.8420074582 
-35.18497467 20.38367844 0.5576574802 0.8498740196 
-35.25278091 14.55606651 0.5230478048 0.8584960699 
-35.34495544 11.03370857 0.5077905059 0.8623254895 
-44.30028152 9.608639717 0.6216580272 0.8341529965 
-118.1672058 14.79951382 1.633215904 0.621011138 
-13.64137554 0.4857934415 0.187197566 0.9468588829 
-13.62016201 -1.337607384 0.1876869202 0.9467237592 
-92.99837494 -21.91165733 1.310306072 0.6823480725 
-88.93941498 -25.18011475 1.267661095 0.6908894777 
-23.20718765 -12.629426 0.3623428345 0.8996995091 
-22.05013657 -13.30411816 0.3531751931 0.9021080136 
-22.06625938 -14.69096375 0.3635508716 0.8993821144 
-22.10172844 -17.74068069 0.388672173 0.8928157091 
-14.09051895 -12.380229 0.2572317421 0.9277121425 
-13.45297432 -14.12814713 0.2675447166 0.9249256849 
-5.829705715 -13.60097408 0.2029383779 0.9425216913 
-5.129256248 -13.609128 0.1994541883 0.9434800744 
-4.451263428 -13.6170187 0.1964691132 0.944301486 
-3.791841984 -13.62468433 0.1939509511 0.9449953437 
-0.6692516804 -13.66100311 0.1875733882 0.9467552304 
0.5337854028 -13.3223114 0.182850644 0.9480604529 
1.476856709 -17.42602348 0.2398397774 0.932430625 
3.867242336 -17.453825 0.2451696694 0.9309821129 
4.693194389 -17.46343994 0.2479943782 0.9302153587 
5.540269852 -17.47329712 0.2513886988 0.929294765 
29.09212875 -49.70582962 0.7898443341 0.794219017 
34.50040436 -44.17638397 0.7686977983 0.7991319299 
29.33653831 -28.69114876 0.5627483726 0.8486124277 
29.43787003 -19.97898102 0.4878928959 0.8673412204 
32.07904053 -19.74656487 0.5166056752 0.8601124287 
35.29567719 -19.61703873 0.5537896752 0.850833714 
35.82501984 -15.92470455 0.5376605392 0.8548454642 
40.74664307 -15.98196983 0.6002523899 0.8393799067 
46.98044205 -16.05450821 0.6808746457 0.8198695183 
58.29218674 -17.06505585 0.8329741955 0.7842888832 
66.44671631 -16.28102684 0.9382162094 0.7605793476 
115.9953613 -23.00613976 1.621755958 0.6230903268 
70.03398132 11.31633759 0.9729043245 0.7529201508 
70.7607193 14.68998241 0.9911090136 0.7489334941 
