# .PCD v0.7 - Point Cloud Data file format
VERSION 0.7
FIELDS x y z intensities
SIZE 4 4 4 4
TYPE F F F F
COUNT 1 1 1 1
WIDTH 924
HEIGHT 1
VIEWPOINT 0 0 0 1 0 0 0
POINTS 924
DATA ascii
18.56792831 -13.33939934 -1.990662813 0.9122901559 
21.74328613 -7.000763893 -1.988897562 0.9123643637 
22.4773674 -4.043612957 -1.988518119 0.9123802781 
22.74639511 -2.029706955 -1.988396287 0.9123854637 
22.83659554 0 -1.988379955 0.9123861194 
22.81436539 1.015961885 -1.988411307 0.9123847485 
22.7472496 2.02978754 -1.988469243 0.9123823047 
22.27833366 5.040280819 -1.988799572 0.9123685956 
20.6284256 9.837140083 -1.989861965 0.9123227 
19.6780014 11.63508797 -1.990453124 0.9122988582 
18.57233047 13.3425436 -1.991133809 0.9122703075 
17.9637413 14.15822697 -1.991506338 0.9122545719 
17.31950188 14.94633961 -1.991899371 0.9122380614 
15.18600559 17.12959099 -1.993193507 0.9121836424 
14.41227055 17.79241943 -1.993660569 0.9121639729 
11.92493725 19.56698036 -1.995155573 0.9121010303 
11.04554939 20.08340836 -1.995682359 0.9120789766 
6.814691067 15.51624203 -1.475563169 0.934219718 
7.66525507 19.80153275 -1.848789811 0.9182781577 
6.749282837 20.04139519 -1.841297507 0.9185954928 
4.941539288 20.56288528 -1.841381192 0.9185919166 
4.022088528 20.76264763 -1.841409445 0.9185907245 
3.094539642 20.92179108 -1.841478944 0.9185878634 
-1.880535841 15.57683277 -1.366121769 0.9389461279 
-3.915757895 18.44921112 -1.642146707 0.9270700216 
-7.126021385 19.97703171 -1.846747756 0.9183645844 
-8.011500359 19.65007782 -1.847668767 0.9183257222 
-8.875545502 19.26937866 -1.847206116 0.9183452725 
-10.57227135 18.43776321 -1.85056603 0.9182029366 
-11.38830185 17.95900536 -1.851581931 0.9181599617 
-13.7001915 16.3108654 -1.854691386 0.9180283546 
-14.42043591 15.69412327 -1.855745554 0.9179837704 
-15.11295986 15.04586124 -1.856814742 0.9179384112 
-15.77654648 14.36701393 -1.857897639 0.9178925157 
-16.40962029 13.65908623 -1.858991504 0.9178463221 
-17.01111412 12.92319298 -1.860094905 0.9177996516 
-5.666956425 3.558261633 -0.5826247931 0.9734905958 
-5.736485481 3.255493164 -0.5743018985 0.9738643169 
-20.16736603 7.092922211 -1.861409307 0.9177439809 
-22.42881203 5.707597733 -2.015115976 0.9112619758 
-22.84973526 3.691936016 -2.015328407 0.9112530947 
-13.0134697 0.3475366235 -1.133485794 0.9490730762 
-13.0011797 -0.2314746082 -1.132191777 0.9491297603 
-12.98889542 -0.8102050424 -1.133142114 0.9490882158 
-22.70122528 -4.502497673 -2.015096903 0.9112628102 
-22.47681999 -5.507363319 -2.014947176 0.9112691283 
-22.20762634 -6.501291275 -2.014771223 0.9112764597 
-21.53730965 -8.447536469 -2.014342546 0.9112945795 
-21.13761139 -9.395947456 -2.014090538 0.9113051295 
-20.2043972 -10.08041763 -1.965995908 0.913328588 
-18.191082 -11.1976881 -1.859924555 0.9178068042 
-17.67189026 -11.99382782 -1.859605074 0.9178202748 
-16.22940063 -13.2664156 -1.825130463 0.9192805886 
-13.24572086 -12.9543066 -1.613176227 0.9283097386 
-12.42447376 -13.28269482 -1.583616734 0.9295760989 
-7.989737511 -13.65101051 -1.377210021 0.9384661913 
-7.195943356 -13.65380859 -1.3438375 0.9399115443 
-5.71128273 -13.65903759 -1.289070368 0.9422882199 
-3.02840209 -13.6685009 -1.218976617 0.9453389645 
-1.774239421 -13.67291927 -1.200482249 0.9461455345 
-1.129083276 -13.32252884 -1.164150476 0.9477320313 
-0.5338708162 -13.32462883 -1.16110611 0.9478650689 
0.07749145478 -17.41928101 -1.516712308 0.9324484468 
4.025711536 -17.43320274 -1.557854533 0.9306809902 
4.852591515 -17.43611717 -1.57586062 0.9299085736 
7.479158878 -19.84394073 -1.846459746 0.9183769822 
8.345320702 -19.47000504 -1.844416022 0.9184634686 
9.957645416 -20.64345169 -1.995606661 0.9120821953 
15.77855301 -16.57047272 -1.99225235 0.9122232199 
20.53647995 -10.01890087 -1.989553452 0.9123368263 
20.61868668 -7.876081467 -1.921787024 0.915192306 
21.9773674 -6.221928596 -1.988773108 0.9123695493 
22.23088264 -5.237885475 -1.98864162 0.9123750925 
22.44067764 -4.243469238 -1.988536239 0.9123796225 
22.60629845 -3.240986347 -1.988456845 0.9123830199 
22.72748566 -2.232009172 -1.988403678 0.9123852849 
22.82237244 0.8127441406 -1.988402963 0.9123852253 
22.76425171 1.827311993 -1.988455415 0.9123829007 
22.66134644 2.838146925 -1.988534331 0.9123795629 
21.48491669 7.771791935 -1.989319921 0.9123466611 
20.26715851 10.56643391 -1.990087509 0.9123142362 
19.25385666 12.32982254 -1.990715027 0.9122878909 
17.45121002 14.79090405 -1.991819143 0.9122414589 
15.33708858 16.9930191 -1.993102074 0.9121875763 
14.56945419 17.66251755 -1.993565679 0.912168026 
6.830523968 10.98666 -1.126413226 0.9493827224 
10.3260107 20.46821022 -1.996112466 0.9120608568 
5.124259949 20.51796341 -1.841370821 0.918592453 
3.280527353 20.89325714 -1.841461778 0.9185885191 
0.4706677198 21.14896011 -1.841892838 0.9185702205 
-0.4707202017 21.15149117 -1.842118025 0.9185608625 
-1.065506577 15.93996525 -1.390990138 0.9378700256 
-1.739997506 15.57608986 -1.36464417 0.9390100241 
-3.75933218 18.52210617 -1.645601749 0.9269227386 
-4.012862682 16.06786919 -1.441999197 0.9356665015 
-1.019330978 3.425332069 -0.3111692667 0.9857532382 
-7.835582256 19.71862411 -1.84748435 0.9183334708 
-8.709464073 19.36029053 -1.84841764 0.9182938933 
-10.40667534 18.52907753 -1.850365758 0.9182114601 
-12.02561092 17.55017853 -1.852410555 0.9181249142 
-13.55302334 16.43028831 -1.854482651 0.9180370569 
-14.27850914 15.8201437 -1.855533242 0.9179925919 
-14.97676373 15.17799282 -1.856599689 0.9179474711 
-16.28553581 13.80291748 -1.85877192 0.9178555012 
-5.655984879 3.621999502 -0.5847893953 0.9733933806 
-5.720772743 3.314206362 -0.5756573081 0.973803401 
-5.826402664 3.037575722 -0.5721087456 0.9739627838 
-6.734927654 2.780888557 -0.6344321966 0.9711676836 
-20.10309982 7.271943092 -1.861374617 0.9177454114 
-20.40847778 6.370961666 -1.861538529 0.9177386165 
-22.96728516 2.876471996 -2.015383005 0.9112507701 
-13.07073307 1.049204111 -1.141728163 0.9487124085 
-13.00363636 -0.1157006845 -1.132271051 0.9491263032 
-12.99135113 -0.6943969727 -1.132771015 0.9491044283 
-12.97903633 -1.274636149 -1.135518432 0.9489840865 
-22.91082001 -3.284655571 -2.015241623 0.9112567306 
-22.74066925 -4.300397873 -2.015123606 0.9112617373 
-22.5253067 -5.307258129 -2.014979124 0.9112676978 
-18.76639175 -10.21273422 -1.860280514 0.9177918434 
-18.29059982 -11.0357666 -1.859986067 0.9178041816 
-17.77861214 -11.83639908 -1.859670639 0.917817533 
-17.23133659 -12.61332512 -1.859334826 0.9178317189 
-16.69451523 -13.40040016 -1.863942266 0.9176367521 
-15.10363865 -13.27038574 -1.750565886 0.9224469066 
-13.81758595 -13.27491665 -1.668359637 0.9259504676 
-11.87494469 -13.63730907 -1.574475408 0.9299679399 
-10.84989834 -13.64091778 -1.51760602 0.9324100018 
-8.998628616 -13.64745045 -1.423342228 0.9364718199 
-7.351607323 -13.65325165 -1.350166321 0.9396371841 
-5.8543787 -13.658535 -1.293889165 0.942078948 
-3.803279877 -13.66577148 -1.235098958 0.9446363449 
-3.15625596 -13.66805172 -1.221395016 0.9452335238 
-2.522076368 -13.67028809 -1.210358381 0.9457147121 
-0.6527551413 -13.32421398 -1.161528587 0.9478465319 
0.6980163455 -17.42147446 -1.518105388 0.9323885441 
2.045316219 -15.7608881 -1.383805513 0.938180685 
3.055579662 -17.42977905 -1.540754676 0.9314152002 
8.173560143 -19.54777718 -1.844821334 0.9184463024 
9.773929596 -20.73241615 -1.995713353 0.9120777249 
10.68376827 -20.27170944 -1.995185852 0.9120998979 
11.5718832 -19.77132225 -1.99467206 0.912121594 
12.436903 -19.23213768 -1.994172335 0.9121425748 
14.87547684 -17.39352989 -1.99276948 0.9122015238 
16.35560417 -15.99579048 -1.991922855 0.9122369885 
17.70583344 -14.47306156 -1.991154909 0.9122694135 
18.32878685 -13.66875935 -1.990799189 0.9122843742 
19.97542381 -11.10229683 -1.989864588 0.9123244882 
20.44705391 -10.20148373 -1.989602804 0.912334621 
20.87815475 -9.280627251 -1.989365697 0.9123446345 
21.26800728 -8.341906548 -1.989153147 0.9123536348 
22.18367195 -5.435532093 -1.988665938 0.9123740792 
22.40225029 -4.443193436 -1.988555312 0.9123786688 
22.57672882 -3.442011595 -1.988470554 0.9123824239 
22.70683479 -2.434335947 -1.988412261 0.9123848081 
22.82864189 0.6096630692 -1.988395691 0.9123854637 
22.77945328 1.624689937 -1.988442898 0.9123834968 
22.68548203 2.636394024 -1.98851645 0.9123803973 
22.54684448 3.643193245 -1.988616347 0.9123762846 
22.36388588 4.642751217 -1.988741994 0.9123710394 
22.13691902 5.633512974 -1.988893509 0.9123645425 
21.55270004 7.580183029 -1.989275575 0.912348628 
19.88061142 11.28237438 -1.990327597 0.9123043418 
13.93414021 18.17343712 -1.993948579 0.9121519327 
13.1152668 18.77987099 -1.994441152 0.9121311903 
12.26994324 19.34968758 -1.994948745 0.9121097922 
8.865406036 19.24736977 -1.845096111 0.9184346199 
6.817173481 16.72068024 -1.572219849 0.9300646186 
7.102983952 19.91254616 -1.840778589 0.9186171293 
3.466431856 20.86302757 -1.841446161 0.9185892344 
1.598623037 21.09116745 -1.841676116 0.9185795784 
-0.2825109661 21.15434265 -1.842069626 0.9185627103 
-0.9232116342 15.94129086 -1.390345931 0.9378983974 
-2.492752552 16.85320663 -1.48337245 0.9338830709 
-8.535826683 19.43509674 -1.848228574 0.91830194 
-11.84772587 17.62515831 -1.84911263 0.9182644486 
-12.64828968 17.11879539 -1.853245974 0.9180895686 
-14.1355772 15.94473076 -1.855321884 0.9180015922 
-15.51464939 14.64216042 -1.857462883 0.9179109931 
-16.77439308 13.2208395 -1.859652519 0.9178183079 
-6.541024208 2.769265175 -0.6184643507 0.9718829989 
-20.03721428 7.45036602 -1.861338973 0.9177469611 
-22.57396889 5.107167721 -2.01519084 0.9112589359 
-22.7800045 4.098053932 -2.015294313 0.9112545252 
-22.94060516 3.080871582 -2.015371084 0.9112513065 
-13.00610733 -4.882812391e-06 -1.252346277 0.9490773082 
-20.58436012 -3.703090668 -2.013864994 0.9193888307 
-20.39798355 -4.614809513 -2.013739347 0.9193936586 
-19.90388298 -6.408464432 -2.013416767 0.919406116 
-19.59722519 -7.286820889 -2.013221025 0.9194135666 
-19.25156784 -8.150465965 -2.013002396 0.9194220304 
-18.86767006 -8.997693062 -2.012761593 0.9194313884 
-16.16293526 -10.55436993 -1.858742356 0.9253602624 
-15.15587997 -11.94519234 -1.858125091 0.925383985 
-14.60686874 -12.60529804 -1.857790351 0.9253969193 
-12.87373161 -13.28112316 -1.781011939 0.9283668995 
-10.08062077 -13.64363766 -1.633420348 0.9341028929 
-9.173521996 -13.64683533 -1.583331466 0.9360575676 
-8.318758011 -13.64984322 -1.539182425 0.9377839565 
-7.50880003 -13.65270519 -1.500314593 0.9393063188 
-6.737252235 -13.65542412 -1.466192484 0.9406448007 
-5.998587608 -13.6580267 -1.436369538 0.94181633 
-1.368206739 -13.32168961 -1.289481282 0.9476075768 
-0.7716149688 -13.32378864 -1.285086632 0.9477814436 
2.895833731 -17.42921829 -1.701249838 0.9314624071 
4.519561768 -17.43494606 -1.734285116 0.9301791787 
5.358658314 -17.43790436 -1.756572366 0.9293143153 
7.242095947 -17.76279259 -1.847054362 0.9258115888 
5.599718094 -12.15741158 -1.288833618 0.9476331472 
9.500760078 -18.42280769 -1.995914698 0.9200779796 
12.60120487 -16.43483925 -1.994124889 0.9201466441 
14.00640011 -15.24363232 -1.993318796 0.9201776385 
15.30012035 -13.93327141 -1.992579579 0.9202060103 
15.90203476 -13.23654747 -1.992233396 0.9202193022 
16.47240067 -12.51401615 -1.991907477 0.9202318788 
17.01016045 -11.76707745 -1.991600871 0.9202435613 
17.51425362 -10.99717999 -1.99131465 0.9202545285 
19.49847221 -6.857612133 -1.990221024 0.9202965498 
20.23380661 -4.200553894 -1.989835978 0.9203113914 
20.5256443 -2.385392904 -1.98969686 0.9203166962 
20.61105919 -1.469941378 -1.989663243 0.9203180671 
20.65597153 -0.5516308546 -1.989653468 0.9203183651 
20.62379837 1.286479473 -1.989705563 0.9203163385 
20.54681015 2.202705145 -1.989767432 0.9203138947 
20.42935181 3.114655733 -1.989853024 0.9203106761 
20.27167892 4.020566463 -1.98996222 0.9203065038 
20.0741024 4.918673992 -1.9900949 0.9203013778 
19.83699608 5.807240963 -1.990250349 0.9202953577 
19.2460289 7.548796177 -1.990632534 0.9202807546 
18.8933239 8.398406982 -1.99085784 0.9202720523 
18.50328636 9.231668472 -1.991102219 0.920262754 
16.58634567 12.36917686 -1.992285609 0.9202173352 
14.14472103 15.1218071 -1.993770957 0.920160234 
12.7501049 16.32605362 -1.994613051 0.9201278687 
8.933654785 16.95106697 -1.84500885 0.9258907437 
6.592270851 17.97373009 -1.843407869 0.9259525537 
5.786204815 18.24916077 -1.843405247 0.9259526134 
4.141307354 18.69109726 -1.843395233 0.9259530902 
3.305819035 18.85722542 -1.843435764 0.9259515405 
2.463815928 18.98641777 -1.843513727 0.9259485006 
0.7666686773 19.1330471 -1.84378171 0.9259381294 
-0.08522949368 19.15018463 -1.843971014 0.9259307981 
-0.9371276498 19.12979698 -1.844197035 0.9259219766 
-3.473248243 18.82564545 -1.843296885 0.9259568453 
-9.095413208 16.89180374 -1.847293615 0.9258024096 
-9.8630476 16.51272011 -1.852030396 0.9256194234 
-10.59313583 16.06565857 -1.852958202 0.925583601 
-11.99145603 15.07611084 -1.85486877 0.9255098104 
-13.29794979 13.96531963 -1.856820583 0.9254344106 
-5.422300816 3.609992504 -0.6272351146 0.9741627574 
-5.453250408 3.290236712 -0.6132603288 0.9747310877 
-5.541207314 3.015549183 -0.6074496508 0.9749674797 
-7.35043335 2.807814837 -0.7576462626 0.9688752294 
-20.35753059 4.796486855 -2.013880968 0.9193882942 
-13.02088261 0.6959472299 -1.255558014 0.9489500523 
-12.99628067 -0.4628539979 -1.252193451 0.9490833282 
-12.98398781 -1.042216778 -1.25423646 0.9490023851 
-20.75387573 -2.599318743 -2.013984203 0.9193843603 
-20.61671257 -3.519780159 -2.013887167 0.9193880558 
-20.43850136 -4.433158875 -2.013766289 0.919392705 
-20.21960831 -5.337546349 -2.013621569 0.9193983078 
-19.96052742 -6.23120594 -2.013453245 0.9194045663 
-19.66168594 -7.112267971 -2.013262033 0.9194120169 
-18.94748878 -8.829652786 -2.012811422 0.9194293618 
-17.29619789 -10.02021503 -1.924730778 0.9228153229 
-16.25673485 -10.41044617 -1.858800054 0.9253579378 
-15.26212215 -11.81025124 -1.85818994 0.9253814816 
-14.71902943 -12.47526073 -1.857858658 0.925394237 
-14.14684868 -13.11521435 -1.857510686 0.9254077673 
-12.20611954 -13.52395439 -1.754171133 0.9294074178 
-9.350486755 -13.64621067 -1.592852712 0.9356857538 
-8.485899925 -13.64925766 -1.547569275 0.9374557137 
-6.888763428 -13.65489197 -1.472658992 0.9403909445 
-6.143927097 -13.65751457 -1.442010283 0.9415946603 
-5.428077221 -13.66004848 -1.415352941 0.9426426888 
-2.146666288 -13.6716156 -1.332555175 0.9459055662 
-1.527459741 -13.67379379 -1.32482636 0.9462108016 
1.164681315 -17.4231205 -1.681398273 0.9322343469 
2.736585617 -17.42865753 -1.698752761 0.9315595627 
4.354202747 -17.43436432 -1.73029983 0.9303337336 
7.085149765 -17.83010674 -1.847424746 0.9257973433 
5.466070652 -12.15067387 -1.282911301 0.9478673935 
10.14853382 -18.06959915 -1.995539665 0.9200923443 
10.93978882 -17.59623528 -1.995082259 0.920109868 
11.70911503 -17.08839226 -1.994638324 0.9201268554 
12.45497894 -16.54704475 -1.994208932 0.9201433659 
13.87074566 -15.36830997 -1.993396401 0.9201744795 
14.53785038 -14.73325157 -1.993014932 0.9201892018 
15.78416348 -13.37802219 -1.992300987 0.92021662 
17.89266968 -10.36576653 -1.991103172 0.9202625751 
18.33379173 -9.558366776 -1.990858078 0.9202721119 
19.10671234 -7.889369965 -1.990433097 0.920288384 
19.43700981 -7.030981064 -1.990254164 0.9202952385 
20.19584274 -4.380517483 -1.989855051 0.9203104973 
20.36981964 -3.477624416 -1.989768982 0.9203138947 
20.50370598 -2.567981005 -1.989706516 0.9203162789 
20.59726524 -1.6533252 -1.989668131 0.9203177094 
20.63432503 1.102890611 -1.989696026 0.9203166962 
20.30640793 3.839941263 -1.989938617 0.9203074574 
20.11680222 4.739777565 -1.990066528 0.9203024507 
19.88754654 5.630375862 -1.990217447 0.920296669 
19.31203651 7.377053261 -1.990589738 0.9202823639 
18.96686554 8.22974968 -1.990811229 0.9202738404 
18.16491508 9.885430336 -1.991312861 0.9202546477 
16.13776016 12.95353889 -1.99255991 0.9202067852 
15.54835415 13.66104794 -1.992919326 0.9201930165 
14.27814674 14.99473095 -1.993690252 0.9201633334 
11.40756798 17.30084038 -1.995420337 0.9200969338 
10.62916756 17.79536057 -1.99588716 0.9200788736 
8.333025932 17.27558708 -1.846854806 0.9258193374 
7.565927982 17.65168571 -1.849214435 0.9257282019 
6.751979351 17.91439438 -1.843412995 0.9259523749 
5.948375225 18.19689369 -1.843402624 0.9259527922 
5.133006573 18.44341469 -1.843396306 0.9259530902 
1.786595464 19.06302643 -1.843603134 0.925944984 
-3.305402756 18.85479927 -1.843198657 0.92596066 
-4.146514893 18.71462059 -1.845715761 0.9258634448 
-1.077358365 3.397878408 -0.3432309031 0.9857777953 
-9.714752197 16.59819984 -1.851847291 0.9256264567 
-10.44868755 16.15766335 -1.852771163 0.9255908132 
-12.52572823 14.6459198 -1.855651021 0.9254795909 
-13.17176628 14.08164501 -1.856627584 0.9254418612 
-13.79233456 13.48881817 -1.857597709 0.9254044294 
-14.38632393 12.86874962 -1.858579636 0.9253664017 
-14.9525156 12.22255611 -1.859571218 0.9253281355 
-5.4201231 3.678586245 -0.630746603 0.9740200639 
-6.165863037 2.740837336 -0.6497187614 0.9732490778 
-7.015902042 2.751823664 -0.7256603241 0.9701694846 
-18.28177261 6.247424126 -1.860284686 0.9253007174 
-19.90337944 5.826669693 -1.99691236 0.9200395942 
-20.31381989 4.97740221 -2.013858318 0.9193891287 
-20.51613808 4.069050312 -2.013961554 0.919385314 
-20.67766571 3.152521849 -2.014040232 0.9193821549 
-12.98644829 -0.9261767268 -1.253627896 0.9490264654 
-20.64742088 -3.336196184 -2.013908386 0.9193872809 
-20.47743225 -4.251125336 -2.013792276 0.9193916321 
-19.72459602 -6.937143326 -2.013302088 0.9194105268 
-19.39448166 -7.806882381 -2.013092518 0.9194184542 
-18.61933708 -9.497450829 -2.012606621 0.9194372296 
-15.36712742 -11.67435551 -1.858254194 0.9253790975 
-6.290433407 -13.65699196 -1.447810769 0.9413667917 
-5.569144249 -13.6595459 -1.420381188 0.9424449205 
-4.873341084 -13.66200161 -1.396687269 0.9433772564 
-4.199058533 -13.66437435 -1.376452923 0.9441742897 
-3.542742729 -13.66668892 -1.359447956 0.9448446035 
-2.901177883 -13.66894531 -1.345490336 0.9453951716 
-1.009776592 -13.32295418 -1.286533833 0.9477241039 
-0.4151867628 -13.32504845 -1.283679485 0.9478370547 
0.232559815 -17.41983414 -1.677487254 0.9323865175 
1.008988023 -17.42257309 -1.68041563 0.9322726727 
2.577777147 -17.42809486 -1.696393251 0.9316512346 
3.376610041 -17.43091774 -1.709609747 0.9311375022 
5.020428181 -17.43671417 -1.747169614 0.9296789169 
8.473970413 -17.17551804 -1.844148517 0.9259240031 
11.55706882 -17.19266129 -1.994726062 0.9201235175 
12.30774307 -16.65793419 -1.994293571 0.9201401472 
13.0338316 -16.09057999 -1.993876338 0.9201561809 
13.73396301 -15.49172783 -1.993474722 0.9201715589 
14.40671444 -14.86261177 -1.993089914 0.9201862812 
15.05083561 -14.20439911 -1.992722154 0.9202004075 
15.66498852 -13.51841259 -1.992369771 0.9202141166 
16.24813271 -12.80604935 -1.992035508 0.920226872 
18.2484436 -9.721403122 -1.990905404 0.9202702045 
18.66070175 -8.898979187 -1.990677476 0.9202789664 
19.03612328 -8.059249878 -1.990471601 0.9202868342 
19.37397003 -7.203808308 -1.990288138 0.9202939868 
19.67367172 -6.33435297 -1.990127325 0.9203001261 
19.93458366 -5.452534199 -1.989989758 0.9203054309 
20.15626144 -4.560114861 -1.989874959 0.920309782 
20.33820915 -3.658813477 -1.989784241 0.9203133583 
20.48015594 -2.750380754 -1.989717007 0.9203158617 
20.58175659 -1.836555123 -1.989673853 0.9203175902 
20.64291 -0.919179678 -1.989654541 0.9203182459 
20.66341782 -7.324218586e-06 -1.989658952 0.9203180671 
20.64322281 0.9191870093 -1.989687443 0.9203171134 
20.33957672 3.659047842 -1.989915729 0.9203081727 
20.15792084 4.560483456 -1.990038991 0.9203034639 
19.93651772 5.453081131 -1.990185499 0.9202979803 
19.67590904 6.335068226 -1.990354776 0.9202914238 
19.37641144 7.20474577 -1.990547419 0.9202843308 
17.80358315 10.52688217 -1.991536856 0.9202459455 
17.32026672 11.31010914 -1.991834998 0.920234561 
16.80270386 12.07131577 -1.992152929 0.9202222824 
15.05455017 14.20792294 -1.993219376 0.9201814532 
13.73771 15.49599552 -1.994017124 0.920150578 
6.79638958 9.198574066 -1.101256609 0.9550806284 
8.484287262 17.19639778 -1.846389771 0.925837338 
6.814731121 15.51623726 -1.631799221 0.9341663718 
6.911168098 17.85367203 -1.843419909 0.9259520769 
6.110071659 18.14325333 -1.843401551 0.9259527922 
5.296951771 18.39709854 -1.843401551 0.9259527326 
3.640872717 18.79519653 -1.843415022 0.9259523153 
2.801296234 18.93920517 -1.843478084 0.9259498119 
1.956136465 19.04611588 -1.843578577 0.9259459376 
-1.447606206 19.09953499 -1.84434998 0.9259161353 
-2.296133995 19.01916122 -1.84463346 0.9259051681 
-2.649484873 15.94651222 -1.556523919 0.9371054173 
-9.565684319 16.68235016 -1.85166502 0.9256335497 
-10.30345345 16.24837875 -1.852584839 0.9255980253 
-11.71878052 15.28394508 -1.854481339 0.9255247712 
-7.321680546 8.716892242 -1.096136689 0.9552847147 
-13.67029858 13.60960388 -1.857402802 0.9254119396 
-15.38466358 11.68763447 -1.860370159 0.9252973199 
-5.483948708 3.11215806 -0.6071490049 0.9749796987 
-6.816409588 2.743830442 -0.7075251341 0.9709040523 
-18.22515488 6.409765244 -1.860254169 0.9253018498 
-20.64863777 3.336386681 -2.014026642 0.919382751 
-20.77722549 2.414628744 -2.014086008 0.919380486 
-13.01348209 0.3475341797 -1.253502011 0.9490314722 
-20.31200981 -4.976982117 -2.013682365 0.9193959832 
-20.06874084 -5.87512207 -2.01352334 0.9194027185 
-19.78595352 -6.76144743 -2.013341427 0.919408977 
-19.46360397 -7.634128094 -2.013136148 0.9194168448 
-19.10256386 -8.491452217 -2.012908697 0.9194256067 
-18.7035923 -9.331630707 -2.012659073 0.9194352627 
-18.03890991 -10.02597618 -1.987203121 0.9204124808 
-14.93981552 -12.21218014 -1.857993245 0.925389111 
-14.37913704 -12.86231422 -1.85765183 0.9254022837 
-13.22736454 -12.93630791 -1.781507373 0.9283477068 
-12.42442513 -13.28269482 -1.751288533 0.9295192957 
-11.66373158 -13.63805103 -1.727951288 0.9304249883 
-7.1959095 -13.6537981 -1.486121297 0.9398627877 
-6.438135624 -13.65647411 -1.453771472 0.9411326051 
-5.711214542 -13.65903759 -1.425557852 0.9422413707 
-3.028463125 -13.66849613 -1.348044753 0.9452943802 
-1.129083276 -13.32253361 -1.287413955 0.9476893544 
0.8534680009 -17.4220314 -1.679561257 0.9323058128 
1.477347374 -15.76336384 -1.524489284 0.9383590221 
3.215816498 -17.43034554 -1.706677079 0.9312514067 
5.969866753 -18.26259804 -1.850057006 0.9256955981 
6.769414902 -17.9605999 -1.848169804 0.9257686138 
8.322415352 -17.25360298 -1.844505906 0.9259101152 
9.826236725 -18.24907684 -1.995726109 0.9200851321 
11.40410233 -17.29561424 -1.994814277 0.92012012 
12.15952015 -16.76753426 -1.994378924 0.920136869 
12.89064312 -16.20662498 -1.993958354 0.9201530218 
13.59608746 -15.61395931 -1.993553758 0.920168519 
14.27440262 -14.99078083 -1.993165374 0.9201834798 
14.92433643 -14.33828545 -1.992794275 0.9201977849 
16.13401604 -12.95057106 -1.992100596 0.9202244282 
17.21588516 -11.46180153 -1.991484046 0.9202480316 
17.70614052 -10.68315125 -1.991207242 0.9202589989 
18.16167068 -9.883637428 -1.990953445 0.9202683568 
18.58115768 -9.064882278 -1.990721345 0.9202773571 
18.96399689 -8.228484154 -1.990510941 0.9202854633 
19.30945396 -7.376066685 -1.990322948 0.9202926159 
19.61683846 -6.50928688 -1.990157723 0.9202988744 
20.45499802 -2.932565928 -1.989728689 0.9203153849 
20.56470108 -2.01965332 -1.989680648 0.9203172326 
20.63393593 -1.102846622 -1.989656329 0.9203181863 
20.59788513 1.653361797 -1.989727378 0.9203153849 
20.50466347 2.568090677 -1.989798903 0.9203127623 
20.37108421 3.477831841 -1.989893913 0.9203091264 
20.19743538 4.38083744 -1.990012527 0.9203045368 
19.43942642 7.031874657 -1.99050653 0.9202857018 
19.10946083 7.890500546 -1.99072051 0.9202773571 
18.33701897 9.560038567 -1.991205812 0.9202587008 
17.89606857 10.36770248 -1.991479635 0.9202481508 
17.41971207 11.15515995 -1.991773844 0.9202369452 
16.36464119 12.66334248 -1.992421269 0.92021209 
15.7878828 13.38118744 -1.992773414 0.9201985598 
15.17982864 14.07286835 -1.993143439 0.9201843143 
13.17969894 15.97777557 -1.99435401 0.9201378226 
5.471955299 8.801436424 -0.9979156852 0.9592085481 
9.37888813 16.69926453 -1.844203711 0.9259218574 
7.069773197 17.79171562 -1.843417764 0.9259511828 
6.271317005 18.08816338 -1.843402028 0.9259527326 
5.460489273 18.34926605 -1.843408585 0.9259525537 
3.8079772 18.76197433 -1.843406916 0.9259526134 
2.969696045 18.91335678 -1.843462467 0.9259504676 
2.125527382 19.02770996 -1.84355545 0.9259468317 
-0.4260693192 19.14653397 -1.844057083 0.9259274602 
-1.065760493 15.94330025 -1.538593054 0.9378069639 
-2.126701593 19.03821182 -1.844573975 0.9259074926 
-2.507673264 15.9706316 -1.556638122 0.9371008873 
-3.790709257 18.67668724 -1.835028291 0.9262764454 
-4.021148682 16.10076714 -1.597948432 0.9354867935 
-5.591739178 16.12809563 -1.643649101 0.9337041974 
-8.656629562 17.15916443 -1.850589871 0.9256750941 
-10.15743542 16.33780479 -1.85239923 0.9256051183 
-11.58111382 15.38604927 -1.854288459 0.9255321622 
-12.2604847 14.86340809 -1.855258703 0.9254947305 
-12.91635799 14.31087875 -1.856243253 0.9254567623 
-15.2784071 11.82282448 -1.860169888 0.9253050089 
-5.423328876 3.823488712 -0.6389383078 0.9736871123 
-5.426258564 3.474850893 -0.620439887 0.9744390845 
-5.909773827 2.753993988 -0.6278002858 0.9741398096 
-18.16708374 6.571630478 -1.860222936 0.9253030419 
-20.61796379 3.519987822 -2.014011621 0.919383347 
-20.75481415 2.599421263 -2.014075994 0.9193808436 
-13.07070446 1.049169898 -1.262614012 0.9486706853 
-20.70396423 -2.968261719 -2.013948202 0.9193856716 
-20.55033684 -3.886103392 -2.013841629 0.9193897843 
-19.84571838 -6.585231781 -2.013379574 0.9194074869 
-19.53118515 -7.460766315 -2.013179064 0.9194152355 
-18.35764885 -9.990344048 -2.012444019 0.9194434881 
-16.06784821 -10.69747543 -1.858683705 0.9253624678 
-13.81753254 -13.27492142 -1.845003366 0.9258908629 
-12.64721012 -13.28191376 -1.765957355 0.928950429 
-11.87484455 -13.63731384 -1.741176367 0.9299115539 
-9.894605637 -13.64429665 -1.622893333 0.9345133901 
-8.998639107 -13.64745045 -1.574051499 0.9364202619 
-7.351604939 -13.65325165 -1.493125916 0.9395881295 
-6.587056637 -13.65595627 -1.459896803 0.9408919811 
-5.148856163 -13.66103458 -1.405735493 0.9430211186 
-3.156224251 -13.66804695 -1.350718975 0.9451889396 
-1.898109078 -13.67249012 -1.329137802 0.9460405707 
-0.07753051817 -17.41873932 -1.677250504 0.9323957562 
0.6980944872 -17.42147446 -1.678842545 0.9323337674 
3.055574894 -17.42978477 -1.703893542 0.9313596487 
3.862467051 -17.43263054 -1.719278574 0.9307617545 
4.685691833 -17.43553734 -1.738420248 0.9300185442 
5.529153824 -17.43851089 -1.761518717 0.929122448 
6.610623837 -18.02380371 -1.848544598 0.9257541299 
7.398426533 -17.69408226 -1.84668541 0.9258258939 
10.46759129 -17.88446808 -1.99535501 0.920099318 
11.25023079 -17.39717674 -1.994903088 0.9201167822 
14.79669285 -14.47104931 -1.992867112 0.9201949835 
15.42298889 -13.79604912 -1.992509127 0.9202086926 
16.01869202 -13.09407711 -1.992166519 0.9202218056 
16.58260536 -12.36653805 -1.991844535 0.9202342033 
17.11369514 -11.61488247 -1.991541982 0.9202458262 
17.61096001 -10.84058857 -1.991260529 0.9202565551 
18.07341576 -10.04515839 -1.99100256 0.9202664495 
18.50018692 -9.230143547 -1.990765929 0.9202755094 
18.8903923 -8.397087097 -1.990551353 0.9202839732 
19.2433815 -7.547739029 -1.990358829 0.9202913046 
19.55841827 -6.683698654 -1.990188956 0.9202978015 
19.83491516 -5.806625843 -1.990041971 0.9203034043 
20.07231712 -4.918246746 -1.989917994 0.9203081727 
20.27021027 -4.020287991 -1.989817739 0.920312047 
20.54598045 -2.202634335 -1.989688277 0.9203169942 
20.61166 1.469990253 -1.989715934 0.9203158617 
20.52652359 2.38549304 -1.989782691 0.9203134179 
19.78484535 5.983625412 -1.990284324 0.9202941656 
19.50088501 6.858479023 -1.99046731 0.9202870727 
19.17832756 7.719963074 -1.990676284 0.9202796221 
18.42093658 9.396222115 -1.991153479 0.9202605486 
17.98709106 10.20773792 -1.99142313 0.9202504158 
17.51774979 10.99936104 -1.991713405 0.9202392697 
15.90578365 13.23970318 -1.992701411 0.9202011824 
10.31171227 17.98344421 -1.99607718 0.9200716019 
8.784606934 17.03416252 -1.845466733 0.9258729815 
5.623574257 18.29995918 -1.843409538 0.9259524941 
4.803908348 18.53180504 -1.843389869 0.925953269 
2.294746161 19.0078125 -1.843533874 0.9259477258 
0.5963659286 19.13950348 -1.843816638 0.9259366989 
-0.9234362841 15.94518375 -1.537913203 0.9378332496 
-1.957132578 19.05579948 -1.8445158 0.925909698 
-2.803328753 18.95299911 -1.84482038 0.9258979559 
-6.93087244 17.90452576 -1.848673344 0.9257491231 
-8.502779007 17.23387337 -1.850413918 0.9256818891 
-9.26543045 16.84666252 -1.851303101 0.9256475568 
-10.01059628 16.42590141 -1.852214456 0.92561239 
-10.73676872 15.97237968 -1.853145957 0.9255763292 
-6.428214073 8.700256348 -1.041598439 0.9574614763 
-12.12645626 14.97036076 -1.855063438 0.9255022407 
-13.42309189 13.84785652 -1.85701406 0.92542696 
-14.03319168 13.24401569 -1.857989192 0.9253892303 
-14.61619186 12.61334419 -1.858975172 0.9253511429 
-5.463397026 3.230383158 -0.6111437678 0.9748172164 
-5.78488636 2.758715868 -0.6171175838 0.9745742083 
-12.98152161 -1.158373952 -1.254944563 0.9489743114 
-20.72974968 -2.783871889 -2.01396656 0.9193849564 
-20.58436012 -3.703115225 -2.013864994 0.9193888307 
-20.39796066 -4.614814281 -2.013739347 0.9193937182 
-19.90388298 -6.408473969 -2.013416767 0.919406116 
-18.44638062 -9.826823235 -2.012499094 0.9194412827 
-16.94194221 -10.01742935 -1.895155191 0.9239550829 
-14.60686398 -12.60529995 -1.857790351 0.9253969193 
-14.06503487 -13.27404308 -1.862205267 0.92522645 
-12.08928108 -13.63655281 -1.754749775 0.9293849468 
-9.173514366 -13.64683533 -1.583332777 0.9360575676 
-8.318748474 -13.64984322 -1.539181948 0.9377839565 
-4.601265907 -13.66295338 -1.388192534 0.9437118173 
-3.934537172 -13.66531181 -1.369275451 0.9444571733 
-3.28450799 -13.66759777 -1.353507519 0.9450788498 
-2.648023605 -13.66984367 -1.340724707 0.9455831647 
-2.022220373 -13.67205048 -1.330791712 0.945975244 
-1.368206739 -13.32168961 -1.289481282 0.9476075768 
0.5428039432 -17.42093277 -1.678257823 0.9323565364 
2.895848274 -17.42922401 -1.701249957 0.9314623475 
3.699910879 -17.43206024 -1.715910316 0.9308927059 
4.519566536 -17.43494606 -1.73428309 0.9301791787 
5.358658314 -17.43790436 -1.756572366 0.9293143153 
7.242088318 -17.76279259 -1.847054362 0.9258115888 
5.599705696 -12.15740967 -1.288833618 0.9476332068 
10.30848503 -17.97774315 -1.99544704 0.9200958014 
12.60120678 -16.43484306 -1.994124889 0.9201466441 
13.31707096 -15.8547554 -1.993713617 0.9201624393 
14.66785526 -14.60273933 -1.992940664 0.9201920629 
15.90204716 -13.23653793 -1.992233396 0.9202193022 
17.01016426 -11.76706791 -1.991600871 0.9202435613 
19.49848175 -6.857587814 -1.990221024 0.9202965498 
19.78269386 -5.982983112 -1.990069509 0.9203024507 
20.2338047 -4.200553894 -1.989835978 0.9203113914 
20.27167511 4.020571232 -1.98996222 0.9203065038 
20.0741024 4.918673992 -1.9900949 0.9203013778 
19.83699799 5.807231426 -1.990250349 0.9202953577 
19.24601936 7.548818111 -1.990632534 0.9202807546 
18.89331436 8.398428917 -1.99085784 0.9202720523 
18.0767231 10.04698944 -1.991367579 0.920252502 
17.61441422 10.84271908 -1.991653681 0.9202415347 
16.58631516 12.3692503 -1.992285609 0.920217216 
16.02241135 13.09711552 -1.992630243 0.9202040434 
15.4267807 13.79936123 -1.992993236 0.9201900959 
14.14471149 15.12182331 -1.993770957 0.920160234 
12.7501049 16.32605362 -1.994613051 0.9201278687 
5.800551414 8.969848633 -1.028556705 0.9579827189 
10.47087383 17.89008522 -1.995982051 0.9200752974 
8.180994034 17.35346413 -1.847322226 0.9258012772 
7.410441875 17.72291565 -1.849692941 0.9257097244 
5.786197186 18.24916649 -1.843405247 0.9259526134 
4.968648434 18.48838425 -1.843392253 0.9259530306 
4.141307354 18.69109726 -1.843395233 0.9259530902 
3.305832386 18.85722923 -1.843435764 0.9259514809 
2.463832855 18.98643684 -1.843513727 0.925948441 
1.616901875 19.07841492 -1.843629122 0.9259440303 
0.7666906714 19.1330471 -1.84378171 0.9259381294 
-2.634509325 18.97654152 -1.844756722 0.9259003997 
-1.111959219 3.401630878 -0.3445956409 0.9857216477 
-9.095413208 16.89180374 -1.847293615 0.9258024096 
-9.8630476 16.51272011 -1.852030396 0.9256194234 
-11.99145126 15.07611561 -1.85486877 0.9255098104 
-13.91327763 13.36698437 -1.857793212 0.9253968 
-14.50182247 12.74151134 -1.858777285 0.9253588915 
-15.06231022 12.09023857 -1.859770417 0.9253205657 
-5.451178074 3.990226984 -0.6504835486 0.9732180238 
-5.541214466 3.015544415 -0.6074496508 0.9749674797 
-5.695293903 2.778461933 -0.6101722717 0.9748566747 
-20.12277412 5.69698 -2.013758421 0.919393003 
-20.55174255 3.886367083 -2.013979197 0.9193844795 
-20.81708908 2.044477463 -2.014102936 0.9193798304 
-12.99628067 -0.4628735185 -1.252193213 0.9490833282 
-20.75388145 -2.599353075 -2.013984203 0.9193843007 
-20.43849945 -4.433181286 -2.013766289 0.919392705 
-20.21959877 -5.337563515 -2.013621569 0.9193983078 
-19.9605217 -6.231218338 -2.013453245 0.9194046259 
-19.66168594 -7.112267971 -2.013262033 0.9194120169 
-19.32377434 -7.978991508 -2.013047934 0.9194203019 
-18.94748878 -8.829652786 -2.012811422 0.9194293618 
-15.77505207 -11.12151623 -1.858503938 0.9253693819 
-14.71904182 -12.47524834 -1.857858658 0.925394237 
-14.14686871 -13.11519527 -1.857510686 0.9254077077 
-12.20611954 -13.52401352 -1.754175186 0.929407239 
-10.26904869 -13.64296818 -1.644217849 0.9336821437 
-8.485879898 -13.64925766 -1.547567964 0.9374557137 
-7.667508602 -13.65213871 -1.507690072 0.9390171766 
-5.428077221 -13.66004848 -1.415352941 0.9426426888 
-2.146680832 -13.67161083 -1.332555532 0.9459056258 
-1.527481675 -13.67379379 -1.32482636 0.946210742 
-0.89065063 -13.32337379 -1.285758018 0.9477548003 
-0.2964953482 -13.32546806 -1.283416152 0.9478474855 
1.164713144 -17.42311478 -1.681398273 0.9322343469 
3.537967443 -17.43148422 -1.712684631 0.9310179949 
4.354212761 -17.4343605 -1.730300307 0.9303337336 
10.93975925 -17.59623528 -1.995082259 0.9201099277 
12.45495415 -16.54706001 -1.994208932 0.9201433659 
13.87077713 -15.36828136 -1.993396282 0.9201744795 
15.17610931 -14.06935978 -1.992650509 0.9202032089 
15.78418827 -13.3779974 -1.992300987 0.92021662 
16.36094093 -12.66050243 -1.991971135 0.9202293754 
17.89267731 -10.36575699 -1.991103172 0.9202625751 
18.33379173 -9.558366776 -1.990858078 0.9202721119 
20.19583511 -4.380539417 -1.989855051 0.9203105569 
20.36981583 -3.477668285 -1.989768982 0.9203138947 
20.50370598 -2.567939281 -1.989706516 0.9203163385 
20.59727097 -1.653281212 -1.989668131 0.9203177094 
20.65024376 -0.7353979349 -1.989653468 0.9203183651 
20.66260147 0.1839233339 -1.989662766 0.9203180671 
20.45605278 2.932707548 -1.98983407 0.920311451 
20.30640221 3.839963198 -1.989938617 0.9203074574 
19.61912918 6.510034084 -1.990391374 0.9202899933 
19.31203651 7.377053261 -1.990589738 0.9202823639 
18.96687508 8.229726791 -1.990811229 0.9202739 
18.58425522 9.066393852 -1.991051555 0.9202646017 
18.16492653 9.885406494 -1.991312861 0.9202546477 
16.69514656 12.220788 -1.992218852 0.920219779 
15.5483551 13.66102982 -1.992919326 0.9201930165 
14.92809868 14.34193802 -1.993296266 0.9201783538 
14.27813721 14.99473858 -1.993690252 0.9201633334 
12.8943243 16.21124649 -1.994526029 0.9201311469 
6.674559116 9.203962326 -1.094747186 0.955340147 
8.333025932 17.27558708 -1.846854806 0.9258193374 
6.752008438 17.91440582 -1.843412995 0.9259523153 
5.948394775 18.19688988 -1.843402624 0.9259527922 
5.13301754 18.44341469 -1.843396306 0.9259530902 
-1.617576838 19.08643723 -1.844403744 0.9259141088 
-2.465406418 18.99860764 -1.844694376 0.9259027839 
-3.305402756 18.85479927 -1.843198657 0.92596066 
-4.977203369 18.52022743 -1.846568465 0.9258303642 
-1.07735467 3.397880793 -0.3432309031 0.9857777953 
-6.6098032 18.02156639 -1.848314166 0.9257629514 
-8.193123817 17.37921906 -1.850064993 0.9256953597 
-8.944268227 16.97129059 -1.847206116 0.9258058071 
-6.18996191 8.697514534 -1.027916789 0.9580083489 
-12.52574348 14.6459074 -1.855651021 0.9254795909 
-13.79234505 13.48880577 -1.857597709 0.9254044294 
-14.3863287 12.86874199 -1.858579636 0.9253664017 
-5.442935467 3.350451469 -0.6154293418 0.9746428728 
-5.51120472 3.063112736 -0.6071251035 0.9749807119 
-5.661109447 2.824453115 -0.6091805696 0.9748970866 
-6.165853024 2.740834951 -0.6497178674 0.9732491374 
-7.015870094 2.751816273 -0.725656867 0.9701696038 
-20.67766953 3.152480364 -2.014040232 0.9193821549 
-13.02335072 0.8123657107 -1.256443262 0.9489150047 
-13.01102161 0.2315966785 -1.253016472 0.9490506649 
-12.99873829 -0.3471411169 -1.252082229 0.9490876794 
-13.05746174 -1.517480493 -1.265753269 0.9485464096 
-20.64742088 -3.336196184 -2.013908386 0.9193872809 
-20.26663589 -5.157465935 -2.013652563 0.9193970561 
-19.02580833 -8.660861969 -2.012860537 0.9194274545 
-15.36711788 -11.67437267 -1.858254194 0.9253790975 
-14.26352596 -12.98929405 -1.857581615 0.9254050851 
-13.11339188 -13.05517578 -1.781735539 0.9283388853 
-10.46005726 -13.64229488 -1.655291677 0.9332507253 
-7.827850342 -13.65158176 -1.51526475 0.9387204051 
-5.569180965 -13.6595459 -1.420382619 0.9424448609 
-4.199024677 -13.66437435 -1.376451492 0.9441743493 
-3.54271102 -13.66668892 -1.359447241 0.9448446035 
-0.4151867628 -13.32504845 -1.283679485 0.9478370547 
1.614866853 -15.72335911 -1.521953106 0.9384584427 
3.37659049 -17.43091774 -1.709609032 0.9311375618 
4.189568996 -17.43378448 -1.726475835 0.9304823279 
5.02040863 -17.43671417 -1.747169137 0.9296789765 
6.130840778 -18.20501518 -1.849677086 0.9257103205 
6.927552223 -17.89605522 -1.847796559 0.9257829785 
5.37407589 -12.23601055 -1.286821604 0.9477127194 
8.474009514 -17.17548752 -1.844148397 0.9259240627 
9.987835884 -18.16005325 -1.995632529 0.9200886488 
11.55709076 -17.19264603 -1.994726062 0.9201235175 
13.03384399 -16.09056091 -1.9938761 0.9201562405 
14.40671444 -14.86261177 -1.993089914 0.9201862812 
15.05083561 -14.20439911 -1.992722154 0.9202004075 
15.66498852 -13.51841259 -1.992369771 0.9202141166 
16.24811172 -12.80606174 -1.992035508 0.920226872 
17.31671143 -11.3078146 -1.991426826 0.920250237 
18.66067886 -8.899021149 -1.990677476 0.9202789664 
19.03614044 -8.059206009 -1.990471601 0.9202868938 
19.93459129 -5.452512264 -1.989989758 0.9203054309 
20.48015594 -2.750356436 -1.989717007 0.9203158617 
20.58175659 -1.836555123 -1.989673853 0.9203175902 
20.64291 -0.919179678 -1.989654541 0.9203182459 
20.66341782 -7.324218586e-06 -1.989658952 0.9203180671 
20.64322281 0.9191870093 -1.989687443 0.9203171134 
20.15792465 4.56045866 -1.990038991 0.9203034639 
19.37641144 7.204782486 -1.990547419 0.9202842712 
19.03891945 8.060474396 -1.990765452 0.920275569 
17.80357552 10.52689934 -1.991536856 0.9202459455 
17.32025337 11.31012917 -1.991834998 0.920234561 
16.80269432 12.07131958 -1.992152929 0.920222342 
16.25185394 12.8089962 -1.992490172 0.9202092886 
15.66872501 13.52165508 -1.992845893 0.9201958179 
15.05455017 14.20792294 -1.993219376 0.9201814532 
13.73772526 15.49597836 -1.994017124 0.920150578 
13.03755093 16.0951252 -1.99443984 0.9201344848 
6.796410561 9.198579788 -1.101258278 0.9550805688 
10.78662777 17.69919395 -1.995792747 0.9200825691 
9.230453491 16.78315544 -1.844317317 0.9259173274 
8.484250069 17.19641304 -1.84638989 0.9258373976 
6.911146164 17.85368156 -1.843419909 0.9259520769 
5.296931267 18.39710236 -1.843401551 0.9259527326 
1.107049584 19.11571503 -1.843716264 0.9259405732 
-0.5959557891 19.12643814 -1.842561245 0.9259853363 
-3.965335608 18.6827774 -1.839020133 0.926122129 
-4.811778545 18.56201935 -1.846395493 0.9258370996 
-1.046301246 3.404792309 -0.3429746926 0.9857883453 
-6.448582649 18.0779171 -1.848136306 0.9257698655 
-7.249893665 17.78183365 -1.849036574 0.9257350564 
-8.037432671 17.44980431 -1.849891901 0.9257019758 
-8.809879303 17.08307266 -1.850766897 0.92566818 
-9.565704346 16.68234253 -1.851665139 0.9256335497 
-13.04457378 14.19685745 -1.856435061 0.9254492521 
-14.84153652 12.3538475 -1.859372258 0.9253358245 
-15.38463211 11.68767262 -1.860370159 0.9252973199 
-5.483948708 3.112150908 -0.6071487069 0.9749796987 
-18.22515488 6.409765244 -1.860254169 0.9253018498 
-19.34034348 5.84919405 -1.945567489 0.9220131636 
-20.47893333 4.25143528 -2.013942719 0.9193859696 
-12.97658062 -1.391125441 -1.256661534 0.9489063621 
-20.06895828 -5.875187874 -2.013523579 0.9194018841 
-19.78593636 -6.76149416 -2.013341427 0.919408977 
-15.9715147 -10.83970642 -1.858624578 0.9253647327 
-15.47096539 -11.53752422 -1.858317733 0.9253765941 
-14.93981552 -12.21218014 -1.857993245 0.925389111 
-14.37913704 -12.86231422 -1.85765183 0.9254022837 
-9.710924149 -13.64494133 -1.612623572 0.9349139929 
-8.825755119 -13.64806652 -1.564997792 0.936774075 
-7.989744663 -13.65100574 -1.523030519 0.9384162426 
-6.438104153 -13.65647411 -1.453769922 0.9411326647 
-5.711214542 -13.65903759 -1.425557852 0.9422413707 
-4.332364559 -13.6639061 -1.380234957 0.9440252781 
-3.028463125 -13.66849613 -1.348044753 0.9452943802 
-1.129083276 -13.32253361 -1.287413955 0.9476893544 
-0.5339318514 -13.32462883 -1.284045815 0.9478225112 
0.8534289598 -17.42202568 -1.679561377 0.9323058128 
3.215857983 -17.43035126 -1.706677675 0.9312514067 
6.769414902 -17.9605999 -1.848169804 0.9257686138 
8.322415352 -17.25360298 -1.844505906 0.9259101152 
11.40410233 -17.29561424 -1.994814277 0.92012012 
12.89064312 -16.20662498 -1.993958354 0.9201530218 
14.92433643 -14.33831978 -1.992794275 0.9201976657 
15.54466629 -13.65775394 -1.99243927 0.9202112556 
16.13408089 -12.95053196 -1.992100596 0.920224309 
17.70619011 -10.68310738 -1.991207242 0.9202589393 
18.16167068 -9.883637428 -1.990953445 0.9202683568 
18.96399689 -8.228484154 -1.990510941 0.9202854633 
19.61683846 -6.50928688 -1.990157723 0.9202988744 
20.11507607 -4.739375114 -1.989896059 0.9203090072 
20.45499802 -2.932565928 -1.989728689 0.9203153849 
20.56469727 -2.019699574 -1.989680648 0.9203172326 
20.66254807 -0.1839306653 -1.98965621 0.9203182459 
20.65053177 0.7354931235 -1.989679813 0.9203172922 
19.98396492 5.275363445 -1.990154266 0.9202991128 
18.33701897 9.560038567 -1.991205812 0.9202587008 
17.89606857 10.36770248 -1.991479635 0.9202481508 
17.41971207 11.15515995 -1.991773844 0.9202369452 
15.78790951 13.38115692 -1.992773294 0.9201985598 
15.17986393 14.07283306 -1.99314332 0.9201843143 
13.17967033 15.97779751 -1.99435401 0.9201378226 
6.333311558 9.242903709 -1.078882098 0.9559730887 
5.471955299 8.801436424 -0.9979156852 0.9592085481 
7.069773197 17.79171562 -1.843417764 0.9259511828 
-1.065794706 15.94330502 -1.538591981 0.9378069639 
-2.507673264 15.9706316 -1.556638122 0.9371008873 
-5.591739178 16.12809563 -1.643649101 0.9337041974 
-7.881051064 17.51900291 -1.849719763 0.9257087111 
-10.15739822 16.33782196 -1.852399111 0.9256051183 
-14.15200806 13.11994362 -1.858185649 0.9253817201 
-14.7294445 12.48405266 -1.859173536 0.9253435731 
-15.2784071 11.82282448 -1.860169888 0.9253050089 
-5.473377705 3.170893431 -0.6090786457 0.9749011993 
-5.909773827 2.753993988 -0.6278002858 0.9741398096 
-20.44007874 4.433508396 -2.013923168 0.9193867445 
-13.01594543 0.4635229409 -1.254086733 0.949008286 
-13.0036459 -0.1157519519 -1.25215888 0.9490846992 
-12.9790535 -1.274699688 -1.255752206 0.9489423037 
-20.70396423 -2.968261719 -2.013948202 0.9193856716 
-20.55033684 -3.886103392 -2.013841629 0.9193897843 
-19.53118515 -7.460766315 -2.013179064 0.9194152355 
-19.17785072 -8.321271896 -2.012956142 0.919423759 
-18.35767365 -9.990309715 -2.012444019 0.9194434881 
-15.04842091 -12.079216 -1.858059525 0.9253864884 
-14.49354076 -12.73434544 -1.857721329 0.9253996015 
-13.81747627 -13.27492142 -1.845001817 0.9258910418 
-11.87484455 -13.63731384 -1.741176367 0.9299115539 
-9.894605637 -13.64429665 -1.622893333 0.9345133901 
-8.998639107 -13.64745045 -1.574051499 0.9364202619 
-8.153391838 -13.65042973 -1.531002164 0.9381040335 
-5.148887634 -13.66102505 -1.405736685 0.9430211186 
-4.466439247 -13.66342735 -1.384147286 0.9438711405 
-3.156192541 -13.66805172 -1.350718379 0.9451889396 
-2.522071362 -13.67028332 -1.338514209 0.9456704259 
-1.898077369 -13.67249012 -1.329137206 0.9460405707 
-1.248519301 -13.32210922 -1.288395643 0.9476505518 
-0.07749633491 -17.41874504 -1.677248478 0.9323957562 
2.26144886 -17.42698669 -1.692100048 0.9318181872 
3.862467051 -17.43263054 -1.719278574 0.9307617545 
10.46762753 -17.8844471 -1.99535501 0.920099318 
11.25027466 -17.39715767 -1.994902968 0.9201167226 
12.74647331 -16.32135773 -1.994041204 0.9201498032 
15.42298889 -13.79604912 -1.992509127 0.9202086926 
17.11369514 -11.61488247 -1.991541982 0.9202458262 
18.07341576 -10.04515839 -1.99100256 0.9202664495 
19.83493042 -5.80657959 -1.990041971 0.9203034043 
20.42821693 -3.114457846 -1.989741206 0.920314908 
20.62332535 -1.28642571 -1.989659429 0.9203180671 
20.6600914 -0.3677612245 -1.989654303 0.9203182459 
20.65618134 0.5516455173 -1.989673257 0.9203175902 
20.61166 1.469990253 -1.989715934 0.9203158617 
20.40102386 3.296376944 -1.989873052 0.9203099012 
20.23534584 4.200864315 -1.989986777 0.9203055501 
20.02982712 5.097194672 -1.990123987 0.9203003049 
19.50086784 6.85842514 -1.99046731 0.9202871919 
19.17788696 7.719925404 -1.990676522 0.9202811718 
18.42085648 9.396263123 -1.991153717 0.9202607274 
17.98707008 10.20777702 -1.99142313 0.9202504158 
17.51774979 10.9994173 -1.991713405 0.9202391505 
17.01375961 11.76960182 -1.992023468 0.9202272892 
15.90578365 13.23970318 -1.992701411 0.9202011824 
14.67162228 14.606493 -1.993451834 0.9201723933 
14.010149 15.24771404 -1.993852496 0.9201571345 
13.32079315 15.85917091 -1.994268894 0.9201411009 
12.6048727 16.43959808 -1.994700432 0.9201244712 
6.819144249 9.764379501 -1.146778107 0.9532675743 
8.028318405 17.43000793 -1.84779191 0.9257830977 
5.62353611 18.29997635 -1.843409538 0.9259524941 
1.447037339 19.09234238 -1.843656778 0.9259429574 
-1.957132578 19.05579948 -1.8445158 0.925909698 
-3.873219013 16.11734772 -1.596105576 0.9355586171 
-0.9936620593 3.451166868 -0.3458088636 0.9856717587 
-6.930909157 17.90451622 -1.848673344 0.9257491231 
-8.502813339 17.2338562 -1.850414038 0.9256818891 
-12.12645626 14.97036076 -1.855063438 0.9255022407 
-14.03319168 13.24401569 -1.857989192 0.9253892303 
-15.1709137 11.95705318 -1.859970093 0.9253128171 
-5.571063042 2.967849016 -0.6078031659 0.974953115 
-5.784915447 2.758718252 -0.6171197295 0.9745740891 
-6.462838173 2.736135244 -0.6757725477 0.972191453 
-20.39965248 4.615151405 -2.013902426 0.9193874002 
-20.5857029 3.70331049 -2.013995886 0.9193838239 
-20.73073196 2.783998966 -2.014065266 0.9193813205 
-13.01841164 0.579677701 -1.254772782 0.9489811659 
-13.00610733 -4.882812391e-06 -1.252346277 0.9490773082 
-12.99382401 -0.5785839558 -1.252402663 0.9490750432 
-20.39799118 -4.614775181 -2.013739347 0.9193936586 
-19.59720039 -7.286859989 -2.013221025 0.9194136262 
-19.2515564 -8.150503159 -2.013002396 0.9194220304 
-18.86765862 -8.997716904 -2.012761593 0.9194313884 
-18.44636536 -9.826855659 -2.012499094 0.9194412827 
-16.16291046 -10.554389 -1.858742118 0.9253602624 
-15.67490101 -11.26111507 -1.858442664 0.9253717661 
-15.15587521 -11.94519997 -1.858125091 0.925383985 
-14.06503487 -13.27404308 -1.862205267 0.92522645 
-12.87373829 -13.28111744 -1.781012654 0.9283668995 
-12.08928108 -13.63655281 -1.754749775 0.9293849468 
-11.04899311 -13.64022446 -1.690240145 0.9318904877 
-5.28797245 -13.66053677 -1.410472393 0.9428347945 
-3.934537172 -13.66531181 -1.369275451 0.9444571733 
-3.28450799 -13.66759777 -1.353507519 0.9450788498 
-2.648023605 -13.66984367 -1.340724707 0.9455831647 
-2.022220373 -13.67205048 -1.330791712 0.945975244 
-0.7716174126 -13.32379341 -1.285086632 0.947781384 
-0.2183019966 -16.35118103 -1.574580669 0.9363995194 
0.5428039432 -17.42093277 -1.678257823 0.9323565364 
