# .PCD v0.7 - Point Cloud Data file format
VERSION 0.7
FIELDS x y z intensities
SIZE 4 4 4 4
TYPE F F F F
COUNT 1 1 1 1
WIDTH 923
HEIGHT 1
VIEWPOINT 0 0 0 1 0 0 0
POINTS 923
DATA ascii
6.298593521 4.610558987 -2.004863739 0.9682776928 
6.086925983 4.885925293 -2.004751444 0.9682793617 
5.863205433 5.151511192 -2.004632711 0.9682813287 
4.857177734 6.106635571 -2.004100084 0.9682895541 
4.124504089 6.255270958 -1.924450994 0.9695304036 
3.741833448 6.264575005 -1.874196172 0.9703141451 
3.416511059 6.345073223 -1.850932002 0.970677197 
2.838875771 6.623217583 -1.850819945 0.9706789255 
2.541393995 6.742819786 -1.850785375 0.970679462 
1.621146202 7.020314693 -1.850582361 0.970682621 
1.307197213 7.085327148 -1.850542545 0.9706832767 
0.9907116294 7.136394024 -1.850524426 0.9706835747 
0.6722607017 7.173217773 -1.850476623 0.9706842899 
0.03204711899 7.20343256 -1.850181222 0.9706888795 
-0.2883923352 7.197038651 -1.850004196 0.9706916809 
-1.86836791 6.952216625 -1.848999619 0.9707073569 
-2.775589466 6.638139725 -1.848013163 0.9707227945 
-3.067517042 6.506811142 -1.847645879 0.9707285166 
-4.79031229 6.133806229 -1.998948932 0.9683697224 
-5.562932014 5.440507889 -1.998532772 0.9683762193 
-4.24525404 3.165913105 -1.360191941 0.9783667922 
-4.308356762 2.924037933 -1.337368131 0.9787259102 
-4.424079418 2.723286152 -1.33432734 0.9787737727 
-4.587394714 2.549660683 -1.348006368 0.9785584807 
-7.240514755 2.839931488 -1.997623205 0.9683904052 
-7.359436035 2.514953613 -1.997557998 0.9683914185 
-7.463806152 2.185029268 -1.99750042 0.9683923125 
-7.553437233 1.850773931 -1.997450829 0.9683930874 
-7.628127098 1.512907624 -1.997409225 0.968393743 
-7.687744141 1.172065377 -1.997375488 0.9683942795 
-7.732180119 0.8289135695 -1.997349977 0.9683946371 
-7.761330605 0.4841357172 -1.997332573 0.9683949351 
-7.7751441 0.1383959949 -1.997323394 0.9683951139 
-7.773598671 -0.2075952142 -1.997322321 0.9683951139 
-7.756701469 -0.5531933308 -1.997329473 0.9683949947 
-7.614323616 -1.580737233 -1.997400045 0.9683939219 
-7.336711407 -2.580310106 -1.997542977 0.9683916569 
-6.928720474 -3.534262657 -1.997755647 0.9683883786 
-6.764936447 -3.839143038 -1.997841597 0.9683870077 
-6.397561073 -4.425642014 -1.998034596 0.9683840275 
-5.979550838 -4.977277756 -1.998254776 0.96838063 
-5.005129337 -5.958893776 -1.998769999 0.9683725238 
-4.168402195 -6.573505878 -1.999213338 0.9683656693 
-3.872166634 -6.752954006 -1.999370575 0.9683632255 
-3.568222523 -6.919074535 -1.999531984 0.9683607221 
-2.616189003 -7.334309101 -2.000038147 0.9683527946 
-2.287541389 -7.444074631 -2.000212908 0.9683501124 
-1.954313874 -7.539140224 -2.00039053 0.968347311 
-0.9337328672 -7.734274864 -2.000934362 0.9683388472 
-0.5888159275 -7.768867016 -2.001118183 0.9683359861 
0.7962988019 -7.753251553 -2.001857758 0.9683244824 
1.140507817 -7.710856915 -2.002041817 0.9683216214 
2.488630295 -7.389762878 -2.00276351 0.9683104157 
2.815134287 -7.272382736 -2.002938509 0.9683076739 
3.136144876 -7.140553951 -2.003110409 0.9683049917 
4.352290154 -6.474543095 -2.003763437 0.9682949185 
4.636340141 -6.275048733 -2.003916025 0.9682924151 
4.911247253 -6.063046932 -2.004064083 0.9682901502 
5.176469803 -5.838959694 -2.004206896 0.9682880044 
5.675703049 -5.356518269 -2.004476309 0.9682837129 
5.908735275 -5.099077225 -2.004602432 0.9682817459 
6.339292049 -4.554260254 -2.004835844 0.96827811 
6.89008522 -3.670588255 -2.00513649 0.9682733417 
7.189653397 -3.043837786 -2.005300522 0.9682708979 
7.318192959 -2.721101046 -2.005370855 0.9682697654 
7.531523228 -2.060019493 -2.005488634 0.9682679176 
7.685136318 -1.382529259 -2.005574703 0.9682666063 
7.739147663 -1.039316416 -2.005605221 0.9682661295 
7.801030159 -0.3473608196 -2.005642414 0.9682655931 
7.801049709 0.3473608196 -2.005646229 0.9682655334 
7.7778368 0.6940332055 -2.005635977 0.9682656527 
7.685197353 1.382541418 -2.0055902 0.9682663679 
7.615952969 1.723010182 -2.005555391 0.9682669044 
7.432317734 2.393007755 -2.005460978 0.9682683945 
7.189769268 3.043918371 -2.005335331 0.9682703018 
6.890226841 3.670563936 -2.005177498 0.9682728648 
6.719825268 3.973330021 -2.005087137 0.9682741165 
6.536110878 4.26806879 -2.004989624 0.9682757258 
6.13023901 4.831584454 -2.004774332 0.9682790637 
5.908899784 5.099201679 -2.00465703 0.9682809114 
5.675871372 5.356689453 -2.004533529 0.9682827592 
4.634591103 6.272675514 -2.003157377 0.9683042169 
3.472887993 6.314526081 -1.850962043 0.9706767201 
3.188342333 6.462338924 -1.850839615 0.9706786275 
2.897697687 6.597719669 -1.850824833 0.9706788659 
2.601293802 6.719970703 -1.8507936 0.9706793427 
2.299736261 6.828857422 -1.850745678 0.9706801176 
1.993619323 6.924157619 -1.850681067 0.9706811309 
0.7360962033 7.167021275 -1.850495577 0.9706839919 
0.416520983 7.192172527 -1.850368023 0.9706860185 
0.0961669907 7.202988148 -1.850214362 0.9706884027 
-0.2243237197 7.199455261 -1.850041151 0.9706911445 
-0.5443041921 7.181606293 -1.849848747 0.9706941247 
-1.180225849 7.103507996 -1.84951055 0.9706993699 
-1.806497812 6.968789101 -1.849058747 0.9707064033 
-2.11435914 6.880395412 -1.848754048 0.9707111716 
-2.417901516 6.778344631 -1.848429084 0.970716238 
-1.796813965 3.484179497 -1.006884456 0.9839405417 
-1.917809963 3.344614267 -0.9902499914 0.9842037559 
-3.942620754 6.217451096 -1.890924931 0.970053196 
-4.331205845 6.201894283 -1.942924142 0.9692425132 
-5.00528574 5.959084511 -1.998833299 0.9683715701 
-4.182031155 3.48105216 -1.397554994 0.9777792096 
-4.232083797 3.215107441 -1.365086436 0.978289783 
-4.398921967 2.762063026 -1.334098577 0.978777349 
-4.927807331 2.513588905 -1.420828819 0.9774133563 
-5.572058201 2.536494017 -1.572463036 0.9750332236 
-6.285556316 2.530119658 -1.740295529 0.9724054933 
-7.336811543 2.5803442 -1.997570395 0.9683912396 
-7.444111347 2.251369476 -1.997511387 0.9683921337 
-7.53669405 1.917944312 -1.997460127 0.9683929682 
-7.614391804 1.580756783 -1.997416854 0.9683936238 
-7.677033424 1.24044919 -1.997381568 0.9683941603 
-7.756716251 0.5532006621 -1.997335434 0.9683949351 
-7.761311054 -0.4841259718 -1.997327328 0.9683949947 
-7.687695026 -1.172043443 -1.997363091 0.9683945179 
-6.624259949 -4.077621937 -1.997915506 0.9683858752 
-6.436635494 -4.368471622 -1.998013973 0.9683843255 
-5.562773228 -5.440344334 -1.998474836 0.9683771729 
-5.315608025 -5.682783127 -1.998605609 0.9683751464 
-4.790124416 -6.133615494 -1.998883724 0.9683707952 
-4.51287365 -6.341091156 -1.999030709 0.9683685303 
-4.226655006 -6.536054611 -1.999182343 0.9683661461 
-3.932032347 -6.718124866 -1.999338746 0.9683637023 
-3.629576445 -6.886938095 -1.99949944 0.9683612585 
-3.003608227 -7.183476448 -1.999832153 0.9683560133 
-2.681321859 -7.31060791 -2.000003576 0.9683533311 
-2.353674173 -7.423285961 -2.000177622 0.9683506489 
-2.021304846 -7.52130127 -2.000354767 0.9683479071 
-1.68488884 -7.604462624 -2.000533819 0.968345046 
-1.34507072 -7.672577858 -2.000715017 0.9683422446 
-0.6579321027 -7.763178349 -2.001081228 0.9683365822 
-0.3119750917 -7.785478115 -2.001266003 0.9683337212 
0.034661863 -7.792363167 -2.001451015 0.9683308601 
0.3812963665 -7.783833027 -2.001636267 0.9683279395 
0.7272729278 -7.759877682 -2.001821041 0.9683250785 
1.071840763 -7.720556259 -2.002005339 0.9683222175 
1.75411129 -7.596127987 -2.002370358 0.9683164954 
2.422739267 -7.411484241 -2.002728224 0.9683109522 
3.388515472 -7.024894714 -2.003246069 0.968302846 
4.580234051 -6.315966606 -2.003885984 0.9682929516 
4.857014179 -6.106437683 -2.004034758 0.9682905674 
5.627724648 -5.406752586 -2.004450321 0.9682841301 
6.086784363 -4.885746956 -2.004698753 0.9682802558 
6.2984519 -4.610434532 -2.004813671 0.9682784081 
6.857094765 -3.731608868 -2.00511837 0.9682738185 
7.162219048 -3.10768795 -2.005285501 0.9682711363 
7.410583496 -2.45899415 -2.005421877 0.9682689905 
7.51284647 -2.126972675 -2.005478382 0.9682680964 
7.797629356 -0.4167870879 -2.00564003 0.9682655931 
7.808476448 -0.06950683147 -2.005647898 0.9682654738 
7.803837776 0.2779443264 -2.005647421 0.9682654738 
7.783713341 0.6248071194 -2.005638599 0.9682656527 
7.697216511 1.314118624 -2.005596399 0.9682662487 
7.631012917 1.655190349 -2.005563021 0.9682667851 
7.549677372 1.992966294 -2.005521536 0.9682674408 
7.453361511 2.326767445 -2.005471945 0.9682682157 
6.754987717 3.913356781 -2.005105734 0.9682739377 
6.573904991 4.20976305 -2.005009651 0.9682754278 
6.173077106 4.776872635 -2.00479722 0.9682787061 
5.954125881 5.046347618 -2.00468111 0.9682807922 
5.723397255 5.305986404 -2.004558563 0.9682824612 
5.48132658 5.555021763 -2.004430532 0.9682844281 
5.228449821 5.79296875 -2.004296541 0.9682864547 
4.965231895 6.019389629 -2.004157305 0.96828866 
4.692210674 6.233854771 -2.004012585 0.968290925 
3.892339945 6.260693073 -1.89346385 0.9700136185 
3.529012442 6.283461571 -1.850991726 0.9706763029 
3.245744467 6.433703423 -1.850840569 0.9706786275 
2.661015511 6.696577072 -1.850801229 0.9706792235 
2.055189133 6.906191349 -1.850695491 0.9706808925 
1.745866656 6.990478516 -1.850617886 0.9706820846 
1.433123708 7.060946941 -1.850544214 0.970683217 
0.7998620272 7.160219669 -1.850503922 0.9706838727 
0.4805004895 7.188295841 -1.850396395 0.9706855416 
-0.1602673233 7.201311111 -1.850077271 0.9706905484 
-1.117003202 7.113857269 -1.849544644 0.9706988335 
-1.432209492 7.056447506 -1.849365473 0.9707016349 
-1.74445188 6.984814167 -1.849117279 0.9707055092 
-2.053099394 6.89917469 -1.848816633 0.970710218 
-2.951467276 6.560903072 -1.84779501 0.970726192 
-3.239737511 6.421803951 -1.847416759 0.9707320333 
-1.885451674 3.357075214 -0.9889329076 0.9842246175 
-4.657939434 6.188313007 -1.989372015 0.9685188532 
-4.952133656 6.003461838 -1.998861909 0.9683711529 
-5.213930607 5.776821136 -1.998721004 0.9683732986 
-4.190272331 3.551496506 -1.41081214 0.9775707722 
-4.283668041 3.020016909 -1.346178532 0.9785872698 
-4.372723103 2.800190449 -1.333660364 0.9787842631 
-4.499888897 2.606914043 -1.335716486 0.9787518978 
-7.313605785 2.645568848 -1.997583151 0.9683910012 
-7.600050926 1.648474097 -1.997424841 0.9683935046 
-7.716237545 0.9664013386 -1.997359276 0.9683945179 
-7.77146244 0.2767578065 -1.997326016 0.9683950543 
-7.739196777 -0.7600732446 -1.997337699 0.9683948755 
-7.641198635 -1.444953561 -1.997386456 0.9683941007 
-7.569491863 -1.783471584 -1.997422934 0.9683935642 
-7.265348911 -2.775307655 -1.997580051 0.9683910608 
-6.990427017 -3.410300255 -1.99772346 0.9683888555 
-6.832092285 -3.718044281 -1.997806311 0.9683875442 
-6.277331352 -4.59499979 -1.998097777 0.9683830142 
-5.844758034 -5.135326862 -1.998325944 0.9683794975 
-5.610886097 -5.390571117 -1.998449564 0.9683775306 
-5.365881443 -5.635190487 -1.998579025 0.9683755636 
-5.110243797 -5.86870575 -1.998714209 0.9683734179 
-4.284595966 -6.498071194 -1.999151707 0.9683666229 
-3.382397413 -7.012216568 -1.99963069 0.9683591723 
-2.746243954 -7.286325455 -1.999969006 0.9683538675 
-2.4196105 -7.401908875 -2.000142813 0.9683511853 
-2.08813715 -7.502878189 -2.000319242 0.9683484435 
-1.752444983 -7.589037895 -2.000498056 0.9683456421 
-1.413246989 -7.660158634 -2.000678778 0.9683428407 
-1.07119143 -7.716147423 -2.000860929 0.9683400393 
-0.03466796875 -7.792226315 -2.001414061 0.9683313966 
0.6581591368 -7.765895844 -2.001784086 0.9683256745 
1.003054142 -7.729655743 -2.001968384 0.9683227539 
1.68639648 -7.611293793 -2.002333879 0.9683170915 
2.356630802 -7.432619572 -2.002692938 0.9683114886 
3.00842762 -7.195009708 -2.003041983 0.9683060646 
3.325793266 -7.054657936 -2.003212214 0.9683033824 
3.636620998 -6.900307655 -2.003379107 0.9683008194 
3.940322161 -6.732233524 -2.003542185 0.9682982564 
4.802424431 -6.149345398 -2.004005432 0.968290925 
5.330722332 -5.69896698 -2.004290104 0.9682865739 
5.816904068 -5.203222752 -2.004552603 0.9682826996 
6.042978287 -4.939687252 -2.00467515 0.9682806134 
6.458825588 -4.383415222 -2.004900694 0.9682773352 
6.823547363 -3.792136192 -2.005100012 0.968274653 
7.268493652 -2.850910664 -2.005343676 0.9682701826 
7.388354301 -2.524838924 -2.005409479 0.9682692289 
7.493583679 -2.193715811 -2.005467653 0.9682682753 
7.58394289 -1.858244538 -2.005517721 0.9682675004 
7.719382286 -1.17688477 -2.005594015 0.9682663083 
7.793601036 -0.4861425757 -2.005637646 0.9682656527 
7.807550907 -0.1389770508 -2.005646944 0.9682654738 
7.567148209 1.925693274 -2.005530357 0.9682673216 
7.473819256 2.260346651 -2.005482435 0.9682680368 
7.365668774 2.590493202 -2.005426645 0.9682689309 
6.78959465 3.853071213 -2.005124092 0.9682737589 
6.61116457 4.1511693 -2.005029202 0.9682750702 
6.215404034 4.721818924 -2.004819632 0.9682783484 
5.530632019 5.506083965 -2.00445652 0.9682840109 
5.279876709 5.746257305 -2.004323721 0.968286097 
4.747589111 6.191933632 -2.00404191 0.9682904482 
4.369155407 6.256230354 -1.959945202 0.9689772725 
3.968764544 6.258681297 -1.903464913 0.9698576331 
3.014702082 6.545116901 -1.85083282 0.9706787467 
2.720530987 6.672653675 -1.850808024 0.9706791043 
2.116566181 6.887682915 -1.850708842 0.970680654 
1.495888591 7.047914982 -1.850543976 0.970683217 
0.8635399938 7.152851582 -1.850511551 0.9706837535 
0.2243554592 7.200376034 -1.850278258 0.970687449 
-1.991675973 6.91740942 -1.848878384 0.9707092643 
-2.297019005 6.820798397 -1.848561525 0.9707142115 
-2.893090725 6.58716774 -1.847868443 0.9707249999 
-1.856633306 3.375766516 -0.9895318151 0.9842151403 
-2.049694777 3.36322999 -1.011609435 0.9838657975 
-4.574836254 6.191806316 -1.977332592 0.968706429 
-4.898573875 6.047399998 -1.998890758 0.968370676 
-5.162373066 5.823085785 -1.998748779 0.9683728814 
-4.278281212 4.03768301 -1.510950565 0.975998044 
-4.271092415 3.068427563 -1.350756168 0.9785152078 
-7.501442909 2.051799297 -1.997479677 0.9683926702 
-7.585109711 1.71603024 -1.997433305 0.9683933854 
-7.745673656 0.691166997 -1.99734199 0.9683948159 
-7.77637434 -2.441406195e-06 -1.997321844 0.9683951139 
-7.707306862 -1.03503418 -1.997353315 0.9683946371 
-7.653728008 -1.376879811 -1.997380018 0.9683942199 
-7.585043907 -1.716015577 -1.997414947 0.9683936834 
-7.501359463 -2.051765203 -1.997457862 0.9683930278 
-7.402841568 -2.38351059 -1.997508645 0.9683921933 
-7.289704323 -2.710536957 -1.997567415 0.9683912992 
-6.695659161 -3.959003925 -1.997877955 0.9683864713 
-6.513232231 -4.253137112 -1.9979738 0.9683849812 
-6.317912579 -4.538894176 -1.998076439 0.9683833718 
-5.890158653 -5.0830369 -1.998301983 0.9683798552 
-5.65857172 -5.340343952 -1.998424292 0.9683779478 
-5.415759087 -5.587133884 -1.99855268 0.9683759212 
-4.898415565 -6.047197342 -1.998826385 0.9683716893 
-4.624902248 -6.259560585 -1.998971343 0.9683694243 
-4.342205524 -6.459582329 -1.999121189 0.9683670998 
-4.050871372 -6.646855354 -1.999275804 0.9683647156 
-3.444595814 -6.981733322 -1.999597788 0.9683596492 
-2.810909271 -7.261474609 -1.999934554 0.9683544636 
-2.154771566 -7.483871937 -2.000283718 0.9683489799 
-1.481354952 -7.64714098 -2.0006423 0.9683434367 
-1.139824152 -7.706171513 -2.000824451 0.9683405757 
-0.7959655523 -7.749955654 -2.001007795 0.9683377147 
-0.4504724145 -7.778403282 -2.001192093 0.9683348536 
-0.1040246561 -7.791464806 -2.001377106 0.9683319926 
0.5889965892 -7.771303654 -2.001747131 0.968326211 
1.61854732 -7.625878811 -2.00229764 0.9683176279 
1.956384182 -7.546991825 -2.002478361 0.9683148265 
2.290368557 -7.453166485 -2.002657175 0.9683120251 
2.619873047 -7.344548225 -2.002833843 0.9683092833 
3.262844086 -7.083852291 -2.003178596 0.9683039188 
3.575026751 -6.932280064 -2.003345966 0.9683012962 
4.17769289 -6.588159084 -2.0036695 0.9682962894 
4.466965199 -6.396298885 -2.003824949 0.9682938457 
5.018525124 -5.97484827 -2.00412178 0.9682892561 
5.279714108 -5.746098518 -2.004262686 0.9682870507 
5.998701096 -4.993227482 -2.00465107 0.9682809711 
6.215239048 -4.721708775 -2.00476861 0.9682791829 
6.419499397 -4.440659046 -2.004879236 0.9682776928 
6.611032486 -4.151034832 -2.00498414 0.9682757854 
6.954460144 -3.547255754 -2.005172014 0.9682730436 
7.242790222 -2.915436983 -2.005329609 0.968270421 
7.567067623 -1.925671339 -2.005508423 0.9682676196 
7.645405293 -1.587187409 -2.005552053 0.968266964 
7.708579063 -1.24554193 -2.005587816 0.9682663679 
7.788952351 -0.555493176 -2.005634785 0.9682656527 
7.719428539 1.176923752 -2.005607367 0.9682660699 
7.659318447 1.519125938 -2.005577326 0.9682665467 
7.584013462 1.858300686 -2.00553894 0.9682671428 
7.268615723 2.850949526 -2.005376339 0.9682697058 
6.8236866 3.792482853 -2.005142212 0.9682735205 
6.647922039 4.092307091 -2.005048752 0.9682745337 
6.043144226 4.939836502 -2.004728079 0.9682797194 
5.579494476 5.456701756 -2.004482508 0.9682835937 
5.330889702 5.699142933 -2.004350901 0.9682856202 
5.07174921 5.93021965 -2.004213572 0.968287766 
4.802560806 6.149536133 -2.004071236 0.968290031 
4.045955658 6.256620884 -1.913711071 0.9696978927 
3.359843731 6.375131607 -1.850901961 0.9706776738 
3.072816133 6.518041611 -1.850835681 0.9706786871 
2.779800892 6.648207664 -1.850814342 0.9706790447 
2.481262207 6.765139103 -1.850776315 0.9706796408 
1.87004149 6.958432674 -1.850650907 0.9706815481 
1.244106412 7.096674442 -1.850540519 0.9706832767 
0.6084057689 7.178813457 -1.850450754 0.9706847072 
0.2884423733 7.198215008 -1.850308895 0.9706869125 
-0.6720300317 7.170458794 -1.849766493 0.9706953764 
-0.9902526736 7.132865906 -1.84961009 0.9706978202 
-1.306442857 7.081100941 -1.849439859 0.9707005024 
-2.236323118 6.841200829 -1.848626494 0.9707131982 
-2.537967443 6.733739853 -1.848293543 0.9707183838 
-2.834454298 6.612919807 -1.847941279 0.9707238674 
-3.125190258 6.478984356 -1.847570181 0.9707296491 
-1.831332922 3.401113272 -0.9921454191 0.9841737747 
-1.996730924 3.342931986 -1.00011611 0.9840476513 
-4.492679119 6.195241451 -1.965578556 0.9688894749 
-4.844618797 6.090847015 -1.998919845 0.9683701992 
-5.110404968 5.868891239 -1.998776674 0.9683724642 
-5.366047382 5.635368347 -1.998638868 0.9683745503 
-4.344526291 4.173903942 -1.547400475 0.9754261971 
-4.258264065 3.117018938 -1.355416179 0.9784418941 
-4.323339939 2.878334999 -1.334013939 0.9787786603 
-4.449205399 2.684438467 -1.334645391 0.9787687659 
-5.145322323 2.510158539 -1.470428944 0.9766341448 
-5.856552601 2.541162014 -1.639723301 0.9739792943 
-7.381484032 2.449328661 -1.997545838 0.9683915973 
-7.641254902 1.444980383 -1.997401834 0.9683938622 
-7.697851181 1.103618145 -1.997369766 0.9683943391 
-7.739230633 0.7600878477 -1.997345805 0.9683947563 
-7.765319824 0.4150634706 -1.99733007 0.9683949947 
-7.665663719 -1.308725595 -1.997374058 0.9683942795 
-7.599980354 -1.64845705 -1.997407317 0.9683938026 
-7.519281864 -1.984941363 -1.997448683 0.968393147 
-7.423730373 -2.317521811 -1.997497797 0.9683923721 
-7.188806057 -2.968332529 -1.997619867 0.9683904648 
-6.730573654 -3.899213791 -1.997859597 0.9683867097 
-6.550764084 -4.194933891 -1.997954011 0.9683853388 
-6.357997894 -4.482429028 -1.998055339 0.9683837295 
-6.152643681 -4.761074066 -1.998163581 0.9683820009 
-5.935107231 -5.030344009 -1.99827826 0.9683802128 
-5.705786228 -5.289721489 -1.998399258 0.968378365 
-5.465175629 -5.538654804 -1.998526454 0.9683763981 
-5.213742733 -5.776659966 -1.998659492 0.9683743119 
-4.10978651 -6.610451698 -1.999244452 0.9683651924 
-2.875383139 -7.236044884 -1.999900222 0.9683549404 
-2.550873995 -7.35741663 -2.000072956 0.9683523178 
-1.887195945 -7.556359768 -2.000426054 0.9683467746 
-0.1733312905 -7.790082932 -2.001339912 0.9683325291 
0.1733813435 -7.79080534 -2.001525164 0.968329668 
1.209121108 -7.700536728 -2.002078772 0.968321085 
1.550612807 -7.639833927 -2.0022614 0.9683181643 
2.223898888 -7.473124981 -2.002621651 0.9683125615 
2.879799843 -7.247162819 -2.00297308 0.9683071375 
3.199601889 -7.112494946 -2.003144503 0.9683044553 
4.118818283 -6.624968052 -2.003638029 0.9682968259 
4.409785271 -6.435695648 -2.003794432 0.9682943821 
4.692055702 -6.233652115 -2.003946066 0.9682919383 
4.965092659 -6.019174576 -2.00409317 0.9682896733 
6.172895432 -4.776740551 -2.004745483 0.9682796001 
6.379648209 -4.497685432 -2.00485754 0.968277812 
6.922565937 -3.608916044 -2.005154371 0.9682734013 
7.076538086 -3.297707558 -2.005238533 0.9682718515 
7.216513634 -2.979746103 -2.005315304 0.9682706594 
7.342157841 -2.655900717 -2.005384207 0.9682695866 
7.453271389 -2.326704025 -2.005445242 0.9682686329 
7.54958725 -1.992939353 -2.005498648 0.9682677984 
7.630949497 -1.655136704 -2.005544186 0.9682670832 
7.803822994 -0.2779101431 -2.005644083 0.9682655334 
7.797643661 0.4167870879 -2.005645037 0.9682655334 
7.77134037 0.763207972 -2.005632877 0.9682657123 
7.729614258 1.10816896 -2.005612373 0.9682660103 
7.60028553 1.790722609 -2.005547285 0.9682670236 
7.293738842 2.786186457 -2.005389452 0.968269527 
6.684129715 4.033066273 -2.005068064 0.9682741761 
6.497807503 4.326032639 -2.004969358 0.9682760239 
6.298593521 4.610558987 -2.004863739 0.9682776928 
6.086945534 4.885864258 -2.004751444 0.9682794213 
5.863205433 5.151511192 -2.004632711 0.9682813287 
4.857177734 6.106635571 -2.004100084 0.9682895541 
4.124504089 6.255270958 -1.924450994 0.9695304036 
3.416511059 6.345073223 -1.850932002 0.970677197 
2.838875771 6.623217583 -1.850819945 0.9706789255 
1.621146202 7.020314693 -1.850582361 0.970682621 
1.307197213 7.085327148 -1.850542545 0.9706832767 
0.9907409549 7.136394024 -1.850524426 0.9706835747 
-0.608189702 7.176315784 -1.849807978 0.9706947803 
-1.243383765 7.092587948 -1.849475622 0.9706999063 
-1.86836791 6.952216625 -1.848999619 0.9707073569 
-2.175441742 6.861069202 -1.848690629 0.9707121849 
-3.067517042 6.506811142 -1.847645879 0.9707285166 
-1.810374737 3.435055971 -0.997307539 0.9840920568 
-1.954290748 3.339037895 -0.9937090874 0.9841490388 
-4.01872921 6.214460373 -1.900819659 0.9698988795 
-4.79031229 6.133806229 -1.998948932 0.9683697224 
-5.31576395 5.682963848 -1.998666048 0.9683741927 
-5.562912464 5.440532207 -1.998532772 0.9683762193 
-4.186855316 3.422411919 -1.388926029 0.9779148698 
-4.24525404 3.165913105 -1.360191941 0.9783667922 
-4.424079418 2.723286152 -1.33432734 0.9787737727 
-5.034672737 2.51190424 -1.445139766 0.9770313501 
-5.7124753 2.539269924 -1.605646491 0.9745131135 
-7.240514755 2.839931488 -1.997623205 0.9683904052 
-7.359445572 2.514924288 -1.997557998 0.9683914185 
-7.553437233 1.850773931 -1.997450829 0.9683930874 
-7.687744141 1.172065377 -1.997375488 0.9683942795 
-7.676980019 -1.240471125 -1.997368455 0.9683943987 
-7.614323616 -1.580737233 -1.997400045 0.9683939219 
-7.444025517 -2.251330614 -1.997487426 0.9683925509 
-7.214897156 -2.90420413 -1.997606277 0.9683907032 
-6.764936447 -3.839143038 -1.997841597 0.9683870077 
-6.58778286 -4.136437893 -1.99793458 0.9683855772 
-6.397561073 -4.425642014 -1.998034596 0.9683840275 
-5.979550838 -4.977277756 -1.998254776 0.96838063 
-5.752594948 -5.238632679 -1.998374581 0.9683787227 
-5.514189243 -5.489711761 -1.998500586 0.9683767557 
-5.264863014 -5.729975224 -1.998632431 0.9683746696 
-5.005129337 -5.958893776 -1.998769999 0.9683725238 
-4.735412598 -6.17610836 -1.998912811 0.9683703184 
-4.456344128 -6.381081581 -1.999060631 0.9683680534 
-3.872166634 -6.752954006 -1.999370575 0.9683632255 
-3.568189621 -6.919086933 -1.999531984 0.9683607221 
-3.257171631 -7.071537971 -1.999697208 0.9683581591 
-2.939599514 -7.210053444 -1.999866128 0.9683554769 
-2.616219521 -7.334301472 -2.000038147 0.9683527946 
-2.287541389 -7.444074631 -2.000212908 0.9683501124 
-1.617158175 -7.619291782 -2.000570059 0.9683445096 
-1.276778579 -7.684377193 -2.000751495 0.9683417082 
-0.5888451934 -7.768864632 -2.001118183 0.9683359861 
-0.2426635623 -7.78809309 -2.001302958 0.9683331251 
0.4505761564 -7.780273438 -2.001673222 0.9683273435 
1.821657658 -7.580351353 -2.002406359 0.968315959 
2.488630295 -7.389762878 -2.00276351 0.9683104157 
2.815165997 -7.272372723 -2.002938509 0.9683076739 
3.136113167 -7.140566349 -2.003110409 0.9683049917 
3.758979321 -6.834687233 -2.003444672 0.9682998657 
4.35226059 -6.474572659 -2.003763437 0.9682949185 
4.636340141 -6.275048733 -2.003916025 0.9682924151 
4.911220551 -6.063061237 -2.004064083 0.9682901502 
5.176469803 -5.838959694 -2.004206896 0.9682880044 
6.535949707 -4.268005371 -2.004943132 0.9682763815 
6.719687462 -3.973183393 -2.005043268 0.9682748914 
7.046862602 -3.360512733 -2.005222321 0.96827209 
7.318192959 -2.721101046 -2.005370855 0.9682697654 
7.43221426 -2.39297843 -2.005433798 0.9682688117 
7.531523228 -2.060019493 -2.005488634 0.9682679176 
7.7778368 0.6940332055 -2.005635977 0.9682656527 
7.73918438 1.039355397 -2.005617142 0.9682659507 
7.685197353 1.382541418 -2.0055902 0.9682663679 
7.615945816 1.72304678 -2.005555391 0.9682669044 
7.318310261 2.721140146 -2.005402088 0.9682692885 
7.189769268 3.043918371 -2.005335331 0.9682703018 
6.890226841 3.670563936 -2.005177498 0.9682728648 
6.719838619 3.97327137 -2.005087137 0.9682741761 
6.536110878 4.26806879 -2.004989624 0.9682757258 
6.13023901 4.831584454 -2.004774332 0.9682790637 
5.431593895 5.603483677 -2.004404068 0.968284905 
5.176631927 5.839179516 -2.004269123 0.9682868719 
4.91138649 6.063261509 -2.004128695 0.9682891369 
3.816725969 6.262658596 -1.883713126 0.9701657295 
3.188367844 6.462319374 -1.850839615 0.9706786275 
2.897697687 6.597719669 -1.850824833 0.9706788659 
2.601320744 6.71996069 -1.8507936 0.9706793427 
1.683561921 7.005673885 -1.850600362 0.9706823826 
1.370245337 7.073412895 -1.850543737 0.9706832767 
0.7360607982 7.167026043 -1.850495577 0.9706839919 
-0.2243237197 7.199455261 -1.850041151 0.9706911445 
-0.5443347096 7.181606293 -1.849848747 0.9706941247 
-1.806497812 6.968789101 -1.849058747 0.9707064033 
-2.114326239 6.880404949 -1.848754048 0.9707111716 
-2.417901516 6.778344631 -1.848429084 0.970716238 
-3.942656279 6.217451096 -1.890930891 0.9700531363 
-4.331205845 6.201894283 -1.942924142 0.9692425132 
-5.00528574 5.959084511 -1.998833299 0.9683715701 
-4.182031155 3.48105216 -1.397554994 0.9777792096 
-4.23208952 3.215078115 -1.365083933 0.9782898426 
-4.398921967 2.762063026 -1.334098577 0.978777349 
-4.5344944 2.573352098 -1.3391397 0.9786980152 
-4.927807331 2.513588905 -1.420828819 0.9774133563 
-6.285556316 2.530119658 -1.740295529 0.9724054933 
-7.336801529 2.580380917 -1.997570395 0.9683912396 
-7.444111347 2.251369476 -1.997511387 0.9683921337 
-7.614391804 1.580756783 -1.997416854 0.9683936238 
-7.775138855 -0.1384326071 -1.997321844 0.9683951139 
-7.761311054 -0.4841259718 -1.997327328 0.9683949947 
-7.732133389 -0.8289403915 -1.997341156 0.9683948159 
-7.553359032 -1.850749493 -1.997431159 0.968393445 
-7.35934782 -2.514890194 -1.997531295 0.9683918357 
-7.107170105 -3.159233332 -1.997662425 0.9683898091 
-6.798764706 -3.778767109 -1.997823715 0.9683873057 
-6.436615944 -4.368498325 -1.998013973 0.9683843255 
-5.798906326 -5.187184811 -1.998350143 0.9683790803 
-5.562746525 -5.440361023 -1.998474836 0.9683771729 
-5.057873249 -5.914038181 -1.998741984 0.9683730006 
-4.51287365 -6.341091156 -1.999030709 0.9683685303 
-4.226686954 -6.536039829 -1.999182343 0.9683661461 
-3.932032347 -6.718124866 -1.999338746 0.9683637023 
-3.319904804 -7.042162895 -1.999663949 0.9683586359 
-3.003641367 -7.183466434 -1.999831915 0.9683560133 
-2.681321859 -7.31060791 -2.000003576 0.9683533311 
-2.353643656 -7.423300743 -2.00017786 0.9683506489 
-1.684852242 -7.604462624 -2.000534058 0.9683451056 
-1.002488971 -7.725517273 -2.000897646 0.9683394432 
-0.6579321027 -7.763178349 -2.001081228 0.9683365822 
0.3813317716 -7.783837795 -2.001636267 0.9683279395 
0.7272363305 -7.759877682 -2.001821041 0.9683250785 
1.414313912 -7.665937424 -2.002188444 0.9683193564 
1.75411129 -7.596127987 -2.002370358 0.9683164954 
2.75023675 -7.297019005 -2.0029037 0.9683082104 
3.07240963 -7.168068886 -2.003076315 0.9683055282 
4.000155926 -6.697001934 -2.003574133 0.9682977796 
4.294416428 -6.512966156 -2.003732204 0.9682952762 
4.58026123 -6.315935135 -2.003885984 0.9682929516 
4.857014179 -6.106437683 -2.004034758 0.9682905674 
5.124238014 -5.884755611 -2.004178762 0.9682883024 
5.381289005 -5.651386738 -2.004317284 0.9682861567 
5.863041878 -5.151406288 -2.004577637 0.9682821035 
6.857094765 -3.731608868 -2.00511837 0.9682738185 
7.016593933 -3.423110247 -2.00520587 0.9682723284 
7.293642521 -2.786083937 -2.005357504 0.9682700038 
7.410583496 -2.45899415 -2.005421877 0.9682689905 
7.512853622 -2.126935959 -2.005478382 0.9682680964 
7.600209713 -1.790710449 -2.005526781 0.9682673216 
7.672502041 -1.450849533 -2.005567312 0.9682667255 
7.729565144 -1.108164072 -2.005599737 0.9682662487 
7.797629356 -0.4167870879 -2.00564003 0.9682655931 
7.808476448 -0.06947509944 -2.005647898 0.9682654738 
7.748156548 0.9703979492 -2.005621672 0.9682658911 
7.697216511 1.314118624 -2.005596399 0.9682662487 
7.631020546 1.655156255 -2.005563021 0.9682667851 
7.453371525 2.326735735 -2.005471945 0.9682682157 
7.342275143 2.65594244 -2.005414486 0.9682691097 
7.216614723 2.979853392 -2.005349159 0.968270123 
7.076672077 3.297787905 -2.005275965 0.9682712555 
6.922668457 3.609189272 -2.005194426 0.9682725072 
6.754987717 3.913356781 -2.005105734 0.9682739377 
6.573886395 4.209811687 -2.005009651 0.9682753682 
6.173058987 4.776901722 -2.00479722 0.9682787061 
5.954125881 5.046347618 -2.00468111 0.9682807922 
3.245744467 6.433703423 -1.850840569 0.9706786275 
2.956286669 6.571694374 -1.850829124 0.9706788063 
2.661015511 6.696577072 -1.850801229 0.9706792235 
1.117570758 7.117670536 -1.850533962 0.9706833959 
0.7998620272 7.160219669 -1.850503922 0.9706838727 
0.4805004895 7.188295841 -1.850396395 0.9706855416 
-1.744422555 6.984819412 -1.849117398 0.9707055092 
-2.35758543 6.799829006 -1.848495603 0.9707152247 
-2.657212973 6.687004089 -1.848154902 0.9707205296 
-3.239737511 6.421803951 -1.847416759 0.9707320333 
-1.885467529 3.357072592 -0.9889335632 0.9842246175 
-4.657939434 6.188313007 -1.989372015 0.9685188532 
-4.952133656 6.003461838 -1.998861909 0.9683711529 
-5.213903904 5.776847839 -1.998721004 0.9683732986 
-4.233180046 3.924501896 -1.482631683 0.9764425159 
-4.190272331 3.551496506 -1.41081214 0.9775707722 
-4.218742371 3.264606953 -1.370103121 0.9782108665 
-7.423830509 2.317512274 -1.997522593 0.9683919549 
-7.51936245 1.984968185 -1.997469783 0.9683927894 
-7.600056171 1.648444772 -1.997424841 0.9683935046 
-7.665715218 1.308745146 -1.997388005 0.9683940411 
-7.751501083 0.6222240925 -1.997338533 0.9683948755 
-7.77146244 0.2767578065 -1.997326016 0.9683950543 
-7.776062012 -0.06918212771 -1.997321725 0.9683951139 
-7.641191006 -1.444990158 -1.997386456 0.9683941007 
-7.482831955 -2.118500948 -1.997467399 0.968392849 
-7.381393909 -2.449306488 -1.997519851 0.9683920145 
-7.134941101 -3.095849514 -1.997648001 0.9683900476 
-6.832092285 -3.718044281 -1.997806311 0.9683875442 
-6.660214901 -4.018488884 -1.997896552 0.9683861732 
-6.47520256 -4.310964108 -1.997993708 0.9683846235 
-6.277331352 -4.59499979 -1.998097777 0.9683830142 
-6.067075253 -4.869934082 -1.998208761 0.9683812857 
-5.844758034 -5.135326862 -1.998325944 0.9683794975 
-4.844465256 -6.09064436 -1.998854995 0.9683712721 
-3.991583109 -6.682773113 -1.999307156 0.9683641791 
-3.690677404 -6.854272366 -1.999467015 0.9683616757 
-3.382370472 -7.012226582 -1.99963069 0.9683591723 
-2.746212006 -7.286332607 -1.999969006 0.9683538675 
-2.4196105 -7.401908875 -2.000142813 0.9683511853 
-2.088104248 -7.502890587 -2.000319242 0.9683484435 
-1.752479196 -7.589028358 -2.000497818 0.9683456421 
-1.071238995 -7.716147423 -2.000860929 0.9683399796 
0.6581591368 -7.765895844 -2.001784086 0.9683256745 
1.003088355 -7.729650497 -2.001968384 0.9683227539 
2.023491144 -7.529426098 -2.002514362 0.96831429 
2.356662512 -7.432611942 -2.002692938 0.9683114886 
2.685163498 -7.321074009 -2.002868652 0.9683087468 
3.008464336 -7.194990158 -2.003041983 0.9683060646 
3.325793266 -7.054657936 -2.003212214 0.9683033824 
3.636650324 -6.900292873 -2.003379107 0.9683008194 
3.940292835 -6.732255936 -2.003542185 0.9682982564 
4.236235142 -6.550798416 -2.003700972 0.9682958126 
4.523766994 -6.35637188 -2.003855467 0.9682934284 
5.071555138 -5.930056095 -2.004150391 0.9682887793 
6.823549747 -3.792929649 -2.005100012 0.9682732224 
7.13422823 -3.171259642 -2.005270243 0.9682713747 
7.268493652 -2.850910664 -2.005343676 0.9682701826 
7.58394289 -1.858244538 -2.005517721 0.9682675004 
7.659250259 -1.519111276 -2.005559921 0.9682668447 
7.806003094 0.208469227 -2.005648136 0.9682654738 
7.788974285 0.5555297732 -2.005640984 0.9682655931 
7.708627701 1.245585918 -2.005602121 0.9682661891 
7.567137241 1.925722599 -2.005530357 0.9682673216 
7.473819256 2.260346651 -2.005482435 0.9682680368 
7.365656376 2.590527296 -2.005426645 0.9682689309 
7.242909908 2.915485859 -2.005362988 0.9682699442 
6.954600811 3.547553539 -2.005211353 0.9682720304 
6.78959465 3.853071213 -2.005124092 0.9682737589 
6.419633865 4.440903187 -2.004927874 0.9682766795 
5.770475864 5.254939079 -2.004583597 0.9682819843 
5.530632019 5.506083965 -2.00445652 0.9682840109 
5.27985096 5.74627924 -2.004323721 0.968286097 
5.018685341 5.975041389 -2.004185677 0.9682882428 
4.747563362 6.191950321 -2.00404191 0.9682904482 
3.968729258 6.258681297 -1.903460145 0.9698576927 
2.420965433 6.786913872 -1.850766659 0.97067976 
1.808038235 6.9747262 -1.850634694 0.9706818461 
0.8635399938 7.152851582 -1.850511551 0.9706837535 
0.2243554592 7.200376034 -1.850278258 0.970687449 
-0.09619018435 7.202587605 -1.850112677 0.970690012 
-0.416420877 7.190463543 -1.849927902 0.970692873 
-1.053655982 7.123647213 -1.849577785 0.9706983566 
-1.369399428 7.069052696 -1.849403024 0.9707010388 
-1.682261944 7.00028038 -1.849174857 0.9707046151 
-1.991700411 6.917397499 -1.848878384 0.9707092643 
-2.297019005 6.820798397 -1.848561525 0.9707142115 
-2.893065214 6.587175369 -1.847868443 0.9707249999 
-3.18260622 6.450639725 -1.847493887 0.9707308412 
-4.898549557 6.047416687 -1.998890758 0.968370676 
-5.162373066 5.823085785 -1.998748779 0.9683728814 
-5.415942192 5.587280273 -1.998612046 0.9683750272 
-4.278281212 4.03768301 -1.510950565 0.975998044 
-4.198671818 3.623295784 -1.424438715 0.9773566127 
-4.20524025 3.31439209 -1.375241041 0.9781300426 
-4.341125488 2.834758282 -1.331666231 0.9788156152 
-4.474293232 2.645537138 -1.335053205 0.9787623286 
-4.724372387 2.516801596 -1.374875307 0.9781358242 
-5.259919167 2.508354425 -1.496738672 0.9762210846 
-7.289826393 2.710556507 -1.997596264 0.9683908224 
-7.501442909 2.051799297 -1.997479677 0.9683926702 
-7.70733881 1.035082936 -1.997364283 0.9683944583 
-7.745673656 0.691166997 -1.99734199 0.9683948159 
-7.492021084 4.882812391e-06 -1.997473717 0.969461143 
-7.484611511 -0.333278805 -1.997475982 0.9694610834 
-7.425478458 -0.9971923828 -1.997503877 0.9694606662 
-7.373854637 -1.326542974 -1.997529864 0.9694603086 
-7.307678223 -1.653276324 -1.997563481 0.9694597721 
-7.227043152 -1.976750493 -1.997604728 0.9694591761 
-7.023119926 -2.611398935 -1.997710228 0.9694575667 
-6.763691425 -3.22549057 -1.997845411 0.9694555402 
-6.613769531 -3.523312807 -1.99792397 0.9694543481 
-6.275000095 -4.097563267 -1.998101711 0.9694516659 
-5.886584282 -4.639538288 -1.998306274 0.9694485664 
-5.674680233 -4.897075176 -1.998418093 0.9694469571 
-5.451552391 -5.144970417 -1.998535872 0.9694451094 
-5.217609882 -5.382712364 -1.998659492 0.9694432616 
-4.183283806 -6.2231884 -1.999207258 0.9694349766 
-3.90260005 -6.403584003 -1.999356151 0.9694327712 
-3.614155293 -6.571350098 -1.999509335 0.9694305062 
-3.016268253 -6.867656231 -1.999826908 0.9694257379 
-2.394339561 -7.109741211 -2.000157833 0.9694207311 
-1.75325191 -7.295659065 -2.00049901 0.9694156051 
-1.098074913 -7.42390871 -2.000848293 0.9694103003 
-0.766810298 -7.466069221 -2.001024961 0.9694076777 
-0.1002099589 -7.506000996 -2.001380682 0.9694023132 
0.233808592 -7.503695965 -2.001559019 0.969399631 
0.5674231052 -7.486533165 -2.001737118 0.9693969488 
1.230793476 -7.407783031 -2.002091885 0.969391644 
1.559240699 -7.346342564 -2.002267361 0.9693890214 
1.884645939 -7.270353794 -2.002441645 0.9693863392 
2.206389189 -7.179931641 -2.002614021 0.9693837762 
2.523808479 -7.075278282 -2.002784014 0.9693812132 
2.836279154 -6.956591606 -2.002951384 0.9693786502 
3.737868547 -6.518779278 -2.003435135 0.9693713188 
4.573273659 -5.964570045 -2.003884077 0.9693647027 
5.558557034 -5.061972618 -2.004415274 0.9693566561 
6.368386269 -3.998701096 -2.004854441 0.96935004 
6.699189186 -3.417160511 -2.0050354 0.9693472981 
6.844841003 -3.115642071 -2.005115271 0.9693465233 
6.976926327 -2.808405638 -2.005187988 0.9693450332 
7.199362755 -2.177348614 -2.005310535 0.9693431854 
7.289277077 -1.854982853 -2.005360603 0.9693424106 
7.519418716 -0.2008081079 -2.005492926 0.969340384 
7.507498741 0.4683080912 -2.005490303 0.9693404436 
7.378133297 1.463337421 -2.005426884 0.9693413973 
7.305607796 1.790060997 -2.005389929 0.9693419337 
7.117249489 2.432333946 -2.005293131 0.969343245 
7.001802921 2.746237755 -2.005232334 0.9693443775 
6.729521275 3.35753417 -2.005088806 0.9693464041 
6.57323122 3.653452158 -2.005006313 0.9693475962 
6.40392065 3.941982269 -2.004916906 0.9693490863 
6.221928596 4.222748756 -2.004820585 0.9693505168 
5.821378231 4.758562088 -2.004608154 0.9693536758 
5.603611946 5.012504578 -2.004492998 0.969355464 
5.135290623 5.49002409 -2.004245281 0.9693592191 
4.885667801 5.712658405 -2.004113197 0.969361186 
4.626392841 5.923930645 -2.003975868 0.9693632126 
4.357983112 6.123432636 -2.003833532 0.9693653584 
4.037750244 6.243906021 -1.982461095 0.9696871638 
3.66041851 6.254037857 -1.932010293 0.9704470038 
2.961076498 6.28096199 -1.851346731 0.971663177 
2.389958382 6.516191483 -1.850470185 0.9716764688 
2.097670794 6.615869045 -1.850417733 0.9716772437 
1.50123167 6.775563717 -1.850265265 0.9716795683 
1.198283672 6.835302353 -1.850172997 0.9716809392 
0.5859912038 6.914403915 -1.850079656 0.9716823101 
-0.03087646328 6.938019753 -1.849787593 0.9716867805 
-0.9537487626 6.870034218 -1.849210143 0.9716954827 
-1.560263634 6.756718636 -1.848836303 0.9717010856 
-1.85900259 6.679601669 -1.84855485 0.9717053771 
-2.153940439 6.589221001 -1.848253489 0.9717099071 
-2.444497108 6.485761642 -1.847932816 0.971714735 
-1.996066809 3.341816425 -1.03780818 0.9840149879 
-4.350689411 4.179848671 -1.608534098 0.9753334522 
-4.191827297 3.364726543 -1.433099389 0.9779939055 
-4.224727631 3.092485189 -1.395887852 0.9785591364 
-4.657516956 2.534648418 -1.413727522 0.9782881141 
-6.999755859 2.67385745 -1.997750759 0.9694569111 
-7.481369495 0.3998730481 -1.997481704 0.9694610238 
-7.487279892 -0.2666503787 -1.997474909 0.9694610834 
-7.468034267 -0.5994530916 -1.997483373 0.9694609642 
-7.244321346 -1.912346125 -1.997595787 0.9694592953 
-7.152245998 -2.232763529 -1.997643232 0.96945858 
-7.046037674 -2.548781633 -1.997698307 0.9694577456 
-6.925905704 -2.859772921 -1.997760892 0.9694567919 
-6.311159611 -4.041525841 -1.998082638 0.9694519639 
-6.12542963 -4.318471432 -1.998180509 0.9694504738 
-5.927575588 -4.586921215 -1.998284698 0.9694489241 
-5.717978477 -4.846325397 -1.998395205 0.9694472551 
-5.497053146 -5.096186638 -1.998511791 0.9694455266 
-4.770759106 -5.783610821 -1.998896003 0.9694397449 
-4.509075642 -5.990517616 -1.999034524 0.9694376588 
-4.238436222 -6.185615063 -1.999177933 0.9694354534 
-3.959377289 -6.368505955 -1.99932611 0.969433248 
-3.672432661 -6.538827896 -1.999478459 0.9694309831 
-3.077221632 -6.84043932 -1.999794602 0.9694261551 
-2.770112276 -6.971115589 -1.9999578 0.9694237709 
-1.818082213 -7.279643536 -2.000464678 0.9694160819 
-0.8332067728 -7.458810806 -2.000989437 0.9694082141 
-0.1670031697 -7.504682541 -2.001344919 0.9694028497 
0.1670129299 -7.505353928 -2.001523256 0.9694001675 
0.5007629395 -7.491152287 -2.001701355 0.9693974853 
0.8335766196 -7.462128639 -2.001879454 0.969394803 
1.164802194 -7.418310165 -2.002056599 0.9693921804 
1.493771911 -7.359809399 -2.002232552 0.9693894982 
1.819846153 -7.286704063 -2.002406836 0.9693868756 
2.142370462 -7.199160099 -2.002579689 0.969384253 
3.082280159 -6.851679325 -2.003083229 0.9693767428 
3.384289503 -6.708330154 -2.003245354 0.969374299 
3.967756271 -6.381982327 -2.003558636 0.9693695307 
4.248044491 -6.199624062 -2.003709316 0.9693673253 
4.519948483 -6.004955769 -2.003855467 0.9693651199 
4.782939434 -5.798373699 -2.003997087 0.9693629146 
5.513217449 -5.111176491 -2.004390717 0.9693570137 
5.735473633 -4.861113071 -2.00451088 0.9693553448 
5.946381569 -4.601484299 -2.00462532 0.9693534374 
6.332482815 -4.055185318 -2.00483489 0.969350338 
6.506914139 -3.769628763 -2.004930019 0.9693489075 
6.668457031 -3.47661376 -2.005018473 0.9693475366 
6.951606274 -2.870263577 -2.00517416 0.9693453908 
7.072646141 -2.558403254 -2.005240679 0.9693441987 
7.272441387 -1.919767976 -2.005351067 0.9693425894 
7.350800514 -1.594401836 -2.005394936 0.9693418741 
7.463659286 -0.9347802401 -2.005458832 0.9693409204 
7.497928143 -0.6018554568 -2.005479097 0.9693406224 
7.517326355 -0.2677221596 -2.005491257 0.9693404436 
7.521809101 0.06695067883 -2.005495548 0.969340384 
7.511372089 0.4014794827 -2.005491972 0.9693404436 
7.445847034 1.067475557 -2.005460739 0.9693409204 
7.02600956 2.68392086 -2.005245209 0.9693440795 
6.899433613 2.993674278 -2.00517869 0.9693451524 
6.43881464 3.884907246 -2.004935265 0.9693487287 
6.259322166 4.167260647 -2.004840374 0.9693502188 
6.067443848 4.441347599 -2.004738569 0.9693517685 
4.936382771 5.669033051 -2.0041399 0.9693607688 
4.678995132 5.882602215 -2.004003763 0.9693627954 
4.412369251 6.084492207 -2.003862381 0.9693649411 
4.115920544 6.242250919 -1.993486166 0.9695211649 
3.734385967 6.252104282 -1.941605687 0.9703024626 
3.371319532 6.261142254 -1.895914078 0.970991075 
3.026785851 6.274987698 -1.857453227 0.9715710878 
2.156478167 6.596972466 -1.850429535 0.9716770649 
1.860825181 6.68614006 -1.850364327 0.9716780782 
0.9542406797 6.873559475 -1.85015738 0.9716811776 
0.6475170851 6.909006119 -1.85010469 0.9716819525 
-0.5857909918 6.912084579 -1.849460721 0.9716917276 
-1.500103712 6.770480633 -1.848876119 0.9717004895 
-1.289570332 3.515991211 -0.9984722137 0.98461622 
-2.676903009 6.402094364 -1.850085258 0.9716822505 
-2.954951048 6.268010139 -1.847529769 0.9717208147 
-1.812696457 3.439496994 -1.036573648 0.9840338826 
-1.954680085 3.339687347 -1.031702876 0.9841082692 
-4.010605335 6.201933384 -1.969132543 0.9698877931 
-5.359392166 5.241457462 -1.998640418 0.9694435596 
-4.186943054 3.42250967 -1.441784978 0.9778620005 
-4.398781776 2.707705021 -1.377154708 0.9788438082 
-4.579577446 2.545312405 -1.396889567 0.9785439372 
-5.034677505 2.51190424 -1.500104547 0.9769769311 
-5.728244305 2.546306133 -1.671316504 0.9743831754 
-6.975719929 2.736066818 -1.997764111 0.9694567323 
-7.090304852 2.422971249 -1.997701168 0.9694576859 
-7.27721405 1.783110261 -1.997597933 0.9694592357 
-7.349179745 1.457597613 -1.997557759 0.9694598913 
-7.406628132 1.129216313 -1.997525454 0.9694603682 
-7.449438095 0.7986083627 -1.997500777 0.9694607258 
-7.477519512 0.4664428532 -1.997483969 0.9694609642 
-7.489350319 -0.2000024319 -1.997474194 0.969461143 
-7.473068714 -0.532963872 -1.997480989 0.9694610238 
-7.442016602 -0.8648706079 -1.99749589 0.9694607854 
-7.261020184 -1.84779048 -1.997587204 0.9694594145 
-7.171799183 -2.169008732 -1.997633219 0.9694586992 
-7.068405628 -2.485956907 -1.997686744 0.9694579244 
-6.951035023 -2.798002958 -1.997747779 0.9694570303 
-6.819921494 -3.104545832 -1.997816086 0.969456017 
-6.675319672 -3.404985189 -1.997891665 0.9694548249 
-6.346811295 -3.985153675 -1.998064041 0.9694522619 
-5.968098164 -4.533937931 -1.998263359 0.9694492221 
-5.760817528 -4.795190334 -1.998372555 0.9694476128 
-5.312450886 -5.28885746 -1.998609424 0.9694440365 
-5.072248459 -5.520292759 -1.998736382 0.9694421291 
-4.015832424 -6.332919598 -1.999296069 0.9694337249 
-3.730428457 -6.505785942 -1.999447584 0.9694314003 
-2.520415068 -7.065766335 -2.000090599 0.9694217443 
-2.203792572 -7.171494007 -2.000259161 0.9694191813 
-1.882766128 -7.263046741 -2.000430107 0.9694166183 
-1.557938218 -7.340243816 -2.000603199 0.9694139957 
-1.229991436 -7.402934551 -2.00077796 0.9694113731 
-0.8995422125 -7.450976372 -2.000954151 0.9694086909 
-0.5672558546 -7.484279633 -2.001131296 0.9694060683 
0.1002160609 -7.506411076 -2.001487494 0.9694007039 
0.7671179175 -7.469118595 -2.001843929 0.9693953395 
1.09870851 -7.428261757 -2.002021074 0.9693926573 
1.428193331 -7.372673035 -2.002197266 0.9693900347 
1.7548877 -7.302495003 -2.002372026 0.9693873525 
2.397397518 -7.118837833 -2.002716064 0.9693822265 
3.021132708 -6.878730297 -2.003050566 0.9693772197 
3.32440424 -6.738070965 -2.003213167 0.9693747759 
3.910744429 -6.416943073 -2.00352788 0.9693700075 
4.466262341 -6.044885159 -2.003826618 0.9693654776 
4.986557484 -5.624726295 -2.004106522 0.9693614244 
5.232172966 -5.397712231 -2.004239082 0.9693593383 
5.467448711 -5.15997076 -2.004366159 0.9693574309 
5.691921234 -4.911948204 -2.004487276 0.9693555832 
6.473056316 -3.8272264 -2.004911423 0.9693494439 
6.637194633 -3.535793304 -2.005001545 0.9693478346 
6.925737381 -2.932180166 -2.005159855 0.9693453312 
7.049548149 -2.621225595 -2.005228043 0.9693444371 
7.49226284 -0.6685497761 -2.005475521 0.969340682 
7.51463604 -0.3346118033 -2.005489349 0.9693405032 
7.522109032 2.441406195e-06 -2.00549531 0.969340384 
7.514657974 0.3346069157 -2.005493164 0.969340384 
7.49229002 0.668561995 -2.00548315 0.9693405628 
7.455068111 1.001174331 -2.005465269 0.9693408608 
7.33636713 1.659765601 -2.005405664 0.9693416953 
7.255119324 1.984431148 -2.00536418 0.969342351 
7.159489632 2.30514884 -2.005314827 0.9693430662 
6.925851822 2.932170391 -2.005192518 0.969344914 
6.788320065 3.237226486 -2.005120039 0.9693460464 
6.637326717 3.535920382 -2.005040169 0.9693471193 
6.296227932 4.111437798 -2.004859686 0.9693499207 
6.10680151 4.387216568 -2.00475955 0.9693514109 
5.232325554 5.397914886 -2.004296541 0.9693583846 
4.986703873 5.624975681 -2.004166603 0.969360292 
4.731221676 5.840810299 -2.00403142 0.9693624377 
4.466412067 6.045068264 -2.003890991 0.9693645239 
3.809075832 6.250131607 -1.951441288 0.9701542854 
3.442614555 6.259458065 -1.904604793 0.970860064 
3.092919827 6.268862247 -1.86371398 0.9714766145 
1.621619821 6.747905254 -1.850300908 0.9716789722 
1.319768071 6.8130126 -1.850207448 0.9716804624 
1.015373468 6.864814281 -1.850162506 0.971681118 
0.7089819312 6.903059006 -1.850128889 0.9716815948 
0.4011804163 6.927277565 -1.849999905 0.9716835618 
0.09262572974 6.937719345 -1.849852085 0.9716857672 
-0.5242675543 6.917172909 -1.849499941 0.971691072 
-0.8313586116 6.886247635 -1.84929657 0.9716941714 
-1.739927888 6.712050438 -1.848669887 0.9717036486 
-1.258084655 3.526933432 -0.9983609319 0.9846178889 
-1.420631051 3.48439455 -1.003231287 0.9845434427 
-2.899096727 6.294162273 -1.847559571 0.9717203975 
-1.802408457 3.495029211 -1.048434019 0.9838526845 
-4.29339838 6.147766113 -1.999214411 0.969434917 
-5.31260252 5.289021015 -1.998665571 0.9694431424 
-4.182135105 3.481122971 -1.450741291 0.9777260423 
-4.266905308 2.951706409 -1.383285165 0.9787506461 
-4.37376833 2.746284008 -1.376920342 0.9788473845 
-4.927778244 2.51359129 -1.474860311 0.9773599505 
-6.951135159 2.798058987 -1.997777462 0.9694565535 
-7.06850338 2.48599124 -1.997713089 0.9694575071 
-7.261096001 1.847807527 -1.997606874 0.9694591165 
-7.335949421 1.522951603 -1.997565269 0.9694597125 
-7.473093033 0.5329712033 -1.997486711 0.9694609046 
-7.477502346 -0.4664428532 -1.997479081 0.9694610834 
-7.449406624 -0.7986108065 -1.997492313 0.969460845 
-7.406586647 -1.129206538 -1.997513413 0.9694604874 
-7.34913063 -1.457585454 -1.997542381 0.9694600701 
-7.277153015 -1.78309083 -1.997578979 0.9694595337 
-7.090212345 -2.422932148 -1.997675419 0.9694581032 
-6.975615025 -2.73601079 -1.997734904 0.9694572091 
