# .PCD v0.7 - Point Cloud Data file format
VERSION 0.7
FIELDS x y z intensities
SIZE 4 4 4 4
TYPE F F F F
COUNT 1 1 1 1
WIDTH 942
HEIGHT 1
VIEWPOINT 0 0 0 1 0 0 0
POINTS 942
DATA ascii
6.001511097 -21.56398392 4.244829178 0.9128990173 
7.05106163 -21.57009697 4.303571224 0.9117484689 
9.250968933 -21.58291435 4.453132629 0.9088256955 
12.90419197 -21.60419846 4.77223444 0.9026209116 
14.65160847 -18.42057991 4.463562489 0.9086223245 
16.04702377 -18.42872429 4.634085178 0.9053020477 
17.55635452 -18.43750381 4.828087807 0.9015393853 
19.24303818 -18.4874897 5.060535908 0.8970516324 
25.30457306 -18.52277756 5.947025776 0.8801407218 
77.06649017 31.82157707 15.81181335 0.7121580839 
75.76329803 43.89191818 16.60474586 0.7001376748 
67.64177704 47.68786621 15.69502163 0.7139458656 
38.22462463 32.39757156 9.502355576 0.8154617548 
31.65686607 32.0824852 8.547393799 0.8323523998 
30.85084343 45.02412415 10.35053158 0.8007471561 
30.84523392 54.92047882 11.94537354 0.7737944722 
-6.001935959 89.78365326 17.06459999 0.6932592392 
-19.98567581 98.46881866 19.05443573 0.6642681956 
-24.34799576 97.48960876 19.05586624 0.6642478108 
-32.92126465 94.95387268 19.05868149 0.6642074585 
-44.10474396 -14.63491631 8.812495232 0.8276286721 
-32.19222641 -13.96820736 6.654872417 0.8668668866 
-28.57912254 -13.94242191 6.030325413 0.8785681725 
-16.59695816 -13.32220173 4.03600502 0.9170008898 
-15.17206287 -13.33051205 3.830054283 0.9210643172 
-12.70709896 -13.34487724 3.494517088 0.9277231693 
-10.62408161 -13.35700607 3.236587524 0.9328745604 
-7.98731184 -13.3723774 2.953876495 0.9385536909 
-7.15971899 -13.296875 2.863939047 0.9403676391 
-5.737346172 -13.38548279 2.761784077 0.9424322248 
-5.016349792 -13.30936527 2.697320461 0.9437374473 
-4.37816906 -13.39340305 2.672194242 0.9442465901 
-3.09449935 -13.40087891 2.608227491 0.9455442429 
-0.07247070223 -16.29092789 3.089450598 0.9358259439 
0.6422899961 -16.0287056 3.042132139 0.9367771149 
3.058942795 -17.44894028 3.359490395 0.9304163456 
4.776125431 -21.55625534 4.187081337 0.9140315652 
6.838757038 -21.56886101 4.291010857 0.9119943976 
7.913151741 -21.57512093 4.358035564 0.9106830359 
10.17743397 -21.58830452 4.526158333 0.9074020386 
11.38124275 -21.59532166 4.629296303 0.9053951502 
13.97489929 -21.6104393 4.880466938 0.9005260468 
13.10338116 -18.41156769 4.285559654 0.9121011496 
17.24449921 -18.43569374 4.787244797 0.9023302197 
20.67700386 -18.49583435 5.261065483 0.8931980729 
19.17976761 -13.01711178 4.395857334 0.9099439979 
30.09929466 -18.52790451 6.702802658 0.8659753799 
40.54891205 -18.02474976 8.415230751 0.8347174525 
75.77060699 34.49199677 15.78794861 0.7125231624 
77.08765411 39.32158661 16.41096687 0.7030562758 
75.75803375 42.99316406 16.51909828 0.7014262676 
75.77384949 47.57851791 16.96769333 0.6947035193 
68.99202728 47.72663498 15.90917492 0.7106711268 
35.14109421 32.0017395 9.013433456 0.8240661025 
30.78110313 33.50010681 8.627569199 0.8309208751 
30.75827599 40.11575699 9.586411476 0.8139913678 
30.87044907 48.68223572 10.93183327 0.7908163071 
30.83854103 53.78162003 11.75691128 0.7769315839 
4.780296326 9.269382477 1.977842093 0.9584276676 
-1.340886235 100.4353867 19.04833031 0.664355278 
-5.807751179 100.2840042 19.04978943 0.664334476 
-10.26376152 99.93405914 19.05125046 0.6643136144 
-19.10811806 98.6413269 19.05414772 0.6642722487 
-23.47888947 97.70101166 19.05558014 0.664251864 
-34.78194427 89.85163879 18.27158928 0.6755256057 
-28.88825798 -13.77641106 6.069447994 0.8778305054 
-21.48631477 -14.03056145 4.866486549 0.900796473 
-15.44538498 -13.3289156 3.868945122 0.9202955961 
-8.985151291 -13.36655712 3.054320335 0.9365320206 
-8.149106026 -13.37143517 2.96957612 0.9382374287 
-7.356598854 -13.37604904 2.894976854 0.9397412539 
-5.878490925 -13.38466263 2.772295713 0.942219615 
-3.220236778 -13.40015125 2.613561392 0.9454359412 
-2.596486807 -13.40378857 2.589153767 0.9459314346 
-2.084062338 -14.09013653 2.701133013 0.9436601996 
-1.663854957 -16.20029831 3.088394642 0.9358471632 
-0.2159936428 -16.17840767 3.068355322 0.9362498522 
3.704245567 -17.45269012 3.383466005 0.9299376011 
3.744497061 -12.1850729 2.417370319 0.9494252205 
7.695622444 -21.57384682 4.343778133 0.9109618664 
8.798576355 -21.5802784 4.419571877 0.909480691 
12.38618374 -21.60118103 4.722120762 0.9035925865 
12.8570385 -18.41012573 4.258422852 0.9126327634 
14.12138367 -18.41748428 4.401206493 0.9098395109 
16.93771172 -18.43390656 4.747439861 0.9031016231 
18.56594849 -18.48354912 4.96821022 0.8988314271 
20.30788231 -18.49368668 5.208829403 0.894200325 
22.23119354 -18.50488663 5.485360146 0.8889074326 
24.37461662 -18.51736259 5.805033207 0.8828278184 
18.85463524 -13.04295826 4.347764015 0.9108839631 
29.11653519 -16.5236721 6.348865032 0.8725804687 
30.16210175 -15.38518047 6.421110153 0.8712282181 
37.70107651 12.88365459 7.555603027 0.8502650857 
75.76544952 33.67913818 15.72381592 0.7135048509 
77.08259583 38.45818329 16.33636475 0.7041832805 
76.12452698 42.30984879 16.51622963 0.7014693022 
42.85179138 31.95685005 10.13738441 0.8044198751 
35.77156067 31.99806976 9.101725578 0.8225055933 
32.800354 32.07847977 8.700543404 0.8296202421 
30.77729416 32.90325165 8.54406929 0.8324117064 
30.73373795 35.93584824 8.967312813 0.8248825073 
30.75395393 39.37950897 9.475483894 0.8159320951 
30.77666855 43.24463654 10.06579304 0.8056570888 
-0.4468481243 100.4417572 19.04803658 0.6643595695 
-9.374103546 100.0199203 19.05095673 0.6643176675 
-22.60837555 97.90454865 19.05529404 0.6642559767 
-24.97418594 89.73451996 17.6640892 0.6843946576 
-31.22522163 95.52188873 19.05812263 0.6642155647 
-33.86339569 89.84629822 18.2085495 0.6764413714 
-44.93104553 -14.02644539 8.926298141 0.8256092072 
-26.85191154 -13.99931622 5.74271822 0.8840096593 
-23.83077049 -13.80588341 5.222897053 0.8939302564 
-19.91431427 -14.03973103 4.620754242 0.9055612087 
-17.10837936 -13.23891544 4.102404118 0.9156947136 
-15.72433281 -13.32729912 3.90895009 0.9195055962 
-14.29785824 -13.25529289 3.697413921 0.9236908555 
-12.04789543 -13.34871578 3.410052299 0.9294069409 
-9.103354454 -13.28555679 3.054194689 0.936534524 
-8.312565804 -13.3704834 2.985673189 0.9379132986 
-7.511935711 -13.37515068 2.909136057 0.9394556284 
-3.346486807 -13.39940929 2.619123697 0.94532305 
-2.720349073 -13.40306568 2.593590736 0.945841372 
-2.09247303 -13.32640076 2.558189631 0.9465605021 
-1.884016037 -16.86538124 3.218255043 0.9332417846 
-0.3543676734 -15.9263916 3.021037817 0.9372014403 
0.3512719572 -15.78383255 2.993995905 0.9377456903 
1.053459406 -15.75885201 2.995189428 0.9377216697 
1.948483825 -17.44247055 3.328374624 0.9310380816 
2.739506721 -17.44707489 3.349211454 0.9306216836 
3.61823225 -12.15861511 2.405700207 0.9496644139 
8.574835777 -21.57896996 4.403501511 0.9097946286 
9.710422516 -21.58559608 4.488636971 0.9081332684 
12.13113976 -21.59969711 4.698005199 0.9040605426 
12.61376667 -18.40871048 4.231953144 0.9131515026 
15.19739437 -18.42377472 4.529183388 0.9073431492 
18.1967411 -18.44123459 4.913123131 0.8998950124 
23.92602158 -18.51475143 5.73721838 0.884114027 
26.28124237 -18.52846146 6.098081112 0.8772910833 
28.89447021 -18.50352097 6.506831646 0.8696263433 
28.25515747 -16.36903763 6.192566395 0.8755133152 
25.08722878 -13.07914543 5.36530447 0.8912015557 
37.46996307 12.43332481 7.486807823 0.8515217304 
83.4618988 31.88223076 16.9432621 0.6950678229 
43.73594666 32.0146637 10.27874947 0.8019821048 
39.83449554 31.97441292 9.686806679 0.8122387528 
36.41423798 31.99432755 9.192456245 0.8209050298 
30.72994804 35.29057312 8.874195099 0.8265330791 
30.77190399 42.43292999 9.940258026 0.8078314066 
30.86037445 46.80322647 10.63157177 0.795930624 
30.82577515 51.6090126 11.40009785 0.7829061151 
4.938381195 9.17145443 1.975392103 0.9584780931 
-4.021447659 100.3684158 19.04920387 0.6643428206 
-24.11431313 89.72950745 17.6201458 0.6850405335 
-30.37366867 95.794487 19.05784416 0.6642196178 
-27.23618317 -13.89273453 5.798218727 0.8829569221 
-24.32765388 -13.80611801 5.304664135 0.8923623562 
-17.52919197 -13.31677723 4.174717426 0.9142741561 
-16.0090065 -13.32563972 3.950087786 0.9186939001 
-14.55410385 -13.25379372 3.733007193 0.9229853749 
-13.40030003 -13.34083462 3.585891008 0.9259050488 
-11.21620846 -13.35355949 3.307155132 0.9314623475 
-10.24293232 -13.35922337 3.192426682 0.9337593913 
-8.477817535 -13.36951637 3.002179384 0.9375809431 
-7.668820858 -13.37424278 2.923670292 0.9391624928 
-6.858137131 -13.29863739 2.837568283 0.940900147 
-2.102910042 -17.41887093 3.327308893 0.9310593605 
-1.168681622 -15.41888618 2.932432175 0.9389858842 
-0.4892700016 -15.70260239 2.979296446 0.938041687 
0.2121874988 -15.88776302 3.013233185 0.9373584986 
0.9226440191 -15.93155766 3.026332855 0.9370949268 
1.791418433 -17.44155693 3.325025558 0.9311050177 
3.380529642 -17.45080948 3.370905161 0.9301884174 
5.180969238 -21.5592041 4.204901695 0.9136819243 
3.519028187 -12.2219677 2.411946297 0.9495370984 
9.479728699 -21.58424759 4.470632076 0.9084843397 
10.65257072 -21.59107399 4.565780163 0.9066305161 
11.87865925 -21.59822273 4.674501419 0.9045168757 
13.16744328 -21.60573196 4.798280716 0.9021164775 
12.37348366 -18.4073143 4.206145763 0.9136576056 
13.60559273 -18.41449165 4.341921329 0.9109981656 
16.33921051 -18.43042946 4.670901299 0.904586792 
19.54843903 -18.44910622 5.097459793 0.896340847 
21.43807793 -18.50025749 5.370049953 0.8911106586 
28.39317131 -18.54075623 6.430835247 0.8710463047 
29.22042656 -17.27728081 6.43755579 0.8709205985 
42.61907196 -18.0435791 8.776802063 0.8282629848 
75.78108215 36.1385231 15.92164803 0.7104809284 
77.19256592 41.12252808 16.58647728 0.700411737 
30.72624016 34.65879822 8.783729553 0.8281399608 
30.74559784 37.9564209 9.263280869 0.819657743 
30.9439106 41.88097382 9.875059128 0.8089629412 
-6.79117918 89.59860992 17.04029274 0.6936217546 
-20.86128616 98.28857422 19.05472183 0.6642640829 
-43.80003738 -14.96767521 8.777869225 0.8282440901 
-31.2671299 -13.89867687 6.488942146 0.8699603677 
-22.78095436 -14.02302742 5.073081493 0.8968100548 
-12.48384285 -13.34617615 3.465634584 0.9282985926 
-10.36985588 -13.27817822 3.195001125 0.9337077737 
-7.008298397 -13.2977581 2.850587368 0.9406372309 
-4.911179066 -13.39029789 2.704756975 0.9435868263 
-4.246769905 -13.39416504 2.664695024 0.9443986416 
-3.60061264 -13.39793396 2.630944967 0.9450831413 
-2.335973978 -13.3249855 2.565494061 0.9464120865 
-2.095944881 -16.15214348 3.088782072 0.935839355 
1.634504318 -17.44064331 3.321945667 0.9311665893 
2.421909094 -17.4452343 3.340053082 0.9308046699 
3.219382286 -17.44986725 3.365050554 0.9303053021 
6.001408577 -21.5639782 4.244824886 0.9128991365 
8.132121086 -21.57639122 4.3727355 0.9103957415 
9.250968933 -21.58291435 4.453132629 0.9088256955 
11.62880135 -21.59676743 4.651609421 0.9049615264 
12.90431404 -21.60419846 4.772248268 0.9026206732 
13.35290718 -18.41301727 4.313396454 0.9115563035 
14.65160847 -18.42057991 4.463562489 0.9086223245 
17.55635452 -18.43750381 4.828087807 0.9015393853 
25.30434227 -18.52278328 5.946990013 0.8801413774 
30.08429909 -16.37196732 6.495314121 0.8698414564 
37.28984451 -18.19217682 7.868341446 0.8445754051 
36.75374985 13.29501534 7.412007809 0.8528903723 
77.06561279 31.82158661 15.81166267 0.7121604085 
77.09275818 40.19289017 16.48756027 0.7019011378 
75.76329803 43.89191818 16.60474586 0.7001376748 
67.64177704 47.68786621 15.69502163 0.7139458656 
41.30846405 31.96583176 9.905350685 0.8084369898 
31.65715599 32.0824852 8.547434807 0.8323516846 
30.78498459 34.10882568 8.713417053 0.8293909431 
30.74155617 37.26791382 9.161710739 0.821447134 
-2.234889984 100.4209976 19.04862022 0.6643511057 
-6.001901627 89.78896332 17.06560326 0.6932442784 
-11.15306854 99.84026337 19.05153847 0.664309442 
-24.3475647 97.48971558 19.05586624 0.6642478108 
-28.6627121 96.31716919 19.05728149 0.6642276645 
-44.10474396 -14.63491631 8.812495232 0.8276286721 
-28.57912254 -13.94257736 6.030339718 0.878567934 
-21.07789803 -14.03295898 4.802071571 0.902042985 
-18.18708038 -13.31294441 4.274300575 0.9123216271 
-13.88325691 -13.33802223 3.650999069 0.9246117473 
-12.70709896 -13.34487724 3.494517088 0.9277231693 
-11.62578869 -13.35117626 3.357299805 0.930460155 
-10.62408161 -13.35700607 3.236587524 0.9328745604 
-8.81409359 -13.36756325 3.036499262 0.9368903637 
-7.987233639 -13.3723774 2.953868866 0.9385538697 
-7.15971899 -13.296875 2.863939047 0.9403676391 
-6.415876389 -13.30121517 2.80056119 0.9416480064 
-5.016281605 -13.30937004 2.69731617 0.9437375069 
-3.094560385 -13.40088367 2.608229637 0.9455441236 
-2.47303462 -13.40450668 2.584938049 0.9460170865 
-1.519758224 -16.2163372 3.08875227 0.9358400106 
-0.792478025 -16.17622566 3.071346998 0.9361897111 
-0.07247070223 -16.29092789 3.089450598 0.9358259439 
3.058942795 -17.44894028 3.359490395 0.9304163456 
5.794878006 -21.56277275 4.234272957 0.9131060243 
6.838859558 -21.56886101 4.291016102 0.9119942784 
10.17743397 -21.58830452 4.526158333 0.9074020386 
11.38136005 -21.59532738 4.629302979 0.9053949714 
13.10325909 -18.41156769 4.285546303 0.912101388 
14.38468933 -18.41902733 4.431994438 0.9092382789 
15.75936222 -18.42705536 4.59820509 0.9059996605 
17.24449921 -18.43569374 4.787244797 0.9023302197 
18.90128708 -18.48549843 5.013739586 0.8979533315 
22.59166145 -18.46682167 5.533504486 0.8879891634 
19.17993355 -13.01710129 4.395882607 0.909943521 
30.09929466 -18.52790451 6.702802658 0.8659753799 
30.15949821 -15.04722118 6.391800404 0.8717765808 
45.97255707 -18.03172302 9.364902496 0.8178714514 
37.09820557 13.04756832 7.45776844 0.8520528674 
79.02020264 31.80796242 16.15392303 0.7069467306 
77.08765411 39.32115555 16.41093063 0.7030568123 
75.77459717 47.57852554 16.96780968 0.6947017312 
42.07157135 31.96139145 10.01968288 0.8064550757 
38.55475235 32.09234619 9.513054848 0.8152742386 
32.22552109 32.0824852 8.623480797 0.8309938908 
31.09205818 44.52100372 10.29809284 0.8016492128 
30.87044907 48.6826973 10.9319067 0.7908150554 
4.780278683 9.269441605 1.977851272 0.9584274888 
-10.26419163 99.9339447 19.05125046 0.6643137932 
-19.10853195 98.64125061 19.05414772 0.6642722487 
-23.47888947 97.70101166 19.05558014 0.664251864 
-27.80421638 96.56697083 19.05699921 0.6642315984 
-32.07427597 95.24163055 19.05840111 0.66421175 
-45.25038147 -14.56930637 8.56566906 0.8243054152 
-32.60935593 -13.80569839 6.380628586 0.8659512997 
-29.32554436 -13.98490238 5.854137897 0.8762965798 
-25.89307594 -13.79387188 5.286303997 0.8875929117 
-23.70730972 -14.0176363 4.962575436 0.8940980434 
-15.44539738 -13.32892036 3.676055193 0.9204246998 
-14.13128185 -13.33658218 3.50116086 0.9240630269 
-11.76434326 -13.27005386 3.195411921 0.9304580688 
-8.985126495 -13.36656666 2.902040005 0.9366357923 
-8.143938065 -13.36299324 2.819738388 0.9383762479 
-6.601589203 -13.3804493 2.688436747 0.9411595464 
-5.182780743 -13.38872051 2.586897612 0.9433176517 
-3.857148409 -13.39644527 2.511910439 0.944914639 
-2.596494198 -13.4037838 2.460067987 0.9460202456 
-1.730588317 -16.85001373 3.052103519 0.9334706664 
-0.2192675769 -16.42421913 2.95967412 0.9354189038 
1.321726084 -17.4388237 3.151237726 0.9313855767 
3.704289436 -17.45269966 3.214779615 0.9300516248 
3.744479895 -12.18509769 2.296834469 0.949508369 
8.885695457 -24.9102726 4.765483856 0.8980817795 
8.798532486 -21.58027267 4.19922924 0.9096265435 
9.942975998 -21.58694839 4.282431602 0.907920897 
11.13611031 -21.59389687 4.37784481 0.9059690237 
13.70262432 -21.60884666 4.610445499 0.9012280107 
14.72411823 -21.08367157 4.633687019 0.9007557631 
14.12136936 -18.41749382 4.181774139 0.9099847078 
16.93773079 -18.43390656 4.510751724 0.9032570124 
22.23124695 -18.50488663 5.211882591 0.8890841007 
24.37467957 -18.51736832 5.515618801 0.8830134869 
26.78846931 -18.53141022 5.869289398 0.8759971857 
20.72569466 -13.01364517 4.409623146 0.9053199291 
29.19033813 -16.56562424 6.04762888 0.8724802732 
30.02087021 -15.31321716 6.072417259 0.8719927073 
45.18198013 -18.18717194 8.775964737 0.8204045892 
37.79140472 12.91447735 7.196102619 0.8501682281 
75.70314026 33.65135193 14.92757511 0.7141097784 
77.20823669 38.52077484 15.54718208 0.7041986585 
75.84208679 46.68525696 16.04720688 0.6963008642 
42.85176086 31.95684433 9.6319561 0.804715693 
39.12107849 31.97856712 9.104450226 0.8143482804 
35.83773422 32.0573082 8.663943291 0.8224801421 
32.80028915 32.07847977 8.266748428 0.8298822045 
30.77715302 32.9031868 8.118065834 0.8326701522 
30.86516571 47.72940445 10.24171638 0.7937234044 
30.8949852 52.78588104 11.02060509 0.7798998952 
-0.4704711735 105.7121658 19.0480175 0.6507287621 
-14.54001713 104.7342148 19.05262375 0.6506614089 
-33.86326981 89.84629059 17.30071449 0.6768882871 
-45.07275391 -14.07068348 8.508008003 0.8253782988 
-24.19140816 -14.01480961 5.037600517 0.8925862312 
-21.86625671 -14.00265598 4.678611755 0.8998433352 
-19.61738396 -13.83042908 4.324918747 0.9070512652 
-17.1083622 -13.23891544 3.897866011 0.9158309698 
-15.63018036 -13.24752426 3.691824913 0.9200972915 
-13.08644772 -13.26234818 3.357189894 0.9270688295 
-12.04795647 -13.34871578 3.240046263 0.9295217395 
-10.05633545 -13.36032677 3.013081789 0.9342926741 
-8.262829781 -13.29045391 2.819839716 0.9383741617 
-6.749875546 -13.37958431 2.700225115 0.9409093261 
-5.319951057 -13.38791943 2.595789433 0.9431285262 
-3.986364603 -13.39568329 2.51832056 0.9447780252 
-3.346486807 -13.39941883 2.488541842 0.9454128146 
-2.720329523 -13.40306568 2.464281321 0.9459303617 
-1.036660075 -15.5078907 2.800537348 0.9387827516 
0.3496752977 -15.71387672 2.832116842 0.9381142259 
1.0505054 -15.71494579 2.83792758 0.9379913211 
1.948454499 -17.44247055 3.162432909 0.9311504364 
3.542072773 -17.45175171 3.208670616 0.9301797748 
3.618229866 -12.15860367 2.285759926 0.9497472644 
8.574835777 -21.57897377 4.183958054 0.9099398851 
9.710446358 -21.58559608 4.264851093 0.9082810283 
13.43350792 -21.60728073 4.584420681 0.9017572403 
14.72180367 -21.48516083 4.69294405 0.8995525241 
15.19732666 -18.42377853 4.30336237 0.9074923396 
16.6360321 -18.43214798 4.473917961 0.9040078521 
21.83035278 -18.50255394 5.156300545 0.8901994824 
23.92619324 -18.51475525 5.45120573 0.8842974901 
20.32932854 -13.01844406 4.349768639 0.9065430164 
28.12185669 -16.2918396 5.856073856 0.8762583733 
25.08711624 -13.07923317 5.09779644 0.8913751245 
44.15522385 -18.23217773 8.607711792 0.8235241771 
75.83713531 45.7565918 15.95935726 0.6976819038 
73.04296875 48.62968826 15.81134987 0.70001477 
39.83431244 31.97441101 9.203837395 0.8125245571 
36.48096085 32.05282211 8.750141144 0.8208826184 
33.38534546 32.07439804 8.341939926 0.8284760118 
30.94391441 32.49691391 8.085453033 0.8332829475 
30.79284286 35.36304474 8.44904995 0.8264766932 
4.938387394 9.171463013 1.876906395 0.9585466981 
0.3988842666 89.64671326 16.15321159 0.694637537 
-13.60717964 104.857872 19.05231667 0.6506656408 
-18.25959206 104.1570511 19.05384254 0.6506434083 
-44.484375 -13.45368576 8.374008179 0.8278768063 
-44.50899124 -15.65383244 8.501431465 0.8255007267 
-27.23627663 -13.89284611 5.509162426 0.8831420541 
-22.33739471 -14.02561474 4.752524853 0.8983443975 
-19.98971176 -13.82826138 4.379696369 0.9059311152 
-17.52907944 -13.31677246 3.966561794 0.9144129753 
-13.40033627 -13.34083462 3.407115936 0.926025331 
-12.26410866 -13.34745598 3.266100883 0.9289755821 
-11.21621037 -13.35355949 3.14226985 0.9315740466 
-8.427128792 -13.28949642 2.835434198 0.9380440712 
-7.668798447 -13.37423325 2.77790451 0.9392621517 
-6.164230824 -13.38300228 2.654929399 0.9418712258 
-3.473268986 -13.39867115 2.49404788 0.9452954531 
-1.160065889 -15.30596161 2.765823841 0.9395180941 
0.2111694217 -15.81688404 2.850231647 0.9377310276 
0.9200415015 -15.88668442 2.867352724 0.937368989 
2.580456495 -17.44615746 3.177745819 0.9308288097 
5.982248306 -24.89335442 4.61313343 0.9011734724 
9.479787827 -21.58425331 4.247748852 0.9086315036 
10.65251732 -21.5910778 4.338143826 0.9067807198 
13.16740417 -21.60572624 4.559053421 0.9022735357 
14.5289135 -21.61366653 4.692584038 0.8995597959 
17.87373734 -18.43935966 4.627234936 0.9008868337 
30.08086205 -16.02482414 6.141278744 0.870639205 
37.8629837 -18.0562439 7.558433056 0.8432481289 
43.04959869 -18.22573662 8.42346096 0.8269538879 
26.72423744 8.604419708 5.058767796 0.8921601772 
85.28063965 31.70981789 16.39424515 0.6908714771 
75.90315247 32.1347847 14.85187244 0.7153304219 
75.71750641 36.10842514 15.11516094 0.7110945582 
77.19228363 41.12223053 15.75945282 0.7008342743 
75.83223724 44.83800125 15.87372017 0.6990308762 
73.03747559 47.69334412 15.71766281 0.7014958858 
66.3038559 47.63367081 14.71044636 0.7176159024 
40.56325912 31.97016716 9.306159019 0.8106514215 
37.74985123 32.57698441 8.984591484 0.8165528774 
33.98127747 32.07024765 8.419178963 0.827033639 
31.22647476 32.21458817 8.084044456 0.8333094716 
30.94379044 41.88088226 9.382692337 0.8092530966 
30.79153824 45.80646515 9.945135117 0.799051106 
30.85194206 56.0958786 11.53553963 0.770893693 
-6.790929794 89.59859467 16.19071198 0.6940506101 
-12.67317104 104.973175 19.05201149 0.6506700516 
-26.53865814 102.3767548 19.0565567 0.6506034732 
-31.06888771 101.1028519 19.05804443 0.6505814195 
-43.75312424 -14.9517622 8.331306458 0.8286746144 
-35.14286423 -13.78392506 6.801904202 0.8577614427 
-28.0451622 -13.99235821 5.647368431 0.8803932071 
-25.13693047 -13.97105408 5.181885242 0.8896859288 
-22.78095818 -14.02303219 4.820147991 0.8969749808 
-20.37165642 -13.82602978 4.436244488 0.9047763348 
-11.41940403 -13.35237789 3.16578126 0.9310801625 
-10.36980438 -13.27817822 3.035705566 0.9338160753 
-7.050463676 -13.37783623 2.724774837 0.9403885007 
-6.308810711 -13.38215828 2.665793896 0.941640377 
-4.246835709 -13.39417458 2.531846046 0.9444897771 
-2.969326019 -13.40161133 2.473340034 0.9457370639 
-2.335973978 -13.3249855 2.4375875 0.9465001225 
-2.095993519 -16.15196228 2.93475461 0.9359448552 
-1.368847609 -16.15159607 2.920720816 0.9362412095 
2.421877384 -17.44522858 3.173528433 0.9309174418 
3.219428539 -17.44987297 3.197282076 0.9304187894 
5.74806881 -24.89199257 4.603212357 0.9013750553 
8.141515732 -24.90594101 4.721385002 0.8989756703 
9.389884949 -24.91321182 4.797267437 0.8974381685 
10.41396236 -21.58969116 4.319068909 0.9071708918 
12.90418625 -21.60419464 4.534309387 0.9027771354 
14.25021172 -21.61204147 4.664512157 0.9001296759 
14.72858143 -20.31019974 4.520599365 0.9030563831 
14.6516037 -18.42057991 4.24102354 0.9087694287 
16.04709244 -18.42872429 4.403056145 0.90545398 
17.55642319 -18.43750381 4.587384701 0.9016970992 
19.20107079 -18.44708443 4.797737122 0.8974286914 
25.24917221 -18.48229027 5.63816452 0.8805761337 
28.97402573 -17.48160553 6.097366333 0.8715019822 
47.26263428 -18.05397987 9.116236687 0.8141317964 
76.91375732 31.75852394 14.99372482 0.7130452394 
75.712677 35.28257751 15.05092525 0.7121257186 
77.37088776 40.33748627 15.7220335 0.7014266253 
76.32564545 44.21765518 15.89397144 0.6987113953 
74.40896606 47.64974976 15.92091274 0.6982871294 
67.55421448 47.62639236 14.89325619 0.7146630287 
38.22447586 32.39756393 9.028576851 0.8157431483 
34.58831787 32.06601334 8.498542786 0.8255544901 
30.80549431 37.34558105 8.723061562 0.8213841915 
30.78639412 44.92986298 9.813911438 0.8014196754 
30.88451767 49.67669678 10.53991413 0.7884023786 
-44.50845718 -14.76888657 8.449776649 0.8264631629 
-32.1922226 -13.96820736 6.323083878 0.8670760989 
-28.57922554 -13.94254875 5.729697227 0.8787597418 
-25.3525219 -13.79701614 5.200813293 0.8893061876 
-23.20892334 -14.0032177 4.884144783 0.8956812024 
-16.59702682 -13.32220173 3.834794283 0.9171349406 
-15.17212582 -13.33051205 3.639110088 0.9211921096 
-12.70716286 -13.34487724 3.320300817 0.9278405905 
-9.690219879 -13.36245537 2.974185944 0.9351127744 
-8.761332512 -13.28754807 2.867839098 0.9373586178 
-6.415942192 -13.30121517 2.660939217 0.9417435527 
-5.016313553 -13.30937004 2.56283617 0.9438297749 
-3.706244946 -13.31700134 2.490727901 0.9453662038 
-3.094528675 -13.40088367 2.478191853 0.9456335902 
-2.08965826 -15.05221176 2.738204479 0.9401036501 
-1.514685035 -16.16184616 2.924895048 0.9361530542 
1.478015065 -17.4397316 3.153653383 0.9313348532 
3.058942795 -17.44894028 3.191998243 0.9305297136 
5.514909744 -24.89063454 4.593706608 0.9015684724 
9.136920929 -24.91173744 4.781135082 0.8977648616 
10.17748737 -21.58831024 4.3005023 0.9075508714 
12.64381599 -21.60268021 4.510193348 0.9032683372 
14.72637939 -20.69214821 4.576262951 0.9019232392 
15.75943565 -18.42704964 4.368959427 0.9061505795 
17.24449921 -18.43569374 4.548566818 0.9024868608 
22.59146118 -18.46682167 5.257582188 0.8881679773 
27.30914688 -18.53444862 5.946994305 0.874463141 
30.09918213 -18.52783585 6.368597984 0.8661863804 
32.72467804 -16.32706451 6.589672565 0.8618776798 
37.64472198 13.23967361 7.190324783 0.8502789736 
75.84710693 47.62425613 16.13729286 0.6948871613 
68.83670044 47.61891556 15.08193302 0.7116277218 
30.78096199 33.49995422 8.197393417 0.8311815858 
30.80119133 36.67064285 8.629086494 0.8231270313 
30.75811958 40.11553192 9.10841465 0.8142752647 
30.78138351 44.07613373 9.686893463 0.8037192225 
30.90205574 53.89263153 11.1937933 0.7768589258 
-1.411262155 105.7055664 19.04832458 0.6507240534 
-14.84210205 100.3456802 18.27758217 0.6621364355 
-20.1111145 103.8189392 19.05445099 0.6506343484 
-29.26368904 101.6365585 19.05745125 0.6505903006 
-33.75843811 100.2420502 19.05892754 0.6505684257 
-34.78172684 89.85163879 17.36060715 0.6759735346 
-24.76893806 21.37483788 5.895087719 0.875487566 
-27.02515411 21.30000877 6.20019865 0.8694828749 
-45.25033951 -14.56931114 8.565665245 0.8243055344 
-32.60936356 -13.80569839 6.380626678 0.8659512401 
-29.32560158 -13.98490238 5.854148388 0.876296401 
-25.89309502 -13.79387188 5.286307335 0.8875928521 
-23.70724297 -14.01764107 4.962565899 0.8940982223 
-21.4863224 -14.03057098 4.62386179 0.9009554386 
-12.93424511 -13.34354973 3.348477125 0.9272510409 
-10.81866646 -13.3558836 3.097011089 0.9325255752 
-9.872065544 -13.36139584 2.993384838 0.93470788 
-8.98511219 -13.36656666 2.902039051 0.9366358519 
-8.143930435 -13.36300278 2.81973815 0.9383761883 
-6.601589203 -13.3804493 2.688436747 0.9411595464 
-2.5964818 -13.4037838 2.460065603 0.9460203052 
-0.9100976586 -15.71505356 2.836371183 0.9380242229 
-0.2192724496 -16.42420769 2.959673643 0.9354189634 
0.5152099729 -16.53498459 2.980816603 0.9349729419 
2.105915546 -17.44338799 3.165872097 0.9310782552 
3.704291821 -17.45269966 3.214780092 0.9300516248 
3.744479895 -12.18509769 2.296834469 0.949508369 
8.885695457 -24.91027832 4.765486717 0.8980817199 
8.798518181 -21.5802784 4.19922781 0.9096265435 
11.13613987 -21.59389114 4.377847195 0.9059689641 
13.70263386 -21.60884285 4.610446453 0.9012280107 
14.12137413 -18.41749001 4.181774139 0.9099847078 
15.47625732 -18.42539978 4.335745335 0.9068297744 
16.93771744 -18.43390656 4.510749817 0.903257072 
18.52538872 -18.44314957 4.710197449 0.8992025852 
20.30797005 -18.49369621 4.949144363 0.8943689466 
22.23129654 -18.50488663 5.211890221 0.8890839219 
24.37472916 -18.51736259 5.515625477 0.8830133677 
26.78850746 -18.53141022 5.86929512 0.8759970665 
39.98134613 -18.20028687 7.915382385 0.8364857435 
45.18201065 -18.18710327 8.775964737 0.8204045892 
37.45350647 14.6902914 7.249134541 0.8491517901 
75.84208679 46.68534088 16.04721451 0.696300745 
42.85177994 31.95684433 9.631958008 0.804715693 
39.12111282 31.97856331 9.104450226 0.8143482208 
35.83778381 32.0573082 8.66395092 0.8224800229 
32.80022812 32.07847977 8.266739845 0.8298823237 
30.77715302 32.90323257 8.118071556 0.832670033 
30.8949852 52.78582001 11.02059555 0.779900074 
4.843979359 9.191152573 1.872048616 0.9586519599 
-0.4703246951 105.7121658 19.0480175 0.6507287621 
-5.172692776 105.5951157 19.04955482 0.6507062316 
-14.54023647 104.7341995 19.05262375 0.6506613493 
-19.18634033 103.9921875 19.05414581 0.6506385803 
-23.79517365 103.0438614 19.05565834 0.6506166458 
-33.86342621 89.84629059 17.30072403 0.6768881679 
-45.07277298 -14.07070732 8.508012772 0.8253781796 
-33.80585098 -13.95881844 6.59017849 0.8618677855 
-26.85192108 -13.99932098 5.456407547 0.8841937184 
-24.19143105 -14.01480961 5.037604332 0.8925861716 
-19.61743546 -13.83043385 4.324927807 0.9070510864 
-15.6302166 -13.24752903 3.691830397 0.9200972319 
-14.3840723 -13.33510685 3.534246206 0.9233736992 
-13.08639908 -13.26234818 3.357183695 0.9270689487 
-12.04789734 -13.34871578 3.240039587 0.9295218587 
-11.01593971 -13.35472107 3.11934495 0.9320558906 
-9.103349686 -13.28555679 2.901922941 0.936638236 
-3.986374378 -13.39568329 2.518321276 0.9447780252 
-2.720346689 -13.40306568 2.464281559 0.9459303617 
-1.881389141 -16.84192276 3.053549767 0.9334402084 
-1.036682129 -15.50784588 2.800531149 0.9387829304 
-0.351550281 -15.79977512 2.847598314 0.9377866983 
3.542089701 -17.45175171 3.208670616 0.9301797748 
6.217448711 -24.8947258 4.623455524 0.9009636045 
3.61823225 -12.15860844 2.285759926 0.9497472644 
8.574835777 -21.57897377 4.183958054 0.9099398851 
9.710432053 -21.58559608 4.264849186 0.9082810879 
10.89319515 -21.59247589 4.357732296 0.9063801765 
13.43347359 -21.60728073 4.584416866 0.9017572999 
19.90259552 -18.45117188 4.890171528 0.8955594301 
23.92624283 -18.51475525 5.451211452 0.8842973709 
20.32935333 -13.01843739 4.34977293 0.9065428972 
25.08711624 -13.07923317 5.09779644 0.8913751245 
39.06062698 -18.20250511 7.764859676 0.8393306732 
44.15522385 -18.23217773 8.607711792 0.8235241771 
38.08767319 12.6382885 7.230811596 0.8495028615 
83.52846527 31.90721703 16.11135674 0.6952940226 
75.69842529 32.8455658 14.86841965 0.7150634527 
77.37957764 42.11019897 15.8736105 0.6990326047 
75.83713531 45.7564621 15.95934582 0.6976821423 
39.83414078 31.97441101 9.203810692 0.812525034 
30.79284668 35.36310577 8.449057579 0.8264765143 
31.2340126 39.26860046 9.040921211 0.8155159354 
30.77173996 42.4330864 9.44466877 0.8081225753 
30.79682541 46.70681 10.08070469 0.7966113687 
30.888134 51.71291733 10.8535614 0.7828441262 
4.938387394 9.171463013 1.876906395 0.9585466981 
-18.25959206 104.1570511 19.05384254 0.6506434083 
-24.11430931 89.72949982 16.74165535 0.6854783893 
-34.66527176 -13.95380306 6.733237267 0.8590911031 
-27.23627663 -13.89292431 5.509168625 0.8831419349 
-19.98967171 -13.82826614 4.379692078 0.9059312344 
-15.91319275 -13.24587822 3.730683565 0.9192911983 
-14.64160824 -13.33360291 3.568231106 0.9226660728 
-13.40029526 -13.34083462 3.407111168 0.9260254502 
-12.26410866 -13.34745598 3.266100883 0.9289755821 
-11.21621037 -13.35355949 3.14226985 0.9315740466 
-10.24302197 -13.3592329 3.033275604 0.9338672757 
-8.427150726 -13.28949642 2.83543539 0.9380440116 
-5.458102703 -13.38711357 2.604951382 0.942933619 
-4.776672363 -13.39107895 2.561793804 0.9438520074 
-4.116222858 -13.39493179 2.524963617 0.9446364641 
-3.47323966 -13.39867687 2.494046688 0.9452954531 
-2.844582558 -13.40234375 2.468705654 0.945835948 
-2.102917433 -17.41887093 3.161420822 0.9311717153 
-1.160058618 -15.3059864 2.765828609 0.9395179749 
0.2111694217 -15.81688404 2.850231647 0.9377310276 
3.380451679 -17.45080948 3.202838659 0.9303021431 
8.352702141 -21.5776844 4.16912365 0.9102443457 
10.65257549 -21.5910778 4.338149548 0.9067806602 
11.87878609 -21.59822273 4.441455364 0.9046700001 
14.5289526 -21.61366653 4.692588329 0.8995597363 
14.73073959 -19.9373188 4.466616154 0.9041567445 
16.33921051 -18.43042946 4.438027382 0.9047399759 
17.87373734 -18.43935966 4.627234936 0.9008868337 
23.48796654 -18.51220703 5.388689995 0.885545373 
28.28221893 -16.72271919 5.92023325 0.8749911785 
30.08084679 -16.02486801 6.14127779 0.870639205 
48.60533142 -18.07278824 9.343816757 0.8099630475 
26.72421837 8.604478836 5.058768749 0.8921601772 
75.9030838 32.13496017 14.85187435 0.7153303623 
75.83223724 44.83810806 15.87372971 0.699030757 
73.03747559 47.69347382 15.7176733 0.701495707 
37.74985123 32.57698441 8.984591484 0.8165528774 
33.98127747 32.07024765 8.419178963 0.827033639 
30.78880119 34.72935867 8.362792015 0.8280863166 
30.79153824 45.80631638 9.945111275 0.7990515232 
30.88148117 50.67170715 10.69230175 0.7856969237 
1.196779728 89.64206696 16.15366745 0.6946306229 
-3.292443752 105.6670303 19.04894257 0.6507152319 
-6.790822506 89.59859467 16.19068718 0.6940506101 
-14.92104721 89.80595398 16.4035759 0.6907257438 
-21.95635986 103.4478455 19.05505371 0.6506255269 
-26.53885841 102.3767166 19.0565567 0.6506034732 
-31.06906509 101.1028137 19.05804443 0.6505814195 
-43.7528801 -14.95178223 8.331263542 0.8286753297 
-35.14283752 -13.78400803 6.801904202 0.8577614427 
-30.96454811 -13.76433563 6.105774879 0.8713367581 
-28.0451622 -13.99235821 5.647368431 0.8803932071 
-25.13693047 -13.97105408 5.181885242 0.8896859288 
-20.37165642 -13.82602978 4.436244488 0.9047763348 
-16.29987526 -13.32393551 3.793386221 0.9179919958 
-14.90428925 -13.33207989 3.6031847 0.9219388962 
-13.63961124 -13.33944321 3.437629223 0.925388217 
-12.48384285 -13.34617615 3.292850256 0.9284152389 
-11.41945744 -13.35237789 3.165787935 0.9310800433 
-10.36975765 -13.27817822 3.035700083 0.9338161945 
-5.597177505 -13.38629818 2.614381552 0.942733109 
-2.335973978 -13.3249855 2.4375875 0.9465001225 
-2.095993519 -16.15196228 2.93475461 0.9359448552 
-0.6470288038 -16.14706039 2.911804676 0.9364295006 
0.7508910894 -15.32863712 2.765313387 0.9395289421 
2.421909094 -17.44522858 3.173529625 0.9309174418 
3.219465256 -17.44987297 3.197283268 0.9304187298 
5.74812746 -24.89199638 4.603214741 0.9013749957 
6.929655552 -24.89888191 4.656935215 0.9002834558 
8.141515732 -24.90594101 4.721385002 0.8989756703 
9.250968933 -21.58292007 4.231114864 0.9089724422 
14.25021172 -21.61204147 4.664512157 0.9001296759 
14.6516037 -18.42057991 4.24102354 0.9087694287 
17.55634499 -18.43750954 4.587376118 0.901697278 
19.20098877 -18.44708443 4.797727585 0.8974289298 
28.97408867 -17.48155785 6.097370625 0.8715019226 
29.89207649 -16.26736259 6.132044315 0.8708205223 
37.69614029 13.6359129 7.223038673 0.8496518135 
76.91375732 31.75852394 14.99372482 0.7130452394 
77.37088776 40.33748627 15.7220335 0.7014266253 
74.40896606 47.64974976 15.92091274 0.6982871294 
41.30882645 31.96582413 9.411559105 0.8087264299 
38.22451401 32.39746475 9.028562546 0.8157432675 
34.58846283 32.06601334 8.498562813 0.8255541325 
31.65686989 32.08248138 8.12125206 0.8326104283 
30.78484344 34.10866547 8.278958321 0.8296537399 
31.31177711 41.59931564 9.381661415 0.8092719316 
30.78639603 44.93004608 9.813938141 0.8014191389 
30.88451767 49.67669678 10.53991413 0.7884023786 
30.84503555 54.92013931 11.34975529 0.7741309404 
-2.352165461 105.6904755 19.04863548 0.6507196426 
-6.002189636 89.78717804 16.21435547 0.6936784387 
-21.03478241 103.6374817 19.05475235 0.650629878 
-25.62612534 102.6073303 19.05625916 0.6506077051 
-44.50845718 -14.76888657 8.449776649 0.8264631629 
-32.1922226 -13.96820736 6.323083878 0.8670760989 
-25.35268593 -13.79701614 5.200838566 0.8893056512 
-21.07790184 -14.03295422 4.562657833 0.9022000432 
-13.88313675 -13.338027 3.468958616 0.9247344732 
-12.70710468 -13.34487724 3.320293427 0.9278407097 
-8.761332512 -13.28754807 2.867839098 0.9373586178 
-7.202829361 -13.37694836 2.737539053 0.9401177168 
-6.415942192 -13.30121517 2.660939217 0.9417435527 
-3.706276655 -13.31699657 2.490729094 0.9453662038 
-3.094496965 -13.40088367 2.47819066 0.9456336498 
-2.089655638 -15.05246544 2.738250017 0.9401026368 
-1.514655709 -16.16184998 2.924895287 0.9361530542 
2.263703585 -17.44430542 3.169569731 0.9310005903 
3.058942795 -17.44894028 3.191998243 0.9305297136 
5.514909744 -24.89063454 4.593706608 0.9015684724 
10.17742443 -21.58831024 4.300496101 0.9075509906 
11.38124752 -21.59532166 4.398492813 0.905547142 
13.97489452 -21.6104393 4.63714838 0.9006854296 
14.72637939 -20.69205093 4.576248646 0.9019235373 
18.86016273 -18.44510269 4.753379822 0.8983270526 
20.67700958 -18.49583435 4.998767376 0.893368423 
22.59146118 -18.46682167 5.257582188 0.8881679773 
24.83398056 -18.52004433 5.582034111 0.8816916943 
27.30914688 -18.53444862 5.946994305 0.874463141 
30.09918213 -18.52783585 6.368597984 0.8661863804 
32.72467804 -16.32706451 6.589672565 0.8618776798 
40.54877472 -18.02470207 7.995643616 0.8349727392 
37.64471436 13.23958492 7.190318584 0.8502791524 
79.02015686 31.8079586 15.34853935 0.7073611021 
75.84710693 47.62446976 16.13731194 0.6948868036 
68.83638763 47.61891937 15.08187962 0.711628437 
38.55469894 32.09227371 9.038759232 0.8155558109 
30.78096199 33.49995422 8.197393417 0.8311815858 
30.80119133 36.67064285 8.629086494 0.8231270313 
30.78138351 44.07613373 9.686893463 0.8037192225 
30.87026978 48.68197632 10.38674259 0.7911308408 
-10.80243874 105.178688 19.05139923 0.6506791115 
-20.1111145 103.8189392 19.05445099 0.6506343484 
-33.758255 100.2421036 19.05892754 0.6505684853 
-34.78195953 89.85163879 17.36073494 0.6759732366 
-45.25020218 -14.56937981 8.565646172 0.824305892 
-32.60936356 -13.80578613 6.380634785 0.8659511209 
-29.32544518 -13.98490238 5.854122162 0.8762969375 
-25.89303589 -13.79391098 5.286299706 0.8875929713 
-21.4863224 -14.03057098 4.62386179 0.9009554386 
-18.46260643 -13.26385212 4.096196651 0.9117430449 
-16.90075111 -13.32043934 3.877425432 0.9162533879 
-12.93424511 -13.34354973 3.348477125 0.9272510409 
-10.81866646 -13.3558836 3.097011089 0.9325255752 
-9.872109413 -13.36139107 2.993391275 0.9347077608 
-8.143959999 -13.36298275 2.81973815 0.9383762479 
-4.510197639 -13.39263153 2.546327353 0.9441813231 
-3.857131243 -13.39644051 2.511909723 0.9449146986 
-3.220234394 -13.40015125 2.483257294 0.945525527 
-0.9100976586 -15.71505356 2.836371183 0.9380242229 
0.5152099729 -16.53498459 2.980816603 0.9349729419 
2.105876446 -17.44338417 3.16587162 0.9310782552 
8.885759354 -24.9102726 4.765490532 0.8980816603 
8.798576355 -21.58027267 4.199231625 0.9096264839 
12.38618374 -21.60118103 4.486692429 0.9037473202 
14.72411823 -21.08364677 4.633684635 0.9007558227 
14.12137413 -18.41749001 4.181774139 0.9099847078 
15.47625732 -18.42539978 4.335745335 0.9068297744 
16.93771744 -18.43390656 4.510749817 0.903257072 
20.30787849 -18.49369621 4.949130535 0.894369185 
24.37462616 -18.51736259 5.515610695 0.8830136657 
29.19046593 -16.56562996 6.047649384 0.872479856 
30.02087593 -15.31315899 6.072412014 0.8719927669 
39.98138428 -18.20019913 7.915383339 0.8364858031 
37.79135895 12.9145174 7.196098328 0.8501682878 
37.45350647 14.6902914 7.249134541 0.8491517901 
75.70314026 33.65147018 14.92758274 0.7141096592 
77.20823669 38.52084732 15.54718685 0.7041985393 
75.84208679 46.68534088 16.04721451 0.696300745 
42.85177994 31.95684433 9.631958008 0.804715693 
32.80036163 32.07847595 8.266757965 0.8298820257 
30.79697227 36.0098114 8.537765503 0.8248244524 
30.77650261 43.24441147 9.563900948 0.8059520721 
30.89498901 52.78608704 11.02063656 0.7798992991 
-5.172692776 105.5951157 19.04955482 0.6507062316 
-14.54023647 104.7341995 19.05262375 0.6506613493 
-24.97419167 89.73451233 16.78338051 0.684833169 
-24.32354736 21.37098122 5.834106922 0.8766926527 
-45.07277298 -14.07070732 8.508012772 0.8253781796 
-26.85192108 -13.99932098 5.456407547 0.8841937184 
-24.19143105 -14.01480961 5.037604332 0.8925861716 
-19.61743546 -13.83043385 4.324927807 0.9070510864 
-17.1083889 -13.23891544 3.897871017 0.9158309102 
-15.6302166 -13.24752903 3.691830397 0.9200972319 
-14.383955 -13.33510208 3.534230232 0.9233739972 
-11.01593971 -13.35472107 3.11934495 0.9320558906 
-9.103349686 -13.28555679 2.901922941 0.936638236 
-6.749865532 -13.37958431 2.700224876 0.9409093261 
-5.319951057 -13.38791943 2.595789433 0.9431285262 
-4.643061638 -13.39186001 2.553939104 0.944019258 
-3.986374378 -13.39568329 2.518321276 0.9447780252 
-3.346491575 -13.39940929 2.48854208 0.9454128742 
-2.720346689 -13.40306568 2.464281559 0.9459303617 
-1.881389141 -16.84192276 3.053549767 0.9334402084 
-0.351550281 -15.79977512 2.847598314 0.9377866983 
1.948486328 -17.44247055 3.162433386 0.9311504364 
2.739506721 -17.44708443 3.182232618 0.930734694 
6.217448711 -24.8947258 4.623455524 0.9009636045 
8.574835777 -21.57897377 4.183958054 0.9099398851 
12.13114452 -21.59969139 4.463779926 0.9042146206 
13.43347359 -21.60728073 4.584416866 0.9017572999 
15.19739437 -18.42377472 4.303371429 0.9074922204 
18.19673538 -18.44123459 4.668169022 0.9000554085 
19.90241814 -18.45117188 4.89014864 0.895559907 
23.92602158 -18.51475525 5.451179504 0.884297967 
25.08715439 -13.07910824 5.097790241 0.8913752437 
39.06062698 -18.20250511 7.764859676 0.8393306732 
44.15578842 -18.23218155 8.607805252 0.8235224485 
49.91160202 -18.05467796 9.563670158 0.8059561849 
83.52806091 31.90749931 16.11129761 0.6952947974 
77.37957764 42.11019897 15.8736105 0.6990326047 
39.83448792 31.9744091 9.203861237 0.8125241399 
36.48083878 32.05282593 8.750119209 0.8208829165 
30.77173805 42.43270493 9.444612503 0.8081235886 
30.79682541 46.70681 10.08070469 0.7966113687 
0.3988012671 89.64671326 16.15321541 0.694637537 
-8.928527832 105.3509216 19.05078506 0.6506880522 
-13.60760975 104.857811 19.05231667 0.6506656408 
-30.53855705 -13.9018259 6.045935154 0.8725136518 
-27.23627663 -13.89276791 5.509156227 0.8831422329 
-24.32774162 -13.80616665 5.040209293 0.8925337195 
-19.98967171 -13.82826614 4.379692078 0.9059312344 
-13.40029526 -13.34083462 3.407111168 0.9260254502 
-11.21621037 -13.35355949 3.14226985 0.9315740466 
-10.24293232 -13.3592329 3.033263206 0.9338674545 
-7.668825626 -13.37423325 2.777906656 0.9392620921 
-6.899433613 -13.37871552 2.712333679 0.9406524301 
-6.164243221 -13.38300228 2.654930115 0.9418712258 
-4.776735783 -13.39108372 2.56179738 0.9438519478 
-4.116222858 -13.39493179 2.524963617 0.9446364641 
-2.214082003 -13.32569313 2.434017181 0.9465763569 
-1.160114765 -15.30588341 2.765811682 0.9395183921 
-0.4854247868 -15.57947731 2.808561563 0.9386128187 
0.9200415015 -15.88668442 2.867352724 0.937368989 
1.791418433 -17.44155693 3.15925169 0.9312172532 
2.580456495 -17.44615746 3.177745819 0.9308288097 
8.352805138 -21.57768059 4.169129372 0.9102442265 
13.16743851 -21.60573196 4.559054852 0.9022734165 
14.5288105 -21.61366081 4.692574501 0.8995600343 
14.92238045 -18.42217827 4.271790504 0.9081389904 
16.33921051 -18.43042946 4.438027382 0.9047399759 
17.87388802 -18.43935966 4.627254009 0.900886476 
19.54843521 -18.44910622 4.843318939 0.8965065479 
25.78689575 -18.5255909 5.721180439 0.8789286613 
20.01762962 -13.07152843 4.307799816 0.9074015617 
37.8629837 -18.05613708 7.558426857 0.8432483077 
43.04933548 -18.22573662 8.423418045 0.8269547224 
48.60533142 -18.07278824 9.343816757 0.8099630475 
26.72421837 8.604478836 5.058768749 0.8921601772 
85.28118896 31.70981407 16.39434624 0.690869987 
75.9030838 32.13496017 14.85187435 0.7153303623 
75.71750641 36.10822678 15.11514378 0.7110947967 
77.19228363 41.12230682 15.75944328 0.7008341551 
75.83222198 44.8376503 15.8736887 0.6990314722 
37.74953461 32.57698441 8.9845438 0.8165536523 
33.98127747 32.07024765 8.419178963 0.827033639 
30.78880119 34.72935867 8.362792015 0.8280863166 
30.9438076 41.8808403 9.382689476 0.8092532158 
30.79154015 45.80674744 9.945178986 0.7990503311 
-3.292443752 105.6670303 19.04894257 0.6507152319 
-43.75338745 -14.95175266 8.331357956 0.82867378 
-35.14283752 -13.78400803 6.801904202 0.8577614427 
-30.96489525 -13.76433563 6.105831623 0.8713356256 
-25.13687134 -13.97115707 5.181884766 0.8896859288 
-22.78095818 -14.02303219 4.820147991 0.8969749808 
-17.85425758 -13.31488228 4.013172626 0.9134520888 
-16.299757 -13.32394028 3.79336834 0.9179922938 
-13.63949966 -13.33944798 3.437613964 0.925388515 
-11.4193573 -13.35237789 3.165775776 0.9310802817 
-7.780358791 -13.2932663 2.775356293 0.9393160939 
-7.050500393 -13.37783623 2.72477746 0.9403884411 
-6.308774471 -13.38215256 2.665791512 0.9416404963 
-5.59724617 -13.38629818 2.61438632 0.9427330494 
-4.91118145 -13.39030266 2.569905043 0.9436793327 
-2.335973978 -13.3249855 2.4375875 0.9465001225 
0.07083495706 -15.92141056 2.868839264 0.9373375177 
3.219387054 -17.44986725 3.197280884 0.930418849 
5.74812746 -24.89199638 4.603214741 0.9013749957 
9.389762878 -24.91321182 4.797259331 0.8974383473 
9.250968933 -21.58292007 4.231114864 0.9089724422 
10.41407967 -21.58969116 4.31908083 0.9071707129 
11.62881088 -21.59677124 4.419692993 0.9051141143 
12.90431404 -21.60419846 4.534321785 0.902776897 
14.7285862 -20.31001472 4.520573616 0.9030569196 
14.6516037 -18.42057991 4.24102354 0.9087694287 
17.55634499 -18.43750954 4.587376118 0.901697278 
27.84395599 -18.53756332 6.027280331 0.8728808761 
47.26263428 -18.05375481 9.116219521 0.8141320348 
37.69614029 13.6359129 7.223038673 0.8496518135 
76.91285706 31.75853539 14.99356937 0.7130476832 
77.37088013 40.3379097 15.72207928 0.7014260888 
67.55451202 47.62638474 14.89330006 0.7146623135 
41.30847168 31.96583176 9.411507607 0.8087273836 
34.58814621 32.06601334 8.498520851 0.8255549073 
30.84503365 54.91957474 11.34966755 0.7741324902 
-2.352165461 105.6904755 19.04863548 0.6507196426 
-6.002160549 89.79221344 16.2152729 0.6936642528 
-44.50845718 -14.76888657 8.449776649 0.8264631629 
-32.1922226 -13.96820736 6.323083878 0.8670760989 
-28.57922554 -13.94262695 5.72970438 0.8787596226 
-25.35268593 -13.79701614 5.200838566 0.8893056512 
-23.20892334 -14.00328541 4.884151936 0.8956810832 
-21.07790184 -14.03295422 4.562657833 0.9022000432 
-18.18708992 -13.31294441 4.061203003 0.912463069 
-16.59709167 -13.3222065 3.834802866 0.9171347022 
-13.88325405 -13.33802223 3.468973875 0.9247341752 
-10.62407207 -13.3570118 3.075220346 0.9329840541 
-8.761332512 -13.28754807 2.867839098 0.9373586178 
-6.41587162 -13.30121517 2.660933733 0.9417436719 
-5.016276836 -13.30937004 2.56283474 0.9438298345 
-3.094558001 -13.40088367 2.478193045 0.9456335902 
-1.514655709 -16.16184998 2.924895287 0.9361530542 
-0.7866430283 -16.05728531 2.896763563 0.9367472529 
-0.07129638642 -16.02739143 2.887936354 0.9369338155 
0.6323852539 -15.78310013 2.846171618 0.9378169179 
3.058942795 -17.44894028 3.191998243 0.9305297136 
5.515021801 -24.89063454 4.593711376 0.9015683532 
6.691061974 -24.89749527 4.645353794 0.9005187154 
7.896486759 -24.9045105 4.707606792 0.8992550373 
9.02397728 -21.58158684 4.214951515 0.9093040228 
10.17742443 -21.58831024 4.300496101 0.9075509906 
11.38136482 -21.59532738 4.398502827 0.9055469632 
12.6437521 -21.60268593 4.51018858 0.9032683969 
13.97489452 -21.6104393 4.63714838 0.9006854296 
14.72637939 -20.69224167 4.576276779 0.9019230008 
14.38468456 -18.41902733 4.211030006 0.9093844295 
15.75937176 -18.42704582 4.368953228 0.9061507583 
17.24449921 -18.43569374 4.548566818 0.9024868608 
24.83398056 -18.52004433 5.582034111 0.8816916943 
27.30939674 -18.53444862 5.947032928 0.8744624257 
30.09918213 -18.52783585 6.368597984 0.8661863804 
29.41047096 -16.34609795 6.062841892 0.8721808791 
32.72467804 -16.32706451 6.589672565 0.8618776798 
40.54877472 -18.02450562 7.995628357 0.8349729776 
37.64473724 13.23977852 7.19033432 0.8502787948 
75.70788574 34.46385574 14.98842716 0.7131304145 
77.21330261 39.3852272 15.61815357 0.7030721903 
77.23931122 43.83382797 16.00240135 0.6970047951 
75.84710693 47.62405014 16.13726997 0.6948874593 
68.83638763 47.61891937 15.08187962 0.711628437 
38.55469894 32.09227371 9.038759232 0.8155558109 
30.7809639 33.50024796 8.197429657 0.8311808705 
30.80119133 36.67064285 8.629086494 0.8231270313 
30.87026978 48.68244553 10.38681602 0.7911295891 
-1.411725998 105.7055435 19.04832458 0.650724113 
-6.112546444 105.5465775 19.04986191 0.6507017016 
-14.84210205 100.3456802 18.27758217 0.6621364355 
-20.11154938 103.8188477 19.05445099 0.650634408 
-24.09615517 100.2695847 18.58153343 0.6576122046 
