# .PCD v0.7 - Point Cloud Data file format
VERSION 0.7
FIELDS x y z intensities
SIZE 4 4 4 4
TYPE F F F F
COUNT 1 1 1 1
WIDTH 941
HEIGHT 1
VIEWPOINT 0 0 0 1 0 0 0
POINTS 941
DATA ascii
-33.38640213 105.2977219 10.63644505 0.6415302157 
-25.54795074 54.19219971 5.768903732 0.7860319018 
-12.58593941 0.7850805521 1.214244485 0.9505876303 
-12.57935047 0.2239111215 1.211446047 0.9506986737 
-12.56900883 -0.3356640637 1.210690737 0.9507286549 
-32.82643127 -13.21362495 3.407292366 0.8674486279 
-29.08087349 -13.23809814 3.076647997 0.879501462 
-19.22955704 -13.30242443 2.251458168 0.9103176594 
-17.41998291 -13.23392296 2.106492758 0.9158416986 
-14.55274391 -13.25266361 1.895244241 0.9239515662 
-13.31983376 -13.26072502 1.809785008 0.9272527695 
-10.18320751 -13.28121281 1.611476302 0.9349586368 
-9.279296875 -13.28711605 1.560514688 0.9369493127 
-8.429172516 -13.29267788 1.515583873 0.9387078285 
-5.427592754 -13.31227779 1.384271383 0.9438662529 
-4.093505859 -13.32099819 1.341861963 0.9455382824 
-1.218212843 -16.07327271 1.552118897 0.9372776747 
-0.543310523 -17.43675041 1.679780722 0.9322972298 
0.2328539938 -17.44182396 1.679605246 0.9323040843 
1.792412043 -17.45200348 1.689275265 0.9319279194 
6.358095646 -42.98647308 4.184159279 0.8397756815 
2.355737209 -12.16096687 1.192737818 0.951441288 
10.33645439 -43.0124588 4.259542942 0.8371378779 
14.49429131 -43.03963852 4.372936249 0.8331854939 
16.66606331 -43.0538063 4.445371628 0.8306705952 
23.7043705 -43.09977341 4.736290932 0.8206462264 
26.27701569 -43.11658096 4.86190176 0.8163555861 
29.02247047 -43.17466736 5.009210587 0.8113521934 
31.88385201 -43.15319061 5.166314602 0.806049943 
25.15067863 -28.36963654 3.650599957 0.8586848974 
25.21818352 -21.76254082 3.207394361 0.8747153282 
25.23049355 -19.88557816 3.093279362 0.87889117 
27.25937462 -19.58358574 3.23191452 0.8738209009 
30.0177784 -19.60162354 3.452054262 0.8658297062 
28.54234314 -16.87652016 3.192792177 0.8752486706 
78.62378693 14.14417171 7.69214344 0.72540766 
35.0616684 13.03702354 3.601887703 0.8604325056 
36.06342697 15.26811028 3.770900726 0.8543846607 
49.72578812 32.47092819 5.718476295 0.7876878381 
31.01345825 31.99482918 4.290542126 0.8360554576 
29.49291992 43.87447357 5.090401649 0.8086075783 
29.58518028 48.54469299 5.47398901 0.7957661748 
29.62084389 53.85767365 5.918483257 0.7811404467 
-13.24842262 109.7390671 10.64339733 0.6413444877 
-32.4491806 105.5937347 10.63676834 0.6415217519 
-12.58762932 0.8977270126 1.215130687 0.9505525231 
-12.58042431 0.3359692395 1.211790562 0.9506850243 
-12.57111263 -0.2237768471 1.210652947 0.950730145 
-12.56209946 -0.7835937142 1.211945653 0.950678885 
-38.5570755 -13.17618847 3.92342329 0.8489635587 
-33.67451477 -13.20808315 3.482985735 0.8647127151 
-26.40744019 -13.17524624 2.841650248 0.8881694078 
-26.3905735 -16.24495316 2.983968496 0.8829099536 
-19.59662819 -13.30002213 2.280483246 0.9092155695 
-17.84965515 -13.31143761 2.1440382 0.9144077897 
-16.19952774 -13.2419014 2.014657497 0.9193584919 
-14.81362724 -13.2509594 1.913783073 0.9232370257 
-10.37116909 -13.27998257 1.622461915 0.9345301986 
-9.455449104 -13.28596878 1.570196629 0.9365707636 
-5.565849304 -13.31137943 1.389271021 0.9436692595 
-4.223364353 -13.32015324 1.345510721 0.9453943372 
-3.580844641 -13.3243475 1.32851243 0.9460652471 
-3.053925753 -17.4203434 1.702969193 0.9313955307 
-2.104797363 -16.21976852 1.574878931 0.9363877177 
-1.344404221 -15.86327362 1.532933474 0.9380283356 
1.635541916 -17.45098305 1.687701821 0.9319891334 
5.967416763 -42.98391342 4.178575516 0.8399713635 
2.24622798 -12.17483139 1.192089081 0.9514669776 
16.22602463 -43.05093765 4.429988384 0.8312038779 
20.78027725 -43.08068085 4.605556965 0.8251358271 
23.20534706 -43.09652328 4.71304369 0.8214426637 
28.46540451 -43.17102432 4.97919035 0.812369287 
31.32036591 -43.18966675 5.137098789 0.8070332408 
32.64863586 -37.49433899 4.787183285 0.8189052343 
25.12230873 -24.13589096 3.354496956 0.8693619967 
25.22810555 -20.25015831 3.114953041 0.8780965209 
26.74924278 -19.58025551 3.19196105 0.8752791286 
29.4365139 -19.59782028 3.405122042 0.8675270677 
27.16484261 -16.38995743 3.054895639 0.8803002238 
32.45199203 -15.83181858 3.476793766 0.8649362326 
41.60189819 -15.8916235 4.288117409 0.8361400366 
58.86635971 -16.66570473 5.89095974 0.782038033 
71.99741364 -16.96354675 7.122391224 0.7428628802 
35.38367462 12.79942799 3.623118877 0.8596704602 
75.95006561 44.00006866 8.451749802 0.7027717233 
49.86330795 31.93125916 5.701381207 0.7882500887 
29.49682808 32.68158722 4.239060402 0.8378534317 
29.43967628 35.68996811 4.454830647 0.8303427696 
29.57939339 47.57744217 5.394376755 0.79841429 
-12.2719574 109.8561325 10.64373493 0.6413353086 
-15.93471622 101.4834442 9.891468048 0.6617894173 
-25.28652382 101.2476425 10.04849243 0.657466948 
-35.02822495 101.0309143 10.29627037 0.6507030129 
-92.55134583 38.21543503 9.641492844 0.6687295437 
-107.3416595 18.32607079 10.48538017 0.6455879807 
-12.56359577 -0.6715331674 1.211464047 0.9506979585 
-99.84009552 -18.87989426 9.783874512 0.6647675037 
-95.03351593 -22.39110565 9.401251793 0.6754682064 
-46.15207291 -13.06614971 4.618596077 0.8246869445 
-30.48834801 -13.228899 3.200135946 0.8749806285 
-26.37819481 -14.35509968 2.891682625 0.8863168955 
-15.07955551 -13.24922562 1.932831168 0.9225032926 
-12.63125706 -13.26521683 1.763731837 0.9290366173 
-11.55695248 -13.27223873 1.694564581 0.9317222238 
-10.56182384 -13.27874279 1.633730888 0.9340907931 
-9.633908272 -13.28479671 1.58013165 0.9361825585 
-7.161911488 -13.3009491 1.454595804 0.9411001205 
-5.018452168 -13.31495285 1.370126128 0.9444236755 
-4.353945255 -13.31929874 1.349284768 0.9452453852 
-3.708090782 -13.32352257 1.331668258 0.9459406137 
-3.413517952 -14.7823801 1.460839033 0.9408550262 
-3.213742495 -17.41930389 1.705593944 0.9312934875 
-2.259829044 -16.27822495 1.582444906 0.9360921383 
1.478881836 -17.44995308 1.686260819 0.9320451617 
7.53720665 -42.99417877 4.2029953 0.8391155005 
9.528886795 -43.00718689 4.241549969 0.8377666473 
18.0056057 -43.06255722 4.494319439 0.8289753795 
25.2317524 -43.10975647 4.809721947 0.8181351423 
27.8891201 -43.12709808 4.945305824 0.8135187626 
30.73505211 -43.18584824 5.103916645 0.8081516623 
32.60251999 -41.74623871 5.100291729 0.8082738519 
25.18432999 -26.92395782 3.549853325 0.8623028994 
25.19928169 -24.64470482 3.393915415 0.8679328561 
25.22567749 -20.62009048 3.137189865 0.8772819638 
28.87052727 -19.59412384 3.359695911 0.8691733479 
31.72251892 -15.82705784 3.413599253 0.8672203422 
35.6628418 -15.85280514 3.757922888 0.8548474908 
40.4978714 -15.88440609 4.188723087 0.8396154046 
56.66101456 -16.58725739 5.684808731 0.788795352 
68.26481628 -16.72653961 6.767594337 0.7539442182 
66.66215515 13.83908939 6.555693626 0.7606411576 
35.5664444 12.50866795 3.630287409 0.8594132662 
35.66472244 14.35610485 3.701897383 0.8568486571 
75.91569519 38.72373581 8.205899239 0.7100193501 
75.94419098 43.09882736 8.408093452 0.7040533423 
42.02058411 31.92294312 5.081292629 0.8089151382 
35.10416031 31.96811485 4.57171154 0.8263022304 
29.6746254 32.29590607 4.22313261 0.8384106159 
29.43548012 35.04467392 4.406814575 0.8320083022 
29.45742607 38.41916275 4.66159296 0.8232085109 
29.52133751 42.27187729 4.964643002 0.8128623962 
29.5737648 46.63739014 5.317429066 0.8009823561 
-6.39218235 110.3755722 10.64576626 0.6412810683 
-11.29397964 109.9645386 10.64407158 0.641326189 
-16.17183495 109.3358459 10.64238739 0.6413716078 
-21.01616096 108.4911957 10.64071465 0.6414163709 
-12.60339355 1.124624014 1.21839273 0.9504231215 
-12.58293629 0.5602856278 1.212801933 0.9506449699 
-12.5757885 -7.324218586e-06 1.210911393 0.950719893 
-12.56525135 -0.5595068336 1.211096048 0.9507125616 
-56.5388031 -12.79115963 5.581650257 0.792198658 
-93.20062256 -25.49222755 9.303840637 0.6782197952 
-40.87615585 -13.16102791 4.134906292 0.8415035009 
-27.77729988 -13.2466135 2.963215828 0.88367486 
-26.37619781 -14.05130577 2.877648354 0.8868362904 
-26.39706993 -17.23728752 3.035672426 0.8810068965 
-18.41194534 -13.22745323 2.182949305 0.9129239917 
-15.35098553 -13.24745369 1.952429652 0.9217490554 
-11.76509953 -13.27087593 1.707694173 0.9312118292 
-4.48521471 -13.31844425 1.35318923 0.9450914264 
-3.835893393 -13.3226881 1.334941268 0.9458113313 
-3.409614086 -14.18818569 1.405061483 0.9430476427 
-3.374140501 -17.41825485 1.70836401 0.931185782 
-2.419843674 -16.36029434 1.592456222 0.9357011914 
0.5435205102 -17.44384956 1.680467606 0.9322706461 
1.322473168 -17.44893837 1.684958339 0.9320958257 
2.107162952 -17.45406532 1.692837 0.9317893982 
7.142914772 -42.99161148 4.196368217 0.8393478394 
9.127485275 -43.00455856 4.233108521 0.8380618095 
11.1513567 -43.01778412 4.279053211 0.8364564776 
13.22356892 -43.03131866 4.334677219 0.8345171213 
15.35464764 -43.04524231 4.400584698 0.8322246671 
17.55595589 -43.05962753 4.477534294 0.8295562863 
22.2218647 -43.09009552 4.668343544 0.8229765296 
30.12875938 -43.14172745 5.066806316 0.809404254 
25.18117142 -27.40553474 3.583651066 0.8610874414 
25.1964016 -25.08454323 3.423469067 0.8668631911 
25.22322273 -20.99537849 3.160006762 0.8764471412 
28.31967163 -19.59052467 3.315743446 0.8707690835 
27.16640472 -17.05766296 3.088724375 0.8790581822 
28.68453979 -14.63150597 3.100571156 0.8786237836 
34.63354492 -15.76576424 3.664101362 0.8582013249 
39.31175613 -15.82416248 4.080447197 0.8434181809 
47.26190948 -16.62194633 4.824044228 0.8176462054 
54.83879089 -16.58517838 5.516582489 0.7943528891 
65.57968903 -16.68876648 6.515863419 0.7619065046 
112.2825928 -23.30993271 11.04209328 0.6307610273 
25.41517448 8.685176849 2.586153507 0.8976906538 
35.40467072 13.88668346 3.661935329 0.8582788706 
75.81240845 42.13632584 8.351642609 0.7057138681 
71.75656891 48.70038986 8.350389481 0.705750823 
42.79947662 31.91785812 5.140913963 0.8069046736 
39.07661057 31.94216728 4.859772205 0.8164282441 
32.70354843 31.98378754 4.404610634 0.8320847154 
29.9984417 32.07058334 4.22842598 0.8382256627 
29.45283699 37.7134819 4.607580662 0.8250661492 
29.59777832 50.56970596 5.642011166 0.7902054191 
31.02938461 58.87664032 6.408290863 0.7653342485 
-0.3988183439 89.64286804 8.631705284 0.6975134611 
-5.409633636 110.4316711 10.64610577 0.6412718296 
-24.86137581 107.6610641 10.63938808 0.6414516568 
-25.35251427 91.09391022 9.104712486 0.6838794351 
-9.129648209 21.29986572 2.231403112 0.911079824 
-12.57835197 0.1119116172 1.211206198 0.9507082105 
-101.7980804 -17.37958145 9.94389534 0.6603438258 
-36.24491119 -13.11096859 3.711308002 0.8565123677 
-31.93172836 -13.18495846 3.326474428 0.8703793287 
-28.4168644 -13.24243832 3.01874876 0.8816292286 
-18.87182617 -13.30475807 2.223342896 0.9113863111 
-13.08630371 -13.26224804 1.79402566 0.9278628826 
-11.976408 -13.26950455 1.721161366 0.9306886196 
-9.997665405 -13.28242397 1.600763321 0.9353768229 
-9.105199814 -13.28825378 1.551068187 0.9373188019 
-8.264858246 -13.29374218 1.507258058 0.9390340447 
-6.711684227 -13.30389404 1.434803009 0.9418777823 
-5.290251255 -13.31317616 1.379414201 0.9440576434 
-4.61730957 -13.31758022 1.35722363 0.9449323416 
-3.964399338 -13.32184792 1.338342071 0.9456772208 
-3.406000853 -13.63767815 1.35349381 0.9450793862 
-3.427329063 -16.88633919 1.659123302 0.9331014752 
-1.799047828 -16.10474777 1.560354471 0.9369555116 
-1.063012719 -15.90277576 1.534679651 0.9379600286 
-0.3880029321 -17.43776512 1.67948103 0.9323089719 
0.3881835938 -17.44283485 1.679968715 0.932289958 
1.949658155 -17.45303917 1.690986753 0.9318612814 
6.750029087 -42.98903275 4.190087795 0.8395677805 
8.727856636 -43.00194168 4.225039959 0.8383440971 
12.80468273 -43.02858353 4.322741508 0.8349326253 
14.92311954 -43.04243088 4.386546135 0.8327124715 
17.1093998 -43.05670929 4.461219311 0.830121398 
19.37598991 -43.07150269 4.547636509 0.8271328807 
24.20812988 -43.10307693 4.760129452 0.81983006 
26.8081398 -43.12003708 4.888992786 0.815433085 
29.58606339 -43.1783371 5.039980412 0.810311079 
32.40119934 -43.04669952 5.18787241 0.8053249717 
25.09821701 -27.80783463 3.606914043 0.8602518439 
27.78273392 -19.58700943 3.273162127 0.8723179102 
30.61534119 -19.60552406 3.500574827 0.8640781641 
28.90199089 -15.06796074 3.138439894 0.8772361875 
38.43715286 -15.87093925 4.004165173 0.8461075425 
53.27014923 -16.62948418 5.373454094 0.7991119623 
62.89484787 -16.60298538 6.263539791 0.7699721456 
35.29825592 13.48384094 3.63837266 0.8591231704 
74.55619049 32.34994888 7.825599194 0.7213782072 
74.54347229 44.97635651 8.383002281 0.704790771 
65.09341431 47.6483078 7.767552853 0.7231279612 
39.78852844 31.93751907 4.912757874 0.8146249056 
36.90552902 32.42599106 4.730381966 0.8208483458 
33.28729248 31.97998047 4.444719791 0.8306931853 
29.44835091 37.02361679 4.555143356 0.8268737197 
30.11474037 41.52669907 4.939319134 0.8137221336 
29.49853134 44.73781204 5.159903049 0.8062657118 
29.59115219 49.54199982 5.556509495 0.7930303216 
3.482654333 9.24029541 0.9508365989 0.9610950947 
-14.22476006 109.6134415 10.64305973 0.6413530707 
-16.00107956 91.27390289 8.922696114 0.6890938878 
-23.90327072 107.8813248 10.63971806 0.6414428949 
-33.3868103 105.2975845 10.63644505 0.6415302157 
-59.93240738 92.67795563 10.62722301 0.6417773366 
-89.30126953 21.88093376 8.853094101 0.6910988092 
-98.35046387 -20.41759872 9.671987534 0.6678791046 
-93.90769196 -23.89809799 9.330487251 0.6774659157 
-46.14917755 -13.95713139 4.642438412 0.8238669038 
-37.30242157 -13.11939144 3.807485819 0.8530812263 
-32.82643127 -13.21362495 3.407292366 0.8674486279 
-29.08056641 -13.23810291 3.07662034 0.8795024753 
-26.37228012 -13.45206261 2.850637197 0.8878365159 
-26.38223267 -14.97208691 2.920883656 0.8852373958 
-26.39271355 -16.57188225 3.000760317 0.8822912574 
-19.22955704 -13.30242443 2.251458168 0.9103176594 
-17.42014122 -13.23392773 2.106504917 0.9158412218 
-14.55286598 -13.25266361 1.895252466 0.9239512086 
-9.279296875 -13.28711605 1.560514688 0.9369493127 
-8.429091454 -13.29267311 1.515579939 0.9387080073 
-7.625070572 -13.29792213 1.476010561 0.9402595162 
-6.860346317 -13.30292702 1.441226006 0.9416254163 
-6.129558086 -13.30769253 1.41077745 0.9428226948 
-5.42752409 -13.31227779 1.384268641 0.9438663125 
-4.75020504 -13.31671143 1.361390829 0.9447680116 
-4.093505859 -13.32099819 1.341861963 0.9455382824 
-3.454247952 -13.32517815 1.325478315 0.9461850524 
-3.422324181 -16.12442589 1.587189436 0.9359067678 
-2.894594669 -17.42138863 1.700485349 0.9314920306 
-1.908857346 -15.81147671 1.533524036 0.938005209 
-1.218286157 -16.07335091 1.552127481 0.9372773767 
-0.543310523 -17.43675041 1.679780722 0.9322972298 
1.010395527 -17.44690132 1.682757378 0.9321814179 
1.792485356 -17.4520092 1.68927598 0.9319278598 
6.358095646 -42.98647308 4.184159279 0.8397756815 
2.35579586 -12.16098595 1.19274056 0.9514411688 
10.33645439 -43.0124588 4.259542942 0.8371378779 
14.49429131 -43.03963852 4.372936249 0.8331854939 
16.66627312 -43.0538063 4.445380211 0.8306703568 
18.91550827 -43.0684967 4.529364586 0.8277639151 
21.25657654 -43.08378983 4.625937462 0.8244343996 
26.27701569 -43.11658096 4.86190176 0.8163555861 
31.88385201 -43.15319061 5.166314602 0.806049943 
32.47974396 -40.09730148 4.96867609 0.8127260804 
25.15067863 -28.36963654 3.650599957 0.8586848974 
25.19048309 -25.98739433 3.484949827 0.864641726 
25.20490646 -23.78746223 3.337119102 0.8699926734 
25.21818733 -21.76235962 3.207388163 0.8747157454 
25.23049355 -19.88557816 3.093279362 0.87889117 
27.25961876 -19.58359528 3.231934786 0.8738201857 
30.0177784 -19.60162354 3.452054262 0.8658297062 
28.5423336 -16.87634468 3.192783833 0.8752490282 
28.09373474 -14.9662714 3.065024853 0.879928112 
33.2090683 -15.83676434 3.542653084 0.8625618815 
37.47236633 -15.8646307 3.918218374 0.849147737 
42.7596283 -15.89918137 4.392689228 0.832498908 
51.18451691 -16.48006058 5.177672386 0.8056679964 
72.35957336 -16.37074852 7.14351368 0.7422079444 
78.62378693 14.14417171 7.69214344 0.72540766 
35.0618248 13.0369072 3.601897001 0.860432148 
36.06342697 15.26811028 3.770900726 0.8543846607 
74.48116302 35.51865005 7.945463181 0.7177789211 
49.72578812 32.47092819 5.718476295 0.7876878381 
40.51580048 31.93276978 4.967275143 0.8127734065 
33.88153839 31.97609711 4.485897064 0.8292667866 
29.4234066 33.18922424 4.270785332 0.8367450237 
29.46694183 39.88194656 4.774681091 0.8193324208 
3.554150343 9.181375504 0.9479942322 0.9612091184 
-32.44873428 105.5938644 10.63676834 0.6415217519 
-101.9084778 51.98171616 11.01549625 0.6314617991 
-95.87193298 38.59128571 9.951249123 0.6601407528 
-94.6765213 24.09293556 9.406862259 0.6753100753 
-108.0757217 17.46235085 10.54147339 0.6440783143 
-12.58042431 0.3359692395 1.211790562 0.9506850243 
-12.57111263 -0.223828122 1.21065259 0.950730145 
-12.56209946 -0.7835937142 1.211945653 0.950678885 
-12.62031269 -1.352990746 1.222162604 0.9502735734 
-45.90789795 -13.43955326 4.605952263 0.8251222968 
-33.67451477 -13.20808315 3.482985735 0.8647127151 
-29.77095222 -13.23358631 3.137068987 0.8772865534 
-26.38019943 -14.66218948 2.90610528 0.8857836723 
-17.84965515 -13.31143761 2.1440382 0.9144077897 
-16.19940376 -13.24191093 2.014646053 0.9193587899 
-14.81362724 -13.2509594 1.913783073 0.9232370257 
-13.55742359 -13.25916195 1.825964451 0.9266269207 
-12.4094677 -13.2666626 1.749174356 0.9296011925 
-10.37125969 -13.27998257 1.62246716 0.9345300198 
-9.455449104 -13.28596878 1.570196629 0.9365707636 
-7.010507584 -13.30194092 1.447826624 0.9413660765 
-5.565915585 -13.31137466 1.38927412 0.9436691999 
-4.883867264 -13.31583691 1.36568737 0.9445985556 
-3.580844641 -13.3243475 1.32851243 0.9460652471 
-3.41774416 -15.42573929 1.521350265 0.9384819865 
-3.053925753 -17.4203434 1.702969193 0.9313955307 
-2.104721546 -16.21974373 1.57487464 0.9363878369 
0.07758788764 -17.44080353 1.67937541 0.9323130846 
1.635466218 -17.45097923 1.687700629 0.931989193 
5.967416763 -42.98391342 4.178575516 0.8399713635 
2.24617672 -12.1748457 1.192089319 0.9514669776 
9.931913376 -43.00981522 4.250355244 0.8374586701 
14.06829548 -43.03684616 4.359761238 0.8336436749 
18.45891571 -43.06550598 4.511603355 0.8283778429 
20.78051186 -43.08068085 4.605566978 0.825135529 
23.20534706 -43.09652328 4.71304369 0.8214426637 
25.75168419 -43.11314392 4.835491657 0.8172560334 
28.46540451 -43.17102432 4.97919035 0.812369287 
32.64864731 -37.49403 4.787156105 0.8189059496 
25.10766983 -26.36781883 3.505842924 0.8638882041 
25.2156105 -22.1549778 3.232028008 0.8738167286 
26.74900246 -19.58025551 3.191941977 0.8752797842 
29.4365139 -19.59782028 3.405122042 0.8675270677 
27.16451073 -16.38991356 3.054866791 0.8803013563 
23.83510208 -12.97113991 2.612897396 0.896689117 
32.45162582 -15.83181858 3.476763248 0.8649373651 
49.94761658 -16.57369423 5.067263126 0.8093887568 
71.99741364 -16.96354675 7.122391224 0.7428628802 
79.30384827 13.53925514 7.746580124 0.7237613201 
67.05871582 14.54493332 6.6071558 0.7590091825 
35.38367462 12.79942799 3.623118877 0.8596704602 
76.91078186 31.75769234 8.012161255 0.715783596 
74.47544098 34.70601273 7.91159153 0.7187940478 
75.95006561 44.00006866 8.451749802 0.7027717233 
49.86313248 31.93144226 5.701375484 0.7882502675 
67.56102753 47.63092804 7.95954752 0.717356801 
41.25948334 31.92791176 5.023424625 0.8108710647 
34.48688507 31.97214317 4.528208733 0.8278038502 
24.93842316 25.27348518 3.418804884 0.8670307994 
29.43967438 35.68965149 4.454805851 0.8303435445 
-2.460209846 110.5472412 10.64712524 0.6412447095 
-7.373705864 110.3109055 10.64542675 0.6412898898 
-25.2864933 101.2492371 10.04864216 0.6574628949 
-31.50895882 105.8816605 10.63709354 0.6415129304 
-35.7130394 89.87355042 9.312040329 0.6779876947 
-92.55158234 38.21503448 9.641500473 0.6687293649 
-108.1956253 23.46741867 10.66029739 0.6408923268 
-107.3416595 18.32607079 10.48538017 0.6455879807 
-12.58162117 0.448059082 1.212240696 0.9506671429 
-12.57337379 -0.1118701175 1.210727096 0.9507272243 
-12.56359577 -0.6715331674 1.211464047 0.9506979585 
-95.03351593 -22.39110565 9.401251793 0.6754682064 
-39.68642426 -13.16881561 4.026257038 0.845328033 
-26.38845634 -15.92166233 2.967595816 0.8835135102 
-16.4946537 -13.23997307 2.036620378 0.9185160995 
-15.07955551 -13.24922562 1.932831168 0.9225032926 
-13.79953384 -13.25759029 1.842594147 0.9259838462 
-11.55705261 -13.27223873 1.69457078 0.9317219853 
-10.56182384 -13.27874279 1.633730888 0.9340907931 
-9.633820534 -13.28479671 1.580126762 0.9361827374 
-8.763268471 -13.29049015 1.532877922 0.9380306005 
-7.161911488 -13.3009491 1.454595804 0.9411001205 
-4.353945255 -13.31929874 1.349284768 0.9452453852 
-3.708032131 -13.32352257 1.33166635 0.9459406734 
-3.413510561 -14.78208733 1.460811257 0.9408560991 
-3.213742495 -17.41930389 1.705593944 0.9312934875 
-0.8541405797 -17.4347229 1.680786252 0.9322581887 
-0.07758788764 -17.43979263 1.679275632 0.9323168993 
0.6989550591 -17.44486618 1.681097269 0.932246089 
2.265173197 -17.45508957 1.694827676 0.931712091 
7.53720665 -42.99417877 4.2029953 0.8391155005 
9.529071808 -43.00718689 4.241553783 0.8377665281 
13.64481449 -43.03408051 4.347013474 0.8340874314 
18.00582886 -43.06254959 4.494326591 0.828975141 
20.30814362 -43.07759857 4.585719585 0.8258192539 
27.8891201 -43.12709808 4.945305824 0.8135187626 
32.64421463 -38.17005539 4.83616066 0.8172329664 
25.18432999 -26.92395782 3.549853325 0.8623028994 
25.19928169 -24.64491844 3.393930674 0.8679323792 
25.22567749 -20.61990356 3.13718009 0.8772823811 
27.83653259 -17.13503075 3.14745903 0.8769061565 
28.29064369 -15.72369862 3.116544724 0.8780382872 
35.6632576 -15.85280991 3.757959604 0.8548461795 
56.66100311 -16.58750725 5.684818745 0.7887951136 
68.26481628 -16.72653961 6.767594337 0.7539442182 
66.66215515 13.83908939 6.555693626 0.7606411576 
74.46977997 33.90023422 7.878632545 0.7197833657 
75.91568756 38.72332001 8.205880165 0.7100199461 
75.94419098 43.09882736 8.408093452 0.7040533423 
42.0209465 31.92294121 5.081317425 0.8089142442 
38.37983704 31.94671631 4.808289051 0.8181841373 
35.10446167 31.96811295 4.571733475 0.8263015151 
32.13014221 31.98753357 4.365566254 0.8334417939 
29.67446709 32.29601669 4.22313118 0.8384107351 
29.52133751 42.27187729 4.964643002 0.8128623962 
29.57376671 46.63779068 5.317461491 0.8009812832 
-1.476635695 110.5684509 10.64746475 0.6412351727 
-11.29443836 109.9644775 10.64407158 0.6413262486 
-16.17183495 109.3358459 10.64238739 0.6413716078 
-25.81740189 107.4321823 10.63905716 0.6414607763 
-25.84109879 89.74906158 8.992927551 0.6870772839 
-35.25291824 104.6804047 10.63580132 0.6415477395 
-93.88732147 55.51311493 10.50237751 0.6451303959 
-12.58293629 0.5602319241 1.212801933 0.9506449699 
-12.47341537 -1.113039494 1.090375543 0.9509617686 
-93.20030975 -25.49229622 8.413030624 0.6784412265 
-40.87646484 -13.16103745 3.739042282 0.8416241407 
-31.23543358 -13.22402096 2.953363657 0.8726759553 
-26.37610626 -14.05119324 2.602116108 0.8869259953 
-26.39697456 -17.23718071 2.745009184 0.881100893 
-18.41197968 -13.22745323 1.973948121 0.9129936099 
-16.79619026 -13.23800468 1.862069845 0.9177160263 
-12.85689163 -13.26375198 1.608382702 0.9285148978 
-11.76508808 -13.27087116 1.544191957 0.9312674403 
-10.75514412 -13.2774725 1.487760425 0.9336940646 
-9.814631462 -13.28361988 1.438055515 0.9358366132 
-8.933239937 -13.28937721 1.394236922 0.9377296567 
-8.102385521 -13.29481125 1.355610728 0.9394013286 
-4.485229492 -13.31844425 1.223629236 0.9451361299 
-3.374155283 -17.41825867 1.544797182 0.9312413931 
-2.408369064 -16.28271294 1.433157802 0.9360479712 
-0.2328149378 -17.43878174 1.518528223 0.9323702455 
0.5435302854 -17.44384575 1.519571066 0.9323254228 
2.107185125 -17.4540596 1.530759096 0.9318445921 
11.39014626 -43.93929672 3.952241659 0.8333901763 
15.37460423 -43.10134506 3.98443532 0.8321537375 
22.22181511 -43.09009552 4.221377373 0.8231109381 
27.34551239 -43.12355423 4.44604063 0.8146275282 
32.43044662 -38.61033249 4.39033556 0.8167227507 
25.19651222 -25.08462143 3.095701218 0.866966486 
25.21045303 -22.95822525 2.968876362 0.8720517755 
25.76535034 -19.57382011 2.817337513 0.8781670332 
28.31949234 -19.59052467 2.998267651 0.8708705902 
27.09020042 -17.00989914 2.785167217 0.8794706464 
31.0300045 -15.82796574 3.032966137 0.8694782853 
39.24134827 -15.79588127 3.683167696 0.8437955379 
45.25299072 -15.91548538 4.176760674 0.8248063922 
54.838974 -16.58529091 4.988417625 0.7945054173 
65.57989502 -16.68884087 5.892024517 0.7620794773 
112.0345306 -23.2584343 9.962820053 0.631646812 
67.13690948 13.31555843 5.959468842 0.7597131133 
35.81125259 14.04610825 3.349353552 0.8568848968 
34.93561172 15.52949142 3.328834772 0.8576961756 
74.42910004 37.13421249 7.242329121 0.7160736322 
74.64945984 41.48994064 7.436179638 0.7097012401 
50.60634995 31.15118599 5.174179077 0.7877286077 
35.92702866 32.13718033 4.197006226 0.8240349293 
32.70345688 31.98379135 3.982891083 0.8322131038 
29.99843216 32.07068634 3.823582649 0.8383493423 
29.43151474 34.41336441 3.942733049 0.8337557316 
31.02957726 58.87686539 5.794802666 0.765504837 
-0.3989404142 89.64286041 7.805274963 0.6977240443 
-16.57109833 89.81850433 7.952468872 0.6930038929 
-25.86535645 112.0097046 10.00931549 0.6302938461 
-25.35221672 91.09341431 8.232931137 0.6840987206 
-9.129277229 21.29904556 2.017681599 0.9111542106 
-60.88970566 92.34596252 9.631101608 0.6413834691 
-95.39523315 41.3920517 9.054253578 0.6586738825 
-88.21259308 20.78396225 7.890981197 0.6949720979 
-65.23566437 6.406828403 5.707399845 0.7685957551 
-12.49649143 0.1112109348 1.08811295 0.9510610104 
-12.48573017 -0.4446655214 1.087821484 0.9510737658 
-99.11036682 -21.49720001 8.830200195 0.665514648 
-93.19448853 -24.60134888 8.392397881 0.6790867448 
-36.46308899 -13.18986511 3.376165152 0.855825901 
-31.93161583 -13.18489933 3.007973671 0.8704810143 
-28.4168644 -13.24243832 2.729722261 0.8817222714 
-26.37413788 -13.75021744 2.589745998 0.8874320388 
-26.39478302 -16.90261459 2.729033709 0.8817503452 
-17.10457993 -13.23598862 1.883122683 0.9168254733 
-14.29691887 -13.25433826 1.697483301 0.9247077703 
-13.08635712 -13.26224804 1.622262359 0.9279209375 
-11.97646236 -13.26949406 1.556373715 0.9307445288 
-10.95120335 -13.27619362 1.49847734 0.9332327247 
-9.997704506 -13.28242397 1.447502255 0.9354290962 
-6.711694241 -13.30390358 1.297430277 0.9419249892 
-5.290256023 -13.31318569 1.247342706 0.9441031218 
-4.617301941 -13.31758022 1.227276087 0.9449771643 
-3.964389563 -13.32184792 1.210203052 0.9457214475 
-3.427280188 -16.88618279 1.500253677 0.9331561923 
-2.558217764 -16.29265404 1.43598032 0.935926199 
-1.784096599 -15.97115421 1.39925766 0.937512517 
-0.3880419731 -17.43776131 1.518678069 0.9323637486 
0.3881494105 -17.44283485 1.519120336 0.9323447347 
7.038290977 -44.82509613 3.950739622 0.8334480524 
14.94259739 -43.09853363 3.971728325 0.8326416016 
21.73693275 -43.08693314 4.201942444 0.823848784 
24.20819283 -43.10306549 4.304378986 0.8199664354 
26.80820274 -43.12004852 4.420897007 0.8155723214 
29.55850601 -43.13800812 4.553173542 0.8106127977 
32.610569 -43.32473373 4.721475124 0.8043462038 
25.09833908 -27.80807304 3.261609316 0.8603594899 
25.20473671 -23.36671066 2.992572546 0.8710992932 
25.2208252 -21.3761692 2.878618717 0.8756889105 
25.29080963 -19.57072449 2.784385204 0.8795025349 
27.78267479 -19.58700943 2.959769726 0.8724179268 
28.8096714 -15.01998711 2.828895092 0.8776990175 
38.43671417 -15.87093925 3.620756149 0.8462274075 
53.27033615 -16.6297245 4.858999729 0.799261272 
62.89505768 -16.6029911 5.663867474 0.7701401114 
35.59664536 13.59765244 3.317826509 0.8581314087 
74.42370605 36.30796432 7.210071087 0.7171394229 
75.64207458 41.16477585 7.498259544 0.7076722383 
74.47993469 44.93771362 7.57390976 0.7052078843 
65.00887299 47.58623123 7.014727592 0.7236290574 
39.78831863 31.93751907 4.442372799 0.8147653937 
29.44850349 37.02370453 4.119029999 0.8270049095 
30.11457443 41.52687454 4.466415405 0.8138625622 
29.49870491 44.73807526 4.665895462 0.8064101338 
29.52926636 49.43791962 5.013959885 0.7935701609 
29.62924194 55.02681351 5.441585541 0.7780746818 
-7.593510628 89.59985352 7.829410076 0.6969475746 
-35.55370712 112.132988 10.24241543 0.6235550642 
-59.7114296 92.3367691 9.57434082 0.6430645585 
-94.53886414 64.16254425 9.948253632 0.6320713162 
-96.74536896 37.94612122 9.048406601 0.6588517427 
-108.7474976 16.57966423 9.578043938 0.6429545283 
-12.51006794 0.7803564072 1.091368198 0.9509181976 
-12.498703 0.2224951088 1.088435173 0.9510468841 
-12.47745132 -0.8898779154 1.089170933 0.9510145783 
-93.03939056 -23.67679787 8.359119415 0.680129528 
-46.00416565 -13.91331768 4.184762955 0.8245020509 
-29.08072281 -13.23809814 2.782065868 0.879596591 
-26.3821373 -14.97194576 2.641213417 0.8853283525 
-26.39261436 -16.57188606 2.713452816 0.8823841214 
-15.9107275 -13.24380112 1.802470565 0.9202415943 
-12.19119072 -13.26809788 1.568872452 0.9302082062 
-10.18321037 -13.28121281 1.457189441 0.9350113273 
-5.42756319 -13.31228733 1.251736522 0.9439119101 
-4.093539715 -13.32100773 1.213386297 0.9455825686 
-3.454218626 -13.32518291 1.198571563 0.9462289214 
-3.422275305 -16.12408447 1.435194492 0.9359599948 
-1.208232403 -15.94135952 1.391993165 0.9378265142 
1.010395527 -17.44689751 1.521645665 0.9322362542 
6.638842583 -44.88444138 3.950601816 0.833453238 
10.60557079 -44.13204193 3.951970816 0.8334005475 
14.51326656 -43.09572983 3.959411621 0.8331148028 
16.68791389 -43.10993195 4.024999142 0.8305988312 
23.70424271 -43.09977341 4.282809258 0.8207823634 
26.27695274 -43.11658096 4.396401405 0.8164944649 
32.47996521 -40.09730148 4.492955685 0.812866807 
25.19058609 -25.98774529 3.151315928 0.8647459745 
25.20501328 -23.78756142 3.01762557 0.8700936437 
28.00447655 -14.91869831 2.762765408 0.8803798556 
33.20888901 -15.83677006 3.203456402 0.8626692891 
37.4726181 -15.8646307 3.543097973 0.8492632508 
42.75939941 -15.89918137 3.972091675 0.8326275349 
51.2908783 -16.51418114 4.691663265 0.8054525256 
71.77746582 -16.23880005 6.407603741 0.7441745996 
35.47112656 13.18918896 3.295059681 0.8590329289 
34.87221909 14.76371574 3.297224045 0.8589470983 
74.41837311 35.48888397 7.178674221 0.7181786895 
49.72874069 32.47279739 5.171266556 0.7878342867 
40.51581573 31.93276978 4.491691589 0.8129145503 
37.20211029 32.10432434 4.278567791 0.8209431171 
33.88149643 31.97609711 4.056400776 0.8293969631 
29.46709824 39.88227081 4.317565441 0.8194680214 
29.52279282 48.44257736 4.939470768 0.7963010073 
3.554118633 9.181391716 0.8572300673 0.9612409472 
-16.67457008 100.3594131 8.858062744 0.6646594405 
-59.28203964 93.48684692 9.638505936 0.6411645412 
-101.4696274 51.75823975 9.917960167 0.6329553723 
-108.6587448 22.5575943 9.662638664 0.6404516697 
-107.369606 17.34872818 9.469908714 0.6461687088 
-12.5009346 0.3338451982 1.08884418 0.9510288835 
-12.47949409 -0.7784692049 1.088701606 0.9510351419 
-12.5545454 -1.345910668 1.09939003 0.9505666494 
-38.55730057 -13.17619324 3.547792912 0.8490793109 
-33.67473221 -13.20809269 3.14952445 0.8648173213 
-29.59258652 -13.15443039 2.819722891 0.8780705333 
-26.40744019 -13.17524624 2.569589138 0.8882576823 
-26.3904686 -16.24490356 2.698259115 0.88300246 
-19.47942734 -13.22048092 2.049805403 0.9098053575 
-16.19953346 -13.24191093 1.821766138 0.9194232225 
-13.55747795 -13.25917244 1.651143551 0.9266858697 
-12.40942574 -13.26666737 1.581697822 0.9296581745 
-11.35201836 -13.27357674 1.52075243 0.9322746992 
-10.37121773 -13.27998257 1.467122316 0.9345831275 
-9.455492973 -13.28596878 1.419860363 0.9366220832 
-6.273271561 -13.3067646 1.280915022 0.9426426291 
-4.223371506 -13.320158 1.216685057 0.9454387426 
-2.090576172 -16.11016846 1.414472461 0.9368548989 
0.8546386361 -17.44588089 1.5208323 0.9322711825 
2.246201038 -12.17485332 1.077955127 0.9515066147 
12.17119122 -43.73260498 3.952511549 0.8333798051 
14.10699654 -43.15514374 3.953179121 0.8333541751 
18.48298836 -43.12165833 4.084963799 0.8283053041 
20.80739212 -43.13684464 4.170034885 0.8250620961 
25.75144386 -43.11315155 4.372507095 0.8173946142 
28.43880272 -43.13069153 4.498250484 0.8126683831 
31.29109383 -43.14932632 4.640911579 0.8073397875 
32.62569427 -41.0182991 4.56344223 0.8102292418 
32.43933868 -37.25383377 4.301075459 0.8200914264 
25.10778236 -26.36782837 3.170183659 0.8639938235 
25.12242126 -24.13589478 3.033331156 0.8694636822 
25.21572304 -22.1549778 2.922589064 0.8739151955 
28.19348526 -17.01066589 2.867015362 0.8761576414 
23.83516502 -12.97116661 2.362738848 0.8967708349 
41.60190201 -15.8916235 3.877553701 0.8362653852 
49.94779205 -16.57373238 4.582125187 0.8095315695 
58.86655807 -16.66576385 5.326954842 0.7821984291 
71.92816925 -16.9472084 6.434261322 0.7432601452 
79.0443573 13.49478245 6.981962204 0.7247231007 
35.44556427 11.06529522 3.233134747 0.861489594 
34.70351791 14.32946014 3.269086123 0.8600623608 
41.25966644 31.92791176 4.542470455 0.8110129833 
37.69776917 31.95117188 4.30270195 0.8200300932 
34.48703003 31.97214317 4.094665051 0.8279345632 
24.93782234 25.27296829 3.091404915 0.8671371937 
29.43982315 35.68998337 4.028312683 0.8304717541 
29.48762703 43.03440475 4.542244911 0.8110215068 
29.61310005 52.7266655 5.265416145 0.7844213247 
4.445038795 66.49585724 5.80271244 0.7652248144 
-25.28618622 101.2462387 9.086263657 0.6577017903 
-35.71300888 89.87355042 8.42045784 0.6782085299 
-94.33601379 54.65156174 9.492658615 0.6454916 
-100.2824783 46.7322464 9.633138657 0.6413235664 
-88.8378067 23.45119858 8.000082016 0.6914845705 
-107.5493164 18.36131477 9.499814987 0.6452787519 
-12.51477051 1.004548311 1.093167186 0.9508394003 
-12.47142029 -1.224838853 1.09111011 0.9509295225 
-98.34294891 -18.59675026 8.714466095 0.6690757275 
-39.68647385 -13.16881084 3.640767097 0.8454468846 
-34.56164932 -13.20228767 3.221362829 0.8619573116 
-27.16095924 -13.25064659 2.631326199 0.8857322335 
-26.37809753 -14.35512924 2.614812613 0.8864067793 
-26.38834953 -15.92152596 2.683451414 0.8836057186 
-19.85377884 -13.21802902 2.076739073 0.9086761475 
-18.07340622 -13.22966003 1.950196028 0.9139941335 
-16.49459648 -13.23997307 1.841624856 0.9185816646 
-15.07961655 -13.24922085 1.74777782 0.9225654602 
-13.79947948 -13.25759029 1.666173816 0.9260436893 
-12.63132286 -13.2652216 1.594869494 0.9290937185 
-11.55695057 -13.27223873 1.532320619 0.9317774773 
-5.018427849 -13.31496334 1.238941431 0.9444689155 
-4.353918552 -13.31929874 1.220098376 0.9452899694 
-3.413461924 -14.78201866 1.320940971 0.9409044385 
-3.213784218 -17.41930389 1.542292953 0.9313489795 
-1.447509766 -15.4450264 1.350689173 0.9396144748 
-0.8540966511 -17.43471909 1.519859076 0.932313025 
7.835561275 -44.69591522 3.951014996 0.8334372044 
11.78113747 -43.83769608 3.952376604 0.8333849907 
13.72183037 -43.27751923 3.953046083 0.8333594203 
15.80938911 -43.10419846 3.997546911 0.8316507339 
18.02921867 -43.11869049 4.069312572 0.8289029598 
25.23163986 -43.10974503 4.349215508 0.8182729483 
32.60237885 -41.74623871 4.611955643 0.8084182739 
32.43494034 -37.92518616 4.345077515 0.8184289932 
25.21310425 -22.5534153 2.945428371 0.8729950786 
26.25130844 -19.57700348 2.851307869 0.8767923713 
28.87053108 -19.59412384 3.038021803 0.8692754507 
35.66304016 -15.85280514 3.398136616 0.8549591899 
40.49813843 -15.88440609 3.78770566 0.8397375345 
46.59903717 -15.92428398 4.287739277 0.8205958605 
79.8340683 12.89954281 7.04130125 0.7227427959 
66.80644989 13.86905003 5.940853119 0.7603654861 
35.47511673 10.72892094 3.226989031 0.861733675 
34.46302032 13.87248039 3.234673977 0.8614282608 
74.46247864 42.25773239 7.45471096 0.7090947032 
49.57913971 31.1306591 5.097275257 0.7905270457 
42.0207901 31.92294121 4.594796658 0.8090583682 
38.37982941 31.94671631 4.347926617 0.8183217049 
32.13016129 31.98753548 3.94758606 0.8335689902 
29.43562698 35.0448494 3.984904051 0.8321357369 
29.45758247 38.41939545 4.215299129 0.8233417869 
29.52145386 42.27204132 4.489341259 0.8130028844 
-16.57754326 112.0790176 9.864880562 0.6345062852 
-25.84093666 89.74906158 8.131899834 0.6872934699 
-35.09533691 90.66187286 8.464720726 0.6768256426 
-91.7962265 38.86340332 8.679493904 0.6701559424 
-12.58203602 1.122727036 1.099870682 0.9505454898 
-12.4943018 -2.441406195e-06 1.087879181 0.9510712624 
-12.48363495 -0.5558666587 1.088026881 0.9510647655 
-100.8362503 -18.14033318 8.920749664 0.6627414227 
-98.54492188 -22.29470825 8.797141075 0.6665295959 
-93.20030975 -25.49234581 8.413031578 0.6784411669 
-40.87643814 -13.16103745 3.739039898 0.8416242003 
-35.49001694 -13.19622326 3.296816349 0.8589633703 
-26.37611008 -14.0511837 2.602115393 0.8869259953 
-15.35098362 -13.2474432 1.76549542 0.9218119979 
-12.8568964 -13.26374245 1.60838294 0.9285148978 
-11.76509476 -13.27087593 1.544192672 0.9312674403 
-9.814606667 -13.28361988 1.438054323 0.9358366728 
-8.933227539 -13.28937244 1.394236207 0.9377296567 
-8.102377892 -13.29480648 1.35561049 0.9394013286 
-5.845544338 -13.30956268 1.265704751 0.9433040023 
-5.1539011 -13.31407452 1.243080616 0.9442887306 
-3.835893393 -13.3226881 1.207129359 0.9458554983 
-2.408364296 -16.28271294 1.43315804 0.9360479712 
1.322509766 -17.44893837 1.52363658 0.9321507215 
7.437216759 -44.76221466 3.950876951 0.8334428668 
9.42269516 -44.39487076 3.95156312 0.8334162235 
11.39015579 -43.93927765 3.952241659 0.8333902359 
17.57876015 -43.11574936 4.054109573 0.8294844031 
19.86601448 -43.13069153 4.134599686 0.8264114857 
24.71731377 -43.10639572 4.326512814 0.8191300035 
32.61573792 -42.53833008 4.667218685 0.80636096 
25.18129349 -27.40565109 3.240554094 0.8611947894 
25.22332001 -20.99537849 2.857458353 0.8765437007 
25.76538467 -19.57382011 2.81733942 0.8781669736 
28.31954002 -19.59052467 2.99827075 0.8708704114 
27.09020996 -17.00990486 2.785167217 0.8794706464 
28.29652786 -16.05839157 2.832868576 0.8775382042 
39.24150848 -15.79588127 3.68317914 0.8437950015 
45.25317764 -15.91549015 4.176774979 0.8248057961 
54.83898163 -16.5852356 4.988416672 0.794505477 
112.0345306 -23.2584343 9.962820053 0.631646812 
35.81127548 14.046175 3.349357843 0.8568847775 
74.42910767 37.13430786 7.242331982 0.716073513 
74.64945984 41.48995972 7.436177254 0.7097012401 
50.6063385 31.15119362 5.174179077 0.7877286077 
42.79948807 31.91785812 4.648701191 0.8070496917 
39.07660675 31.94216728 4.394472599 0.8165670037 
29.43151474 34.41339874 3.942734957 0.8337556124 
29.45298767 37.71352768 4.1664505 0.8251986504 
29.50447273 45.62522507 4.730853558 0.8039984107 
29.55483818 50.49614334 5.094410419 0.7906316519 
-16.57129288 89.81850433 7.95247221 0.6930037737 
-9.129281998 21.2990303 2.017681122 0.9111542106 
-92.72921753 55.94822311 9.429684639 0.6473686099 
-95.3952713 41.39202118 9.054255486 0.6586738229 
-12.49649143 0.1112353504 1.08811295 0.9510610104 
-12.47542667 -1.001415968 1.089729428 0.9509900808 
-105.3163681 -17.98028564 9.302567482 0.6511744261 
-99.10977936 -21.49718857 8.830144882 0.6655161381 
-36.4630394 -13.18986988 3.376166344 0.8558260202 
-28.4168644 -13.24243832 2.729722261 0.8817222714 
-26.37413788 -13.75021744 2.589745998 0.8874320388 
-17.10461235 -13.23598862 1.883124828 0.9168253541 
-14.29696751 -13.25433826 1.697486639 0.9247075915 
-10.95116901 -13.27619362 1.49847579 0.9332327843 
-9.997668266 -13.2824192 1.447500467 0.9354291558 
-9.105199814 -13.28825378 1.402561426 0.937369585 
-8.264861107 -13.29374218 1.362947464 0.9390835166 
-6.711689472 -13.30389881 1.297429919 0.9419250488 
-5.986982346 -13.30863476 1.270636082 0.9430896044 
-3.405951977 -13.63749218 1.22388804 0.9451248646 
-3.427280188 -16.88606644 1.500243306 0.9331566095 
-2.558237314 -16.29265785 1.43598032 0.9359261394 
-0.3880077899 -17.43776131 1.518678665 0.9323637486 
0.3881860375 -17.44283485 1.519120574 0.9323447347 
1.166372061 -17.44791794 1.522579193 0.9321960807 
1.949658155 -17.45302963 1.529084921 0.9319164157 
7.038334846 -44.82509613 3.950739622 0.8334480524 
9.026938438 -44.47544861 3.951426268 0.8334213495 
12.94855404 -43.51196289 3.952780008 0.8333695531 
19.40126991 -43.12766647 4.117584705 0.8270598054 
29.55840683 -43.13800812 4.553170204 0.8106130362 
32.61057663 -43.32486343 4.721483707 0.8043458462 
25.09833908 -27.80796051 3.261563063 0.8603597879 
25.19357872 -25.53207207 3.123129129 0.865870595 
25.204813 -23.36671066 2.99257803 0.8710991144 
25.2208252 -21.37610054 2.878615618 0.8756890297 
25.29087257 -19.57072449 2.784389496 0.8795023561 
27.78273392 -19.58701324 2.959774017 0.872417748 
30.61563492 -19.60552406 3.165434599 0.8641831279 
28.8096714 -15.01998711 2.828895092 0.8776990175 
33.94113541 -15.81678963 3.260382652 0.8604076505 
43.97477341 -15.9071312 4.071688175 0.8288124204 
62.89505768 -16.60304451 5.663864613 0.7701401114 
35.59664536 13.59765244 3.317826509 0.8581314087 
75.64230347 41.1647644 7.498276234 0.7076717019 
74.47993469 44.93760681 7.573901653 0.7052080631 
39.78814316 31.93752098 4.442361355 0.814765811 
29.62924194 55.02681351 5.441585541 0.7780746818 
3.482697725 9.240283012 0.8598005772 0.9611269832 
-7.593588829 89.59985352 7.829411507 0.6969475746 
-59.7114296 92.33625793 9.574304581 0.6430656314 
-96.74533081 37.94617844 9.048406601 0.6588518023 
-88.87294769 21.77599335 7.967066288 0.6925379038 
-95.48107147 18.93696022 8.475465775 0.6764906645 
-65.19721985 6.989323616 5.709248543 0.7685301304 
-12.51006794 0.7803515196 1.091368198 0.9509181976 
-12.4987011 0.2224829048 1.088435173 0.9510468841 
-12.48784637 -0.3334960938 1.087703943 0.9510788918 
-12.47745132 -0.8898779154 1.089170933 0.9510145783 
-98.3548584 -20.41849899 8.746335983 0.6680929065 
-93.03939056 -23.67670059 8.359116554 0.6801295877 
-46.00415802 -13.91328335 4.184756279 0.8245020509 
-29.0808773 -13.23809814 2.782077551 0.8795961142 
-26.3821373 -14.9720335 2.641217709 0.8853281736 
-26.39261436 -16.5719738 2.713456869 0.8823839426 
-19.11454391 -13.22285843 2.023716211 0.910900712 
-17.41999054 -13.23392773 1.904807806 0.9159091115 
-15.91069031 -13.24379158 1.802467823 0.9202417135 
-14.55274391 -13.25266838 1.713785768 0.9240127802 
-11.15013599 -13.27489471 1.509472132 0.9327597022 
-9.279301643 -13.28711605 1.411103368 0.9370003939 
-8.429167747 -13.29266834 1.370476246 0.9387575984 
-7.62507534 -13.2979269 1.334688544 0.9403080344 
-6.860422134 -13.30292702 1.303241134 0.9416727424 
-5.427602291 -13.31228733 1.251737833 0.9439118505 
-4.750141621 -13.31671143 1.231043577 0.9448130727 
-3.454186916 -13.32518291 1.198570728 0.9462289214 
-3.422275305 -16.12415695 1.435201287 0.9359597564 
-2.894519091 -17.42139435 1.537673473 0.9315474629 
-1.962221622 -16.25348282 1.425465465 0.9363801479 
-1.208215356 -15.94134045 1.391991377 0.9378266335 
1.010395527 -17.44689751 1.521645665 0.9322362542 
1.792412043 -17.45200348 1.527537942 0.9319829941 
6.638842583 -44.88444138 3.950601816 0.833453238 
10.60552216 -44.13204193 3.951970816 0.8334006071 
14.51320267 -43.0957222 3.959408998 0.8331148624 
21.25657272 -43.08378983 4.183037758 0.8245677948 
23.70435905 -43.09978485 4.282813549 0.820782125 
31.88386726 -43.15319061 4.67166996 0.8061954975 
25.17478943 -28.39682388 3.304236889 0.8586692214 
25.19058609 -25.98774529 3.151315928 0.8647459745 
25.15096092 -19.82289314 2.788298845 0.8793436885 
30.01778221 -19.60162354 3.121542215 0.8659341931 
28.00450706 -14.91874218 2.762769222 0.8803796768 
33.20870209 -15.83676434 3.203441143 0.8626698852 
37.47284698 -15.8646307 3.543117046 0.8492625356 
42.75965118 -15.89918137 3.972112894 0.8326267004 
51.2908783 -16.51406479 4.691659451 0.8054526448 
61.26421738 -16.75699997 5.530208588 0.7749013901 
35.30033112 11.3657589 3.228984356 0.8616543412 
34.87226105 14.76381397 3.297231436 0.8589468598 
74.41837311 35.48908234 7.178680897 0.7181783915 
66.22658539 47.57826996 7.100146294 0.7207840681 
37.20211029 32.10432434 4.278567791 0.8209431171 
31.01346588 31.99482918 3.87974906 0.8361808658 
29.49308968 43.87468719 4.603051662 0.8087506294 
29.52279282 48.44234085 4.939447403 0.7963016629 
3.554113626 9.181393623 0.8572300673 0.9612409472 
4.187529087 72.30702972 6.306329727 0.7476585507 
-7.589755535 100.1400681 8.744192123 0.6681590676 
-25.99798203 100.2903137 9.020888329 0.6596876383 
-34.94538498 113.7168045 10.35826397 0.6202325821 
-35.81890106 100.4144592 9.282664299 0.6517721415 
-101.4696426 51.75790787 9.91793251 0.63295573 
-88.83480072 22.60669708 7.981359482 0.6920812726 
-107.369606 17.34872818 9.469908714 0.6461687088 
-12.51240444 0.8923681378 1.092223048 0.9508807659 
-12.5009346 0.3338451982 1.08884418 0.9510288835 
-12.48997974 -0.2223266512 1.087674737 0.9510802031 
-12.55451107 -1.345883727 1.0993855 0.9505667686 
-65.52430725 -12.99588585 5.816329956 0.764744401 
-45.73817444 -13.38986015 4.149564266 0.8258413672 
-38.55706406 -13.17619324 3.547773361 0.8490800858 
-29.59258652 -13.15443039 2.819722891 0.8780705333 
-19.47942734 -13.22048092 2.049805403 0.9098053575 
-14.81362724 -13.25096416 1.730551004 0.9232987761 
-13.55754089 -13.25917244 1.651147246 0.9266856909 
-10.37117195 -13.27998257 1.467119813 0.9345832467 
-7.010434628 -13.30194569 1.309201837 0.9414138794 
-4.223371506 -13.320158 1.216685057 0.9454387426 
-3.417685509 -15.4251976 1.375640631 0.9385339618 
-3.053933144 -17.42034912 1.539919257 0.931450963 
-1.36557126 -16.11294174 1.407981396 0.9371353388 
0.8545995951 -17.44588089 1.520831704 0.9322711825 
6.23901844 -44.94018555 3.950463772 0.8334584236 
12.17128849 -43.73258591 3.952511549 0.8333798051 
16.2471962 -43.10705948 4.01106596 0.8311324716 
25.75144386 -43.11315155 4.372507095 0.8173946142 
28.43880272 -43.13069153 4.498250484 0.8126683831 
32.62569427 -41.0182991 4.56344223 0.8102292418 
25.12241554 -24.13600349 3.033337831 0.8694634438 
25.14830971 -20.18610954 2.807806969 0.8785530329 
29.4365139 -19.5978241 3.079102755 0.8676303625 
23.83516502 -12.97116661 2.362738848 0.8967708349 
32.45199966 -15.83181858 3.14390564 0.8650413752 
35.44556427 11.06529522 3.233134747 0.861489594 
74.41308594 34.67696381 7.148112774 0.7191915512 
74.46823883 43.14163971 7.493428707 0.7078297734 
49.34019089 31.5962925 5.101422787 0.7903760672 
37.69794464 31.95117188 4.30271244 0.820029676 
29.462286 39.14217377 4.265661716 0.8214319944 
29.48762703 43.03462982 4.542260647 0.8110208511 
29.5165081 47.47632599 4.86753273 0.7989467978 
22.97716904 66.27233887 6.107307434 0.7545515895 
-35.71300888 89.87355042 8.42045784 0.6782085299 
-56.90559387 101.3214035 10.11821651 0.6271370053 
-94.33601379 54.65156174 9.492658615 0.6454916 
-91.94443512 37.96480179 8.661208153 0.6707209945 
-88.83776855 23.45138359 8.000078201 0.6914845109 
-89.53369141 19.42007446 7.976969242 0.6922217011 
-107.5494919 18.36155891 9.499832153 0.6452782154 
-12.48155499 -0.6671435237 1.088320494 0.9510518909 
-98.34294891 -18.59675026 8.714466095 0.6690757275 
-45.98625565 -13.01921082 4.161388397 0.8253910542 
-39.68647385 -13.16881084 3.640767097 0.8454468846 
-27.16110802 -13.25064182 2.631332874 0.8857317567 
-26.38835335 -15.92145729 2.683447123 0.8836058378 
-19.85386658 -13.21802902 2.07674551 0.9086758494 
-18.07332039 -13.22966003 1.950189352 0.9139944315 
-15.07954788 -13.24922085 1.747774124 0.9225656986 
-12.63125992 -13.26522636 1.594866395 0.9290938973 
-9.633906364 -13.28479671 1.428841949 0.9362342358 
-8.763271332 -13.29049015 1.386113048 0.9380808473 
-7.161911488 -13.3009491 1.315329432 0.9411479831 
-6.418166161 -13.3058176 1.286272764 0.9424098134 
-5.705197811 -13.31047535 1.260915399 0.9435124397 
-5.01845932 -13.31496334 1.238943577 0.9444688559 
-3.413461924 -14.7821703 1.3209517 0.9409039021 
-2.259082079 -16.27287865 1.430465817 0.9361642003 
0.6990332007 -17.44486618 1.520141125 0.9323008657 
2.265102386 -17.45509529 1.532555938 0.9317672849 
7.835561275 -44.69591522 3.951014996 0.8334372044 
