# .PCD v0.7 - Point Cloud Data file format
VERSION 0.7
FIELDS x y z intensities
SIZE 4 4 4 4
TYPE F F F F
COUNT 1 1 1 1
WIDTH 904
HEIGHT 1
VIEWPOINT 0 0 0 1 0 0 0
POINTS 904
DATA ascii
25.35157204 -27.10277367 0.1696401983 0.8620452285 
25.36694336 -24.80889511 0.1621897817 0.8676828742 
24.71672249 -22.10941315 0.1515804976 0.8757708073 
26.31939888 -21.51395988 0.1553875655 0.8728638887 
28.88113213 -19.60116196 0.1595506221 0.8696890473 
37.02642822 -16.45877457 0.1852163672 0.8503726721 
54.39148331 -15.92312908 0.259059757 0.7971601486 
116.6431198 -23.13468742 0.5435688496 0.6214710474 
118.8370667 13.81061459 0.5468670726 0.6196796894 
67.30504608 13.97253895 0.3142161369 0.7596000433 
80.11463928 32.24848557 0.3947660625 0.7079017758 
75.93901825 34.56903839 0.3813951015 0.7162314057 
76.10662079 38.82067108 0.3905328214 0.7105283141 
52.50239182 29.79541206 0.2759371996 0.785469532 
49.62065506 31.15654755 0.2678205669 0.7910709381 
18.17344475 15.12724209 0.1080830395 0.9097523689 
18.17221069 16.54863358 0.1123498529 0.9063645005 
18.18117142 18.10046577 0.1172691286 0.9024686813 
31.61992645 34.41329956 0.2136280835 0.8294941783 
31.13902855 44.58824921 0.2485995442 0.8044929504 
30.72154236 53.57751846 0.2823084891 0.7811057568 
49.88750839 96.73688507 0.4975462258 0.6470210552 
44.57374954 96.77246857 0.4870329201 0.6529971957 
36.07615662 88.48501587 0.4367999136 0.6823375225 
3.275618792 9.18284893 0.04456664994 0.9617519379 
-1.190361261 89.13274384 0.4074766338 0.7000759244 
-9.159057617 89.17441559 0.4097678959 0.6986691952 
-17.28348541 89.22008514 0.4154214263 0.6952257156 
-21.44737244 89.24759674 0.4195761085 0.692700386 
-25.69900322 89.25548553 0.4245649576 0.6896782517 
-30.06925201 89.28812408 0.4306645095 0.6860084534 
-19.34011269 35.16491699 0.1834477186 0.8516910672 
-54.7183075 89.7842865 0.4806320071 0.6566649675 
-39.92308807 45.03272247 0.275100708 0.7860553861 
-39.94866943 41.2124939 0.2623719871 0.7948604822 
-39.99353027 34.51293564 0.2414762825 0.8095249534 
-40.01346207 31.53686523 0.232888937 0.8156318069 
-40.03205872 28.75943756 0.2253163159 0.8210520148 
-40.0495224 26.15234756 0.2186424136 0.8258596659 
-40.06600952 23.69003296 0.2127674818 0.8301202059 
-41.12845612 19.61338425 0.2082865834 0.8333806396 
-40.11092758 16.9817028 0.1991047561 0.8401017785 
-40.12473679 14.91943836 0.1956855804 0.8426222205 
-40.08226395 10.9633007 0.1899532974 0.8468598723 
-40.98495865 9.27249527 0.1920814514 0.8452820778 
-52.29625702 9.407938957 0.2428985536 0.8085237741 
-12.13256836 0.5401830673 0.05551559478 0.9525822401 
-88.42638397 -15.90777302 -0.4106829762 0.6981039643 
-88.22587585 -19.96005821 -0.413482666 0.6964035034 
-42.2543869 -13.6046772 -0.202911824 0.8373073936 
-31.04366684 -13.14282227 -0.1540901214 0.8738504052 
-26.804533 -15.8489399 -0.1423416138 0.8828856945 
-20.23767281 -13.21517086 -0.1104836985 0.9078444242 
-19.74759674 -14.18697262 -0.1111473069 0.9073177576 
-15.75704288 -13.5978508 -0.09514175355 0.9201179743 
-14.41764355 -13.60682106 -0.09062286466 0.9237635136 
-13.19738007 -13.61499977 -0.0866734311 0.9269581437 
-10.07493401 -13.63590813 -0.07749923319 0.9344312549 
-6.000866413 -13.66319752 -0.0682144165 0.9420543909 
-5.290878773 -13.66795826 -0.06699767709 0.9430596828 
-3.839794874 -15.97819328 -0.0751176402 0.936380744 
-3.374628782 -17.42067909 -0.08111236244 0.9314815998 
-2.577485323 -17.42601585 -0.08052428812 0.9319620728 
-1.790290475 -17.43128777 -0.08009932935 0.9323074222 
0.5436230302 -17.44691277 -0.07979018986 0.9325595498 
1.322731853 -17.45212936 -0.08000426739 0.9323849678 
22.24524879 -104.8085022 -0.4897714257 0.6514351368 
39.60926056 -85.99473572 -0.4327935576 0.6847391129 
25.20573616 -48.87620163 -0.2513815165 0.8025399446 
27.89819336 -43.99511719 -0.2381317019 0.8118969798 
37.39326477 -44.51887894 -0.2657672167 0.7925022244 
25.36402702 -25.25141144 -0.1636065692 0.8666120172 
25.9208107 -21.57600594 -0.1541618258 0.8738001585 
25.77388191 -19.58033562 -0.1479605138 0.8785582781 
36.14273453 -16.45285034 -0.1815280169 0.8531267047 
53.57527542 -16.203125 -0.2558604479 0.7994031906 
63.423172 -16.140028 -0.2991621196 0.7696793675 
108.6596832 -2.901835918 -0.4968823195 0.6473952532 
112.7333145 12.08545876 -0.5182751417 0.635386467 
51.49648285 10.21349144 -0.2399850339 0.8105838895 
69.92650604 34.8877449 -0.357221365 0.7315503955 
47.71135712 26.51777458 -0.2495170534 0.8038489223 
19.37882614 13.15218449 -0.1070591733 0.910571456 
18.32821655 14.98193836 -0.1082089245 0.9096543789 
18.16201782 16.24615669 -0.1113871709 0.9071270227 
18.15569496 17.75614166 -0.1160842851 0.9034076929 
31.86774254 34.06908035 -0.2132452279 0.8297727704 
31.14836311 39.88432312 -0.2313348353 0.8167464137 
30.89863014 52.79209518 -0.2796142399 0.7829540372 
30.84876633 58.53369522 -0.3025004566 0.7674639821 
40.47905731 96.8098526 -0.4796639979 0.6572229862 
35.51941681 96.84308624 -0.4715165496 0.6619204283 
12.91817379 48.06851578 -0.2275231928 0.8194691539 
-0.3966308534 89.12853241 -0.4074240029 0.7001075149 
-4.367192268 89.14958954 -0.4080049098 0.6997517347 
-5.123989105 54.67364502 -0.2510151565 0.8027955294 
-16.4598732 89.21572876 -0.414693743 0.6956633329 
-20.60807991 89.24314117 -0.4186772108 0.6932459474 
-4.857648849 17.45409584 -0.0828166157 0.9300931096 
-33.66001892 89.30713654 -0.4362777472 0.6826565862 
-7.633349419 17.80898666 -0.08857207745 0.9254227281 
-8.523432732 17.67036247 -0.08968154341 0.9245248437 
-18.74567413 34.81408691 -0.1807374507 0.8537113667 
-39.85650635 54.96059036 -0.3103426993 0.7621839046 
-39.94365692 41.94830322 -0.2647724748 0.7931861877 
-39.96743011 38.39801025 -0.2533473074 0.8011574745 
-40.25678253 29.46776772 -0.2280386239 0.8190911412 
-27.27486801 18.15873337 -0.1497769058 0.8771579266 
-40.10803986 17.40291023 -0.1998519897 0.839553237 
-40.12195206 15.32630825 -0.1963304132 0.8421474695 
-40.07962799 11.34696293 -0.1904063374 0.8465201259 
-40.09236145 9.446264267 -0.18828246 0.8480952382 
-49.65742874 9.390258789 -0.2310116589 0.816970706 
-12.1906786 1.19725585 -0.05599243194 0.952183187 
-12.11083984 0.6473070979 -0.05543716252 0.9526449442 
-12.09055901 -0.4305908084 -0.05530105531 0.9527589083 
-92.02060699 -15.71018505 -0.4267207384 0.6883815527 
-88.41741943 -23.34032249 -0.4180038273 0.6936493516 
-42.25160599 -13.18994617 -0.2023333758 0.8377361894 
-26.79193497 -13.96803665 -0.1381129473 0.8861587644 
-26.80237579 -15.52741146 -0.1415922493 0.8834660649 
-26.81338501 -17.17066765 -0.1455454975 0.8804152608 
-19.87983322 -14.01541996 -0.1111831665 0.9072877765 
-14.6752758 -13.60509777 -0.09147658944 0.9230728745 
-13.43288803 -13.61342716 -0.08742309362 0.9263519645 
-12.29376698 -13.62105465 -0.08387283236 0.9292336702 
-9.346786499 -13.64079094 -0.07558822632 0.9359960556 
-8.484237671 -13.64657211 -0.0734539777 0.9377456903 
-7.667468071 -13.65204048 -0.07157257199 0.9392890334 
-6.889960766 -13.65724564 -0.06992324442 0.9406465292 
-6.1460495 -13.66223145 -0.06848022342 0.9418355227 
-5.430861473 -13.6670208 -0.0672242716 0.9428701401 
-3.965082884 -13.32416439 -0.06354629248 0.9459106922 
-2.736015558 -17.42495537 -0.08062713593 0.9318768978 
-1.947092295 -17.43023491 -0.08017165959 0.9322490096 
-0.3881152272 -17.44067764 -0.07974349707 0.9325982928 
0.3882128894 -17.44587326 -0.07976516336 0.9325789213 
1.908337355 -12.15373993 -0.05623351783 0.951980114 
23.3993206 -115.2881699 -0.5377334356 0.6246522665 
22.34791374 -89.48168945 -0.4215974212 0.6914775968 
25.56278801 -85.90066528 -0.4096769691 0.6987250447 
29.79221153 -85.9289856 -0.4157304168 0.695035696 
38.68254471 -85.98852539 -0.4310124218 0.6858071089 
25.19854927 -49.94852448 -0.2557247877 0.7994897366 
27.34998894 -43.99144363 -0.2367924452 0.8128544092 
33.48970795 -44.49272537 -0.2545570433 0.8003111482 
36.71882248 -44.51436996 -0.2637805045 0.7938822508 
25.45288467 -21.57287025 -0.1525106728 0.8750604987 
25.29909706 -19.57715797 -0.1462263465 0.8798902035 
28.08698273 -16.27165031 -0.1483793557 0.8782351017 
35.29382706 -16.44716835 -0.1779917926 0.8557701707 
53.5717926 -16.72384262 -0.2565389872 0.7989248633 
116.5598602 -19.89963913 -0.5405267477 0.6231361032 
113.6442184 11.16100597 -0.5219978094 0.6333268285 
69.98718262 10.03372002 -0.3231956363 0.7536599636 
47.39444351 13.41784191 -0.2251658589 0.8211652637 
18.39283943 13.46346855 -0.1041952521 0.9128565788 
18.15848541 17.44543648 -0.1151058897 0.9041822553 
32.11450958 33.72621918 -0.2128802389 0.8300383091 
30.68566322 35.23994064 -0.213595733 0.8295165896 
31.1281147 39.13534546 -0.2285838276 0.8187115192 
31.16119385 42.97007751 -0.2426327467 0.8087052703 
30.6744175 46.5211525 -0.2547186315 0.8001969457 
46.6722641 96.75840759 -0.4910621643 0.6506969929 
24.98464584 66.28931427 -0.3238276541 0.7532420754 
11.7889595 51.05195618 -0.2395117134 0.8109215498 
8.375685692 60.3314743 -0.278427124 0.7837674618 
0.3965673745 89.12433624 -0.4074026346 0.700119257 
-3.572060585 89.14538574 -0.4078222513 0.6998624802 
-4.634118557 54.68041229 -0.2508523464 0.8029137254 
-7.390832424 56.95452118 -0.2625318766 0.7947476506 
-9.475482941 54.05051041 -0.2507632375 0.8029189706 
-4.854277134 18.06281281 -0.08549728245 0.9279145002 
-5.527385235 17.43285179 -0.08359573036 0.9294582605 
-7.573959827 18.11393356 -0.08974761516 0.9244693518 
-8.330439568 17.67043686 -0.08929977566 0.9248318672 
-19.62054634 33.52283478 -0.1775485128 0.8560966849 
-40.33371353 62.37139511 -0.3395185769 0.7429628968 
-39.91204834 46.66788101 -0.2807020545 0.782210052 
-40.16405106 35.9272995 -0.2463281155 0.8060943484 
-40.01126862 32.70620346 -0.2362348884 0.8132526278 
-40.02469254 29.84852982 -0.2282327265 0.8189614415 
-27.18258667 16.73247719 -0.1459104866 0.8801347613 
-40.07542038 22.27373886 -0.2095831186 0.8324358463 
-40.78307343 15.99621582 -0.2002619952 0.8392608762 
-40.13274384 13.71456051 -0.1938681006 0.8439623713 
-12.20976734 -1.418959975 -0.05618667603 0.9520208836 
-97.13162231 -15.69444275 -0.4497593641 0.6746442914 
-88.28958893 -22.46805573 -0.4164413214 0.6946006417 
-39.11592102 -13.75706959 -0.1895422339 0.8471647501 
-26.78990364 -13.66514587 -0.1374696344 0.8866574168 
-26.81113434 -16.83466339 -0.1447096169 0.8810558915 
-19.87806129 -13.75100517 -0.1104881242 0.9078426361 
-18.683918 -14.19408131 -0.1072575375 0.910412848 
-15.91116428 -13.24415016 -0.09462920576 0.9205271006 
-14.93785858 -13.6033392 -0.09235366434 0.9223636389 
-12.5141573 -13.61957932 -0.08454666287 0.9286863208 
-11.44566822 -13.62673759 -0.08134490997 0.9312905073 
-10.45323467 -13.63337898 -0.07852935791 0.9335888028 
-8.652846336 -13.64543915 -0.0738587901 0.9374130368 
-7.827489853 -13.65096664 -0.07192901522 0.9389958382 
-6.292399883 -13.66124439 -0.06875381619 0.9416104555 
-5.571811199 -13.6660738 -0.06746169925 0.9426749945 
-4.750961781 -13.31890106 -0.0646385178 0.9450058341 
-3.831782103 -14.78166008 -0.06980194151 0.9407464862 
-3.697021484 -17.41851616 -0.0813960284 0.9312505722 
-2.894955873 -17.42388725 -0.08073821664 0.9317863584 
-1.94075191 -16.07542419 -0.07401870191 0.9372836947 
-0.5434033275 -17.43963814 -0.07975616306 0.9325867295 
24.73114777 -85.89509583 -0.4085913002 0.699393332 
28.9361763 -85.92324829 -0.4144344926 0.695820868 
33.27222061 -85.95228577 -0.4213036895 0.6916511059 
37.76332474 -85.98236084 -0.4292692542 0.6868476272 
25.19111824 -51.05875397 -0.2602629066 0.7963295579 
25.28410149 -45.97228241 -0.239819482 0.810690999 
26.80792999 -43.98781204 -0.2354806513 0.8137888908 
29.5814991 -44.00640106 -0.2423809767 0.8088827133 
32.87044907 -44.4885788 -0.2528472841 0.8015078306 
25.35793495 -26.16040039 -0.166544497 0.8643866777 
24.99482346 -21.56979942 -0.1509228498 0.8762868047 
24.83526802 -19.57405281 -0.1445477307 0.8811844587 
30.02889633 -19.6088562 -0.1639453024 0.8663568497 
38.90566635 -16.47136688 -0.1931268275 0.8445116282 
42.61014938 -15.84372044 -0.207812041 0.8337317705 
58.89744186 -16.10973167 -0.2791207731 0.7832947969 
116.6600571 -26.3929882 -0.5467454195 0.6197504401 
88.06368256 7.858168602 -0.4041537344 0.7021149993 
113.2749786 15.21214771 -0.5224499106 0.6330712438 
55.0629921 9.905693054 -0.2557417154 0.7994830608 
47.4585495 10.73690033 -0.2224265933 0.8231360316 
47.58711624 13.01611042 -0.2255162001 0.8209094405 
47.65340042 20.17479706 -0.2365469337 0.8130239844 
47.50802231 28.09045029 -0.2522869706 0.8019028902 
18.41214943 13.22754765 -0.1036328077 0.9133053422 
18.167099 15.67764854 -0.1096934453 0.9084758162 
18.16053391 17.13921928 -0.1141433716 0.9049409032 
24.49449158 25.26955986 -0.16100052 0.8686868548 
30.93894196 34.89874268 -0.2131924331 0.8298124671 
31.10833168 38.40394211 -0.2259210199 0.8206222653 
30.50192261 41.28282928 -0.2346046418 0.81438905 
31.11589813 46.28894424 -0.2549514771 0.8000325561 
31.74329567 52.0860405 -0.2788218558 0.7834960818 
3.100684166 9.207158089 -0.04440963641 0.9618840218 
11.76261711 48.94664001 -0.2301089466 0.8176157475 
8.605053902 58.17760468 -0.2688299417 0.7903774381 
-2.777592659 89.14115143 -0.4076715112 0.6999534965 
-10.76681137 89.18292999 -0.4106191993 0.6981468797 
-31.85313988 89.29755402 -0.4333846867 0.6843823791 
-8.138950348 17.67025375 -0.08892944455 0.9251317382 
-18.74380112 36.34588623 -0.1869354248 0.8490990996 
-40.66869354 58.23390961 -0.3246842921 0.7526768446 
-27.18965912 35.46150208 -0.2042597979 0.836319983 
-39.93352127 43.46102524 -0.2697949111 0.7897105217 
-39.95817184 39.78076553 -0.2577455044 0.7980861664 
-39.98075104 36.4090538 -0.2471832186 0.8054925799 
-40.00159454 33.29650497 -0.2379096895 0.8120558858 
-40.03909683 27.69773865 -0.2225413471 0.8230447769 
-27.1751461 17.06321907 -0.1466752589 0.8795424104 
-40.0876503 20.44816399 -0.2057079971 0.8352631927 
-40.10233307 18.25535202 -0.2014138699 0.838408649 
-40.11644363 16.14816284 -0.1976765394 0.8411543965 
-40.13007355 14.11370087 -0.1944499165 0.8435296416 
-42.92640686 12.98245049 -0.2049992383 0.8357812166 
-40.08729935 10.20143986 -0.1890840083 0.8475024104 
-50.02293396 10.38477516 -0.2335383594 0.8151687384 
-12.11490917 0.8640210032 -0.05551757663 0.9525780678 
-12.09461689 -0.2153149396 -0.05529373139 0.9527653456 
-12.0844574 -0.7538232207 -0.05534576252 0.9527218342 
-87.05034637 -13.27175713 -0.4025059342 0.7031193376 
-65.00111389 -12.89196777 -0.3029098511 0.7671508789 
-88.0216217 -21.56762695 -0.4142579436 0.695930481 
-35.14226532 -13.78369141 -0.172556147 0.8598505855 
-19.87631226 -13.4898243 -0.1098039225 0.9083841443 
-16.19991875 -13.24221134 -0.09564178437 0.9197117686 
-13.91639614 -13.6101799 -0.08897811919 0.9250915647 
-11.65287113 -13.62535095 -0.08195388317 0.9307954907 
-9.706313133 -13.63838387 -0.07651885599 0.9352329969 
-8.823366165 -13.64429665 -0.07427550852 0.9370718598 
-7.196650028 -13.65519524 -0.07055755705 0.9401246309 
-6.439926624 -13.66026306 -0.06903335452 0.9413791299 
-5.713764668 -13.66511726 -0.06770598888 0.9424740672 
-4.884667873 -13.3180027 -0.06484496593 0.944837153 
-3.849130869 -17.37242126 -0.08133544773 0.9312982559 
-3.054370165 -17.42282104 -0.08085403591 0.9316902757 
-2.086342812 -16.07749939 -0.07410720736 0.9372081161 
-0.6987597346 -17.43859863 -0.07977706939 0.9325699806 
0.07762939483 -17.44379807 -0.07973953336 0.9326021075 
22.24815941 -96.34581757 -0.4519637823 0.6733237505 
28.08558083 -85.91755676 -0.4131903052 0.6965819001 
32.39347076 -85.94641113 -0.4198594689 0.6925343871 
36.85149002 -85.97625732 -0.4275968969 0.6878609657 
25.18341255 -52.20901108 -0.2649723887 0.7930539846 
29.01371574 -44.00259781 -0.240928188 0.8099116683 
35.39937592 -44.5055275 -0.259943068 0.7965459228 
24.67505264 -28.33720589 -0.1717605591 0.8604496121 
25.36991119 -24.37369156 -0.1608131379 0.8687274456 
24.71939468 -21.71891022 -0.1504084766 0.8766717911 
29.44706535 -19.60494995 -0.1617083699 0.8680493236 
30.60660172 -16.65623093 -0.1592829823 0.8698951006 
33.69128036 -16.43642616 -0.171358332 0.8607521653 
57.1979332 -16.19339371 -0.2717401087 0.7883709073 
68.65065002 -16.17503357 -0.3224081397 0.7541795969 
113.2681198 14.18613243 -0.5218038559 0.6334229708 
47.80935287 19.74096298 -0.2364396602 0.813100338 
47.68811417 22.22295189 -0.2404943854 0.8102195859 
69.98558807 36.48709869 -0.3607801795 0.7292733192 
47.68416214 27.62479973 -0.2519100904 0.8021697998 
47.60453033 30.48475075 -0.2584043741 0.7976241708 
18.66453934 13.15866566 -0.1043898016 0.9127002358 
18.15759659 16.83347511 -0.1131822169 0.9057050347 
31.37153244 34.75851822 -0.2140310556 0.8292022943 
31.08900642 37.68925858 -0.2233277857 0.8224808574 
31.12765121 45.42786026 -0.2517370582 0.8022947311 
31.21294403 55.57514572 -0.2913703918 0.7749440074 
11.62193108 57.26137924 -0.2670820653 0.7915850282 
9.13026619 58.14857101 -0.2690598965 0.790217936 
-5.959911823 89.15802765 -0.4084573388 0.6994704008 
-9.961854935 89.17865753 -0.4101844728 0.6984182596 
-22.29063416 89.25205231 -0.4205200076 0.6921325326 
-7.544931412 18.9871788 -0.09339614958 0.9215242863 
-18.75011253 37.16646576 -0.1902860999 0.8466102481 
-39.93621063 64.23574066 -0.3457489014 0.7389272451 
-27.18839836 36.12106705 -0.2066645771 0.8345674276 
-39.90063858 48.37165833 -0.286629796 0.7781613469 
-39.92831421 44.2391777 -0.2724099755 0.7879062891 
-39.95341873 40.49038315 -0.260019213 0.7964930534 
-39.97638702 37.06119537 -0.2491917312 0.8040824533 
-40.06912613 23.21319199 -0.2116801441 0.8309114575 
-40.08462906 20.89820671 -0.2066369653 0.8345832229 
-49.3306427 22.98838806 -0.2487820387 0.8043678999 
-40.11366653 16.56336784 -0.1983793527 0.8406357765 
-40.92903137 12.77712345 -0.1959994435 0.8423919082 
-40.08475876 10.58149433 -0.1895060688 0.8471874595 
-59.40475845 10.14182568 -0.2754698098 0.7857947946 
-12.11694813 0.9726122618 -0.05556503311 0.9525390267 
-12.08649349 -0.6459985375 -0.0553265363 0.9527378678 
-12.07628632 -1.18603754 -0.05546691641 0.9526211023 
-110.3451157 -15.81976509 -0.5095472336 0.6402490139 
-88.65519714 -16.76482391 -0.4124348462 0.6970421672 
-88.21041107 -24.97330093 -0.4190583825 0.693008244 
-41.41290283 -13.74168396 -0.1994526684 0.8398475051 
-30.40559578 -13.19298267 -0.1515066475 0.875833571 
-26.99555779 -13.16994572 -0.1373036206 0.8867889047 
-19.8745842 -13.23185539 -0.1091426089 0.9089124799 
-19.38454056 -14.18940353 -0.1098120064 0.9083799124 
-14.16475773 -13.60852051 -0.08978744596 0.924436152 
-12.96587372 -13.61655235 -0.08594527841 0.9275488853 
-11.86320972 -13.6239357 -0.0825779736 0.9302879572 
-10.84183598 -13.63077641 -0.07961501926 0.9327036738 
-9.889438629 -13.6371479 -0.07700072974 0.9348371625 
-8.995807648 -13.64314461 -0.07469909638 0.9367221594 
-6.588659286 -13.65926743 -0.06932357699 0.9411414862 
-5.151825905 -13.66888618 -0.06677154452 0.9432436228 
-3.824824095 -13.74304676 -0.06520935148 0.9445354342 
-3.844277143 -16.64762688 -0.07810103893 0.9339395165 
-0.8542382717 -17.43755341 -0.07980651408 0.9325480461 
-0.07764159888 -17.44275284 -0.07973327488 0.9326060414 
0.6991528273 -17.44795799 -0.07982223481 0.9325349927 
1.479150414 -17.45318413 -0.08006621897 0.9323343635 
27.23970222 -85.91189575 -0.4119755328 0.6973196864 
31.52052116 -85.94056702 -0.4184368849 0.6933929324 
35.94667435 -85.97019958 -0.4259602129 0.688847661 
24.74018478 -52.47848892 -0.2651884258 0.7928876281 
31.17837334 -43.80893326 -0.2457939088 0.8064720631 
34.75388718 -44.501194 -0.2581037879 0.7978309393 
38.07798386 -44.52347565 -0.267806083 0.7910889387 
25.35161972 -27.10283089 -0.1696417183 0.8620449901 
24.71677208 -22.10946274 -0.1515849233 0.8757705688 
30.59203148 -18.83123016 -0.1642156988 0.8661519289 
23.39178085 -13.0011034 -0.1223310828 0.8984815478 
31.57594109 -15.75394535 -0.1613023281 0.8683568239 
46.64021683 -15.93837833 -0.2253018171 0.8210629821 
65.93920898 -16.15687943 -0.310333997 0.7621880174 
116.5383148 -23.11364174 -0.5430924892 0.6217368841 
117.2599792 8.362772942 -0.5373696685 0.6248546839 
61.12055588 9.875805855 -0.2830187976 0.7806286812 
47.55521393 12.10185719 -0.2243109047 0.821777463 
47.41281128 19.08515358 -0.2336297482 0.8151023388 
69.74760437 35.57727432 -0.3579170108 0.7311090827 
18.35861969 13.94692993 -0.1053915396 0.9119018316 
31.62008476 34.4131813 -0.2136332691 0.8294941187 
31.07011604 36.99074936 -0.2208206058 0.8242888451 
31.13910484 44.5883522 -0.2486073226 0.8044924736 
32.426754 51.13643265 -0.2767964005 0.78489393 
49.88773346 96.7368927 -0.4975352287 0.6470208168 
36.14907837 88.66333771 -0.4376846254 0.6818118691 
27.69563484 90.12561035 -0.4309872389 0.6858171821 
-1.189951181 89.13272858 -0.4074778557 0.700075984 
-5.163154125 89.15380859 -0.4082204998 0.6996210217 
-5.61790514 54.69937897 -0.2513598502 0.8025583029 
-8.326952934 56.29767609 -0.2601469457 0.796408534 
-17.28308487 89.22008514 -0.4154224992 0.6952258945 
-30.06951141 89.28812408 -0.4306623638 0.6860082746 
-34.57278061 89.31197357 -0.4377681017 0.6817554235 
-7.760346413 17.66931152 -0.08821563423 0.9257099628 
-8.718784332 17.67169571 -0.09007354826 0.9242036939 
-18.74903107 34.09000015 -0.1778443903 0.8558805585 
-54.71805573 89.7842865 -0.4806321561 0.6566652656 
-40.4765358 60.2142868 -0.3316557109 0.7480990887 
-27.17041397 36.77376938 -0.2090038955 0.8328583837 
-40.3346138 49.79396439 -0.2929116786 0.7738904357 
-39.92299271 45.03258514 -0.2750973403 0.7860558629 
-39.94857788 41.21272278 -0.2623676956 0.7948601842 
-39.9719429 37.72405243 -0.2512390018 0.8026378155 
-40.03198242 28.75963402 -0.2253193557 0.821051836 
-40.08159256 21.3523922 -0.2075970471 0.8338855505 
-41.12828064 19.61337852 -0.2082868963 0.833381176 
-40.11086273 16.98158073 -0.1991073638 0.8401021361 
-40.13804626 12.92329025 -0.1927471906 0.8447871208 
-40.08220291 10.96338367 -0.1899525374 0.8468600512 
-40.98586273 9.272500038 -0.1920846552 0.8452790976 
-52.29621124 9.407938957 -0.2428862005 0.8085238934 
-12.11898422 1.081401348 -0.0556181334 0.9524962902 
-12.10881042 0.5391845703 -0.05540435761 0.9526728392 
-12.08852482 -0.5382739305 -0.05531326309 0.952750206 
-12.07833195 -1.077768564 -0.05543075502 0.9526517987 
-88.42634583 -15.90786076 -0.410685122 0.6981039643 
-88.22579956 -19.96013641 -0.4134805202 0.6964036822 
-88.02974701 -24.07809448 -0.4171713293 0.694157064 
-42.25437927 -13.60468197 -0.2029168606 0.8373073936 
-37.03583527 -13.77099609 -0.1806184351 0.853803277 
-31.04367638 -13.14282227 -0.1540905684 0.8738503456 
-29.61083031 -14.12090778 -0.1499560475 0.8770217896 
-19.74755859 -14.18696785 -0.1111471504 0.9073178768 
-15.75703812 -13.5978508 -0.09514144808 0.9201180339 
-14.41764355 -13.60682106 -0.09062286466 0.9237635136 
-10.07490921 -13.6359129 -0.07749892771 0.9344313145 
-8.317436218 -13.64768505 -0.07305602729 0.938070178 
-6.000868797 -13.66319752 -0.06821456552 0.9420543909 
-5.290888786 -13.66795826 -0.06699767709 0.9430596828 
-3.836569786 -13.32502365 -0.06338531524 0.9460442066 
-3.839794874 -15.97826672 -0.07511794567 0.9363805056 
-1.009804606 -17.4365139 -0.07983810455 0.9325209856 
-0.2328686416 -17.44171906 -0.07973510772 0.9326047301 
1.322749019 -17.4521389 -0.08000442386 0.9323849678 
2.02951169 -12.21503162 -0.05660079792 0.9516761899 
26.39893913 -85.90625763 -0.4108122289 0.6980339289 
30.6535778 -85.93475342 -0.4170678556 0.694226563 
35.04851151 -85.96418762 -0.4243585169 0.6898081303 
25.20573616 -48.87607193 -0.2513810694 0.8025403023 
27.89822197 -43.995121 -0.2381315529 0.8118969202 
30.59196663 -43.80500412 -0.2442398071 0.8075731993 
25.34837914 -27.58753395 -0.1712597609 0.860827744 
25.37836838 -23.11110878 -0.1569045931 0.8717084527 
25.92086792 -21.57600594 -0.1541650295 0.8737999797 
30.8756485 -15.74925709 -0.1584402472 0.8705386519 
36.14268494 -16.45285034 -0.181527704 0.8531268835 
53.57527542 -16.20308113 -0.2558602989 0.7994031906 
63.42325974 -16.140028 -0.2991625965 0.7696791291 
116.5669708 -18.83486748 -0.5397647023 0.6235537529 
108.659668 -2.901928663 -0.4968820214 0.6473953128 
51.49648666 10.21350574 -0.2399853468 0.8105838895 
69.92648315 34.88782501 -0.3572236598 0.7315503359 
47.71133804 26.51779556 -0.2495176643 0.8038489819 
18.32823944 14.98193836 -0.1082144156 0.9096543193 
18.16201782 16.2461319 -0.1113873273 0.9071270823 
31.86772156 34.06911087 -0.2132482827 0.8297727704 
30.60250473 35.782547 -0.2152268887 0.8283346891 
32.59685516 50.4071846 -0.2744003236 0.7865357399 
30.89866066 52.79204941 -0.2796142399 0.7829540968 
30.84876633 58.53359604 -0.3025506437 0.7674642205 
41.81236267 88.69210052 -0.4482197464 0.675555706 
40.47895432 96.8098526 -0.4796638489 0.6572230458 
12.91817379 48.06851578 -0.2275231928 0.8194691539 
12.04166222 54.34795761 -0.2544534206 0.8003818989 
-0.3965038955 89.12853241 -0.4074240029 0.7001075149 
-5.123906136 54.67364502 -0.2510151565 0.802795589 
-16.46008682 89.21572876 -0.414693445 0.6956632137 
-20.6082077 89.24314117 -0.4186775088 0.6932458878 
-5.699042797 17.4341259 -0.08384307474 0.9292582273 
-33.66016388 89.30714417 -0.436277926 0.6826564074 
-39.85650635 54.96064377 -0.3103429973 0.7621837258 
-27.8536129 35.01865005 -0.2045336813 0.8361204863 
-39.98929214 35.13513184 -0.2433288544 0.8082132339 
-40.00951004 32.11492538 -0.2345133871 0.8144686818 
-40.25688553 29.46776772 -0.2280390859 0.8190908432 
-27.30500031 16.47449684 -0.1457751393 0.8802394271 
-40.07851791 21.81085396 -0.2085684091 0.8331698775 
-40.19055557 19.60710335 -0.2044146657 0.8362106085 
-40.13540268 13.31777763 -0.1932984889 0.8443815112 
-40.07962799 11.34696293 -0.1904063374 0.8465201259 
-49.65724182 9.390258789 -0.231010586 0.816971302 
-12.11084461 0.6473315358 -0.05543716252 0.9526449442 
-12.09055614 -0.4306176603 -0.05530105531 0.9527589083 
-12.08037853 -0.9697021246 -0.05539718643 0.9526787996 
-97.66079712 -12.23168945 -0.4498965442 0.6745568514 
-92.02037048 -15.71030235 -0.4267196655 0.6883821487 
-88.41730499 -23.3404007 -0.418007046 0.69364959 
-42.25160599 -13.18997574 -0.2023348957 0.8377361894 
-38.05076218 -13.76421356 -0.1849653572 0.8505631089 
-30.29219246 -14.11635208 -0.1527662575 0.8748691678 
-26.79193497 -13.96803665 -0.1381129473 0.8861587644 
-19.87982941 -14.0153904 -0.1111831665 0.9072878361 
-15.82067394 -13.40893555 -0.09479919076 0.9203919768 
-13.4328289 -13.61342716 -0.08742294461 0.9263520837 
-11.24145699 -13.6281004 -0.08075363189 0.9317733645 
-9.346764565 -13.64078617 -0.07558792084 0.9359961152 
-7.667458534 -13.65204048 -0.07157257199 0.9392890334 
-6.1460495 -13.66223145 -0.06848022342 0.9418355227 
-5.430861473 -13.6670208 -0.0672242716 0.9428701401 
-4.618081093 -13.31979465 -0.06444305182 0.9451693296 
-1.947121501 -17.43023491 -0.08017151058 0.9322490096 
1.166577101 -17.45108795 -0.07994934171 0.9324303269 
23.39943886 -115.2881699 -0.5377339125 0.6246522069 
22.34791374 -89.48152924 -0.4215965271 0.6914780736 
38.68248367 -85.98852539 -0.4310124218 0.6858071685 
25.19855499 -49.94860077 -0.2557252347 0.7994894981 
24.69711876 -43.97367096 -0.2305473238 0.8173075318 
27.34992218 -43.99144363 -0.2367921323 0.8128544688 
30.15608788 -44.01024628 -0.243877247 0.8078290224 
25.3610096 -25.7017765 -0.1650533974 0.8655136824 
25.37559509 -23.52506828 -0.1581759602 0.8707395196 
27.79242706 -19.59387207 -0.155444026 0.8728240132 
30.58696747 -19.58719254 -0.1660310328 0.8647750616 
30.611269 -15.95927238 -0.1578085274 0.8710218072 
35.29382706 -16.44716835 -0.1779917926 0.8557701707 
39.9070015 -16.47807503 -0.1973616034 0.8413878679 
53.5717926 -16.72390175 -0.2565402091 0.7989248037 
61.08156204 -16.12434959 -0.2887809575 0.7767019868 
116.4938812 -25.26791954 -0.5449006557 0.6207568049 
113.6440582 11.16111279 -0.521951437 0.6333271861 
47.73194885 15.83844948 -0.2298919559 0.8177762628 
47.61653137 18.18914604 -0.2329988033 0.8155508637 
47.48439407 20.60346413 -0.2366151363 0.8129799366 
69.8030777 34.05363083 -0.3550225794 0.7329556346 
47.82100296 26.02429962 -0.2488748133 0.8043048382 
47.74252701 28.80548477 -0.2548860013 0.8000830412 
19.74993896 13.14881897 -0.108461298 0.9094571471 
18.16457939 15.9597702 -0.1105294749 0.9078096747 
32.11449051 33.72624969 -0.2128831446 0.8300382495 
30.68564415 35.23997116 -0.213595733 0.8295165896 
31.1281147 39.13544464 -0.2285841256 0.8187112808 
31.16119385 42.97007751 -0.2426327467 0.8087052703 
30.6744175 46.5211525 -0.2547186315 0.8001969457 
31.39776993 52.56611252 -0.279889226 0.7827675939 
31.24185562 58.02166367 -0.3012214601 0.7682843208 
46.6722641 96.75840759 -0.4910621643 0.6506969929 
41.49222183 96.80306244 -0.4814370573 0.6562017798 
-4.634152889 54.68041229 -0.2508524954 0.8029137254 
-19.77220726 89.23871613 -0.4178155363 0.6937695742 
-4.854277134 18.06281281 -0.08549728245 0.9279145002 
-7.573957443 18.11399078 -0.08974761516 0.924469173 
-18.74432755 35.56644058 -0.1837760955 0.8514489532 
-39.91204834 46.66775131 -0.2807016075 0.78221035 
-40.00311279 42.76637268 -0.2676713467 0.79117167 
-40.48575974 39.59475327 -0.2588472068 0.7973047495 
-27.18258667 16.73247719 -0.1459104866 0.8801347613 
-40.07542038 22.27379799 -0.2095831186 0.8324357271 
-40.09063721 20.00210381 -0.2048028558 0.8359258175 
-40.13274384 13.71464825 -0.1938679516 0.8439623117 
-40.07704544 11.73256779 -0.1908816546 0.846167326 
-40.08984375 9.822963715 -0.1886744648 0.8478049636 
-61.97065353 9.447954178 -0.2865472436 0.7782172561 
-65.59596252 7.032079697 -0.301538229 0.768058002 
-12.10272694 0.2154394537 -0.05533080921 0.9527344108 
-12.09258747 -0.3229394555 -0.05529464781 0.9527639747 
-97.13162231 -15.69444275 -0.4497593641 0.6746442914 
-88.28964996 -22.46798706 -0.4164398015 0.6946005225 
-34.25737762 -13.78961372 -0.1688035578 0.8626761436 
-30.40994644 -13.84310055 -0.1527339071 0.874894917 
-26.78990364 -13.66522408 -0.1374699324 0.8866572976 
-26.81113434 -16.83474159 -0.1447096169 0.8810557723 
-19.87806129 -13.7510252 -0.1104881242 0.9078426361 
-14.93782234 -13.6033392 -0.09235366434 0.9223636985 
-13.67249203 -13.61181641 -0.08819015324 0.92572999 
-11.44566822 -13.62673759 -0.08134490997 0.9312905073 
-10.45323467 -13.63337898 -0.07852935791 0.9335888028 
-7.827509403 -13.65096664 -0.07192901522 0.9389957786 
-7.042624474 -13.6562252 -0.07023818791 0.9403889775 
-4.750927448 -13.31890583 -0.06463836879 0.9450058937 
-4.094218731 -13.32330036 -0.06371291727 0.9457724094 
-1.321384192 -17.43442345 -0.07992431521 0.9324511886 
-0.5434033275 -17.43963814 -0.07975616306 0.9325867295 
0.2328906208 -17.44483376 -0.07975021005 0.9325931072 
1.792739272 -17.45528221 -0.08021117747 0.9322174788 
1.804304123 -12.19874001 -0.05636154115 0.9518704414 
25.19112206 -51.05847549 -0.2602618337 0.7963303328 
25.28422737 -45.97229004 -0.2398246676 0.8106907606 
26.80800629 -43.98781586 -0.2354809493 0.8137887716 
29.5815773 -44.00639725 -0.2423812747 0.8088825345 
36.05437088 -44.50992203 -0.2618374527 0.795229733 
24.99482346 -21.56979942 -0.1509228498 0.8762868047 
24.83521843 -19.57405281 -0.1445474178 0.8811846375 
27.26876831 -19.59036064 -0.1534799188 0.8743219376 
30.59698677 -18.09140015 -0.1624839753 0.8674624562 
30.60894966 -16.30621147 -0.158531487 0.8704655766 
38.90590668 -16.47136688 -0.1931281984 0.8445108533 
42.61014938 -15.84362316 -0.207812041 0.8337318897 
58.89771271 -16.10973167 -0.279122144 0.7832940221 
116.5526962 -20.96753883 -0.5413346887 0.6226942539 
113.1861725 -15.20019531 -0.5220359564 0.6332982183 
88.06384277 7.858100414 -0.4041545093 0.7021145821 
113.2749786 15.21205044 -0.5224499106 0.6330713034 
47.58726501 13.01602364 -0.2255162001 0.8209090233 
47.40450668 15.26296329 -0.2276452631 0.8193808198 
47.65340805 20.17491341 -0.2365470827 0.8130238056 
69.98686981 33.37575531 -0.3544357121 0.7333338261 
68.83047485 36.66773987 -0.3564913869 0.7320137024 
18.35404205 14.46583462 -0.1068244874 0.9107573628 
24.49449158 25.26955986 -0.16100052 0.8686868548 
31.10833168 38.403862 -0.225920558 0.8206224442 
31.11589813 46.28883362 -0.2549510002 0.8000328541 
31.23360443 56.79008484 -0.2962676883 0.771628201 
11.76261902 48.94685364 -0.2301100045 0.8176150918 
3.843806028 66.37171936 -0.303906709 0.766489327 
1.189824224 89.12013245 -0.4074137807 0.70011127 
-2.777490139 89.14115143 -0.4076715112 0.6999534965 
-10.76672363 89.18292999 -0.4106190503 0.6981468797 
-18.93838882 89.22885895 -0.4169648588 0.6942870021 
-18.74379921 36.34578323 -0.1869348139 0.8490993977 
-19.22465134 33.5273056 -0.1766664088 0.8567633033 
-40.3104248 63.56893539 -0.34407866 0.7400090098 
-40.66869354 58.23390961 -0.3246842921 0.7526768446 
-39.93352127 43.46102524 -0.2697949111 0.7897105217 
-39.95817184 39.78076553 -0.2577455044 0.7980861664 
-40.00160217 33.29665756 -0.2379103005 0.8120555282 
-40.02096939 30.40385246 -0.2297454774 0.8178778291 
-27.1751461 17.06316185 -0.1466751099 0.8795425296 
-40.48343277 22.97436905 -0.2127732784 0.8301120996 
-40.10233688 18.2552433 -0.2014135718 0.8384088278 
-42.92640686 12.98245049 -0.2049992383 0.8357812166 
-12.09461689 -0.2152905166 -0.05529342592 0.9527653456 
-12.0844574 -0.7537939548 -0.05534576252 0.9527218342 
-12.07423115 -1.294392109 -0.0555072017 0.9525867105 
-87.05040741 -13.27157211 -0.4025059342 0.7031192183 
-65.00099182 -12.89209461 -0.3029093742 0.7671511769 
-88.02142334 -21.56777382 -0.4142567217 0.6959308982 
-35.14206314 -13.78369141 -0.172555238 0.8598512411 
-26.80891228 -16.50245476 -0.143901363 0.8816809654 
-19.87631226 -13.4898243 -0.1098039225 0.9083841443 
-19.03012848 -14.19176197 -0.1085142493 0.9094111323 
-15.20555878 -13.60154247 -0.09325515479 0.9216351509 
-13.91645432 -13.6101799 -0.08897826821 0.9250914454 
-12.73818588 -13.61807632 -0.08523818851 0.9281247854 
-10.6461544 -13.63208961 -0.07906600833 0.9331518412 
-7.196606159 -13.65519047 -0.07055725157 0.9401246905 
-6.439892292 -13.66026306 -0.06903304905 0.9413791895 
-5.713764668 -13.66511726 -0.06770598888 0.9424740672 
-4.884667873 -13.3180027 -0.06484496593 0.944837153 
-4.224093914 -13.32243156 -0.06388747692 0.9456291199 
0.07759521157 -17.44379807 -0.07973953336 0.9326021075 
0.8547461033 -17.4489994 -0.07985809445 0.9325053096 
1.635844707 -17.45423317 -0.08013457805 0.9322785735 
22.24835396 -96.34574127 -0.4519746304 0.6733238101 
36.85149002 -85.97625732 -0.4275968969 0.6878609657 
24.75188446 -45.96871948 -0.2386454791 0.8115265369 
26.27174759 -43.98422241 -0.2341902107 0.8147010803 
24.67504311 -28.33732414 -0.1717610061 0.8604493141 
24.71939468 -21.71880722 -0.1504081637 0.8766720295 
24.73190308 -19.85187912 -0.1449619979 0.8808600903 
26.75834465 -19.58694267 -0.1515855342 0.8757753372 
30.59452057 -18.45927238 -0.1633360237 0.8668155074 
42.60726166 -16.27567291 -0.2084910572 0.8332328796 
53.56475449 -17.77396393 -0.2579804957 0.7979183197 
57.1979332 -16.19339371 -0.2717401087 0.7883709073 
68.65065002 -16.17503357 -0.3224081397 0.7541795969 
116.0309906 9.313877106 -0.5320993066 0.6277447343 
113.2681046 14.18636703 -0.5218038559 0.6334229112 
69.98558807 36.48709869 -0.3607801795 0.7292733192 
18.35344887 14.20236015 -0.1060818434 0.9113500118 
18.16786385 15.3982954 -0.1088668779 0.9091337323 
18.15759659 16.833395 -0.1131822169 0.9057052732 
31.37147331 34.75860596 -0.2140310556 0.8292021751 
30.73022461 40.82665253 -0.2335278243 0.8151360154 
31.12764549 45.42803955 -0.251740247 0.8022942543 
32.08623505 51.60955811 -0.2777915895 0.7842047215 
31.21294403 55.57514572 -0.2913703918 0.7749440074 
43.53697586 96.77939606 -0.4851014614 0.6541036367 
38.47472382 96.82328033 -0.4762594402 0.6591826081 
25.98207855 87.3092041 -0.4164038002 0.6946296096 
12.00951862 48.08620834 -0.226563558 0.8201607466 
11.62191105 57.26057816 -0.2670782506 0.7915875316 
-1.983710885 89.13694 -0.4075532556 0.7000246048 
-9.962070465 89.17865753 -0.4101847708 0.6984182 
-14.00640106 89.2027359 -0.4127479494 0.6968490481 
-5.187026024 17.43033028 -0.08312957734 0.929839015 
-7.948920727 17.66988564 -0.08856795728 0.925424397 
-39.90063858 48.37146759 -0.2866291702 0.7781617641 
-39.95341873 40.49018478 -0.2600187659 0.7964934707 
-39.97638702 37.06103897 -0.2491928041 0.8040828109 
-40.01720047 30.96633148 -0.231288746 0.8167687058 
-40.06912613 23.21319199 -0.2116801441 0.8309114575 
-40.11366653 16.56336784 -0.1983793527 0.8406357765 
-40.92903137 12.77712345 -0.1959994435 0.8423919082 
-50.01981735 10.84943867 -0.2339553833 0.8148641586 
-12.1067791 0.4311474562 -0.05537551641 0.9526970387 
-12.09664059 -0.1076782197 -0.05529540777 0.9527630806 
-88.65519714 -16.76482391 -0.4124348462 0.6970421672 
-30.40559578 -13.19298267 -0.1515066475 0.875833571 
-26.99568367 -13.16994095 -0.137297824 0.8867884874 
-26.79604721 -14.58248997 -0.1394503713 0.8851224184 
-26.8067112 -16.17386246 -0.1431137025 0.8822908998 
-16.49485588 -13.24023438 -0.09668838233 0.9188736081 
-15.47847366 -13.59971619 -0.09418410808 0.920887053 
-14.16470146 -13.60851574 -0.08978714049 0.9244363308 
-12.96581554 -13.61655235 -0.08594497293 0.9275490642 
-11.86320972 -13.6239357 -0.0825779736 0.9302879572 
-9.889438629 -13.6371479 -0.07700072974 0.9348371625 
-7.352097034 -13.65415001 -0.07088714093 0.9398533106 
-6.588659286 -13.65926743 -0.06932357699 0.9411414862 
-4.354687214 -13.32155704 -0.06406433135 0.9454808831 
-3.824824095 -13.742939 -0.06520919502 0.9445358515 
-3.844277143 -16.64781189 -0.07810195535 0.9339388609 
-2.419321299 -17.42707443 -0.08042648435 0.9320418239 
-1.633732915 -17.43233299 -0.08003631234 0.9323605895 
-0.07760742307 -17.44275284 -0.07973327488 0.9326060414 
1.479150414 -17.45318413 -0.08006621897 0.9323343635 
22.27391052 -100.5298309 -0.4706744254 0.6624066234 
23.08081436 -85.8840332 -0.4065130651 0.7006623149 
27.23970222 -85.91189575 -0.4119755328 0.6973196864 
31.52052116 -85.94056702 -0.4184368849 0.6933929324 
35.94646072 -85.97019958 -0.4259599149 0.6888478398 
25.21268463 -47.83980942 -0.2471995503 0.805485189 
25.7415123 -43.98066711 -0.2329444885 0.8155910373 
28.45284081 -43.99883652 -0.2395124733 0.8109160066 
38.07815933 -44.52347565 -0.2678067088 0.7910885811 
25.35161972 -27.10283089 -0.1696417183 0.8620449901 
25.36699104 -24.80875015 -0.1621931493 0.8676831126 
24.71677208 -22.10946274 -0.1515849233 0.8757705688 
28.88088226 -19.60116196 -0.1595573425 0.8696897626 
23.39178085 -13.0011034 -0.1223310828 0.8984815478 
31.57594109 -15.75394535 -0.1613023281 0.8683568239 
46.64021683 -15.93847179 -0.225302279 0.8210628629 
57.19425201 -16.74337769 -0.2724204957 0.7879023552 
116.5740967 -17.77275848 -0.5390344262 0.6239472628 
117.2599792 8.362772942 -0.5373696685 0.6248546839 
61.12055588 9.875805855 -0.2830187976 0.7806286812 
49.28728867 10.2320528 -0.2301025391 0.817622304 
47.55521393 12.10185719 -0.2243109047 0.821777463 
47.76690674 14.44635963 -0.2281153798 0.8190446496 
47.41283035 19.08503532 -0.2336295992 0.815102458 
47.51187515 21.62814903 -0.2386292964 0.8115459681 
19.0171299 13.15546608 -0.1057054102 0.9116521478 
18.35861778 13.94699192 -0.1053912342 0.9119017124 
18.1668129 15.12173748 -0.108046107 0.9097837806 
31.62008476 34.4131813 -0.2136332691 0.8294941187 
31.07011604 36.99074936 -0.2208206058 0.8242888451 
31.16911125 40.65153122 -0.2341592312 0.814725101 
49.88799667 96.73686981 -0.4975346327 0.6470205784 
27.69531631 90.12535095 -0.430986315 0.6858180761 
12.45593452 48.0509758 -0.2269067317 0.8199115992 
11.53701591 54.35690689 -0.2540112138 0.8006964326 
-1.189951181 89.13272858 -0.4074778557 0.700075984 
-8.326952934 56.29767609 -0.2601469457 0.796408534 
-21.44739151 89.24758911 -0.4195750356 0.692700386 
-30.06927681 89.28812408 -0.4306643605 0.6860084534 
-34.57300568 89.31197357 -0.4377682507 0.6817551851 
-8.71883297 17.67169571 -0.09007369727 0.9242036343 
-27.17041397 36.77376938 -0.2090038955 0.8328583837 
-39.9719429 37.72405243 -0.2512390018 0.8026378155 
-39.99345016 34.51314926 -0.2414811701 0.8095247149 
-40.01338196 31.53679657 -0.2328901589 0.8156321645 
-27.81262207 16.44503403 -0.147694543 0.8787593842 
-41.12844086 19.61337852 -0.2082899362 0.8333806992 
-40.11086655 16.98147964 -0.199106589 0.8401022553 
-40.12467575 14.9194231 -0.1956809908 0.8426223993 
-40.08220291 10.96328068 -0.1899522394 0.8468601108 
-40.98586273 9.272500038 -0.1920846552 0.8452790976 
-52.29621124 9.407938957 -0.2428862005 0.8085238934 
-12.11898422 1.081401348 -0.0556181334 0.9524962902 
-12.10881042 0.5391845703 -0.05540435761 0.9526728392 
-12.08852482 -0.5382739305 -0.05531326309 0.952750206 
-12.07833195 -1.077768564 -0.05543075502 0.9526517987 
-118.1089249 -15.86125946 -0.5447262526 0.6208400726 
-88.42642212 -15.90764618 -0.41068542 0.6981039047 
-88.02992249 -24.07791901 -0.4171732962 0.6941567063 
-37.03560638 -13.77100563 -0.1806170642 0.8538039923 
-31.04348564 -13.14282227 -0.1540895104 0.8738509417 
-29.61066818 -14.12091255 -0.1499552876 0.877022326 
-26.804533 -15.84896946 -0.1423417628 0.8828856349 
-19.74755859 -14.18696785 -0.1111471504 0.9073178768 
-16.79644203 -13.23822212 -0.09775847942 0.9180110693 
-15.75703812 -13.5978508 -0.09514144808 0.9201180339 
-14.41764355 -13.60682106 -0.09062286466 0.9237635136 
-13.1973896 -13.61499977 -0.0866734311 0.9269581437 
-12.07683563 -13.622509 -0.08321624249 0.9297673702 
-11.04027367 -13.62944794 -0.08017730713 0.9322441816 
-10.07495117 -13.63590813 -0.07749923319 0.9344312549 
-9.170292854 -13.64197254 -0.07513900846 0.9363635778 
-8.31747818 -13.64768505 -0.07305602729 0.9380701184 
-7.508979321 -13.65309525 -0.07122711092 0.9395748973 
-4.485971451 -13.32067394 -0.06425078958 0.9453276992 
-3.836569786 -13.32502365 -0.06338531524 0.9460442066 
-3.839794874 -15.97826672 -0.07511794567 0.9363805056 
-3.374616623 -17.42067909 -0.08111236244 0.9314815998 
-2.577480316 -17.42601585 -0.08052444458 0.9319620728 
-1.790290475 -17.43128777 -0.08009932935 0.9323074222 
-0.2328686416 -17.44171906 -0.07973510772 0.9326047301 
0.5436083674 -17.44691277 -0.07979033887 0.9325595498 
1.322712421 -17.45213318 -0.08000442386 0.9323849678 
22.3692627 -86.29218292 -0.4074841142 0.7000654936 
26.39912605 -85.90625763 -0.4108125269 0.6980337501 
25.20573616 -48.87607193 -0.2513810694 0.8025403023 
30.59196663 -43.80500412 -0.2442398071 0.8075731993 
25.34837914 -27.58753395 -0.1712597609 0.860827744 
25.36402702 -25.25145531 -0.1636065692 0.8666118979 
25.3783741 -23.11120033 -0.156905517 0.8717082739 
25.92074203 -21.57600594 -0.1541647315 0.8738003373 
25.77382278 -19.58033562 -0.1479602009 0.8785583973 
28.32967758 -19.59746933 -0.1574639827 0.8712803125 
30.58951187 -19.20704079 -0.1651043594 0.8654721379 
30.8758049 -15.74925709 -0.1584410071 0.8705381751 
36.14286041 -16.45285034 -0.1815286279 0.8531263471 
46.63711166 -16.40224075 -0.2259861678 0.8205736876 
53.57527542 -16.20308113 -0.2558602989 0.7994031906 
63.42325974 -16.140028 -0.2991625965 0.7696791291 
116.5669708 -18.83486748 -0.5397647023 0.6235537529 
51.49653244 10.21362972 -0.2399862558 0.8105836511 
47.59191132 11.66135216 -0.2239901721 0.822011292 
25.00987816 8.546660423 -0.1208161935 0.8996759057 
47.67901611 29.34921837 -0.2559353709 0.7993513346 
18.16201782 16.2461319 -0.1113873273 0.9071270823 
31.86778259 34.06902695 -0.2132449299 0.82977283 
31.14837265 39.88454437 -0.2313354462 0.8167458177 
32.59677505 50.40727615 -0.2744004726 0.7865356207 
30.84876823 58.53393936 -0.3024861217 0.7674633265 
41.81236267 88.69210052 -0.4482197464 0.675555706 
40.47895432 96.8098526 -0.4796638489 0.6572230458 
35.51937103 96.84308624 -0.4715165496 0.6619204879 
12.04166222 54.34795761 -0.2544534206 0.8003818989 
-0.3965038955 89.12853241 -0.4074240029 0.7001075149 
-4.36706543 89.14959717 -0.4080053568 0.6997516751 
-7.815371037 56.29485321 -0.2597952187 0.7966487408 
-20.6082077 89.24314117 -0.4186775088 0.6932458878 
-20.03820038 33.54795074 -0.1786247194 0.8552950621 
-40.35619354 61.20471573 -0.335118711 0.7458350658 
-27.8536129 35.01865005 -0.2045336813 0.8361204863 
-40.4288559 46.42929459 -0.2814201415 0.7817189097 
-39.94365311 41.94844818 -0.2647728026 0.7931858897 
-39.98929214 35.13513184 -0.2433288544 0.8082132339 
-40.00951004 32.11492538 -0.2345133871 0.8144686818 
-27.30500031 16.47449684 -0.1457751393 0.8802394271 
-40.07851791 21.81085396 -0.2085684091 0.8331698775 
-40.19055557 19.60710335 -0.2044146657 0.8362106085 
-40.10804749 17.4029007 -0.1998519897 0.839553237 
-40.12195206 15.32629395 -0.1963304132 0.8421474695 
-40.13540268 13.31777763 -0.1932984889 0.8443815112 
-40.09236145 9.446273804 -0.1882817 0.8480951786 
-49.65724182 9.390258789 -0.231010586 0.816971302 
-12.11084461 0.6473315358 -0.05543716252 0.9526449442 
-12.10070038 0.1076708958 -0.05531493947 0.952747643 
-92.02037048 -15.71030235 -0.4267196655 0.6883821487 
-88.11601257 -19.11262703 -0.4121527076 0.6972134113 
-38.05076218 -13.76421356 -0.1849653572 0.8505631089 
-19.87982941 -14.0153904 -0.1111831665 0.9072878361 
-18.34568024 -14.19634724 -0.1060354561 0.9113858342 
-15.82067394 -13.40893555 -0.09479919076 0.9203919768 
-14.67519951 -13.60509777 -0.09147628397 0.923073113 
-12.29371071 -13.62104988 -0.0838726759 0.929233849 
-10.26280022 -13.63465786 -0.07800796628 0.9340153337 
-6.889951229 -13.65724564 -0.06992324442 0.9406465888 
-6.1460495 -13.66223145 -0.06848022342 0.9418355227 
-5.430861473 -13.6670208 -0.0672242716 0.9428701401 
-3.835639477 -15.35794353 -0.07235915959 0.9386436939 
-3.535568714 -17.41959953 -0.08124877512 0.9313688874 
-1.947121501 -17.43023491 -0.08017151058 0.9322490096 
-0.3880761564 -17.44067383 -0.07974349707 0.9325982928 
0.3882519305 -17.44587326 -0.07976501435 0.9325789213 
1.908352017 -12.1537323 -0.0562329106 0.9519801736 
25.56282616 -85.90066528 -0.4096769691 0.6987250447 
34.15717316 -85.95821381 -0.4228141606 0.6907424331 
24.69711876 -43.97367096 -0.2305473238 0.8173075318 
30.15608788 -44.01024628 -0.243877247 0.8078290224 
33.48960876 -44.49272537 -0.2545567155 0.800311327 
25.34506798 -28.08134651 -0.1729177833 0.8595791459 
25.37558937 -23.52526855 -0.1581773311 0.8707390428 
25.45297241 -21.57287598 -0.1525102258 0.8750602007 
27.79242706 -19.59387207 -0.155444026 0.8728240132 
28.08701515 -16.27164078 -0.1483796686 0.8782349825 
30.611269 -15.95910645 -0.1578070074 0.8710220456 
35.29382706 -16.44716835 -0.1779917926 0.8557701707 
61.08156204 -16.12434959 -0.2887809575 0.7767019868 
116.4939804 -25.26742554 -0.5448998809 0.6207568049 
116.5598373 -19.89990234 -0.5405271649 0.6231360435 
53.27144241 10.07344246 -0.2478314191 0.805039227 
47.49567795 11.19056892 -0.2230586261 0.8226809502 
47.3943634 13.41803551 -0.2251643389 0.8211653829 
47.73194885 15.83844948 -0.2298919559 0.8177762628 
47.82100296 26.02429962 -0.2488748133 0.8043048382 
47.74248123 28.80574799 -0.2548866272 0.8000827432 
19.74993896 13.14881897 -0.108461298 0.9094571471 
18.35493088 14.7331686 -0.1075910926 0.9101487398 
18.16457939 15.9597702 -0.1105294749 0.9078096747 
18.15848732 17.44532585 -0.1151057407 0.9041824937 
31.1281147 39.13544464 -0.2285841256 0.8187112808 
31.3976059 52.5663414 -0.279889673 0.7827672958 
31.24185562 58.02166367 -0.3012214601 0.7682843208 
46.67172241 96.75840759 -0.4910609424 0.6506975889 
41.49222183 96.80306244 -0.4814370573 0.6562017798 
24.98454094 66.28970337 -0.323829174 0.7532410622 
0.396523416 89.12433624 -0.4074026346 0.700119257 
-3.571762562 89.14537811 -0.4078218043 0.6998625398 
-9.475482941 54.05051041 -0.2507632375 0.8029189706 
-4.854277134 18.06281281 -0.08549728245 0.9279145002 
-32.75354004 89.30233002 -0.4347981215 0.6835321188 
-7.573972225 18.11381149 -0.08974654973 0.924469769 
-18.74432182 35.56603622 -0.1837744117 0.8514502048 
-40.16413879 35.92729568 -0.2463285774 0.8060941696 
-40.02469254 29.84852982 -0.2282327265 0.8189614415 
-27.18258667 16.73247719 -0.1459104866 0.8801347613 
-40.07542038 22.27356339 -0.2095825076 0.8324361444 
-40.09063721 20.00210381 -0.2048028558 0.8359258175 
-40.07704544 11.73256779 -0.1908816546 0.846167326 
-40.08984375 9.822963715 -0.1886744648 0.8478049636 
