# .PCD v0.7 - Point Cloud Data file format
VERSION 0.7
FIELDS x y z intensities
SIZE 4 4 4 4
TYPE F F F F
COUNT 1 1 1 1
WIDTH 926
HEIGHT 1
VIEWPOINT 0 0 0 1 0 0 0
POINTS 926
DATA ascii
-10.09562683 10.98731899 -1.850982428 0.9416304827 
-11.03875256 10.05250931 -1.852078676 0.9415968657 
-11.47851276 9.554513931 -1.852652907 0.9415793419 
-11.5021534 8.738080978 -1.79188776 0.9434402585 
-12.65086174 7.943415165 -1.85305357 0.9415670037 
-12.98209476 7.36741209 -1.851690054 0.9416087866 
-8.001281738 4.08131361 -1.114227533 0.9644438624 
-8.000065804 3.641801596 -1.090399623 0.9651908278 
-8.065217018 3.246486664 -1.078504324 0.9655639529 
-8.191518784 2.880978823 -1.07717514 0.9656056762 
-15.7977705 3.279616594 -2.001500607 0.9370364547 
-15.92799568 2.573557138 -2.001496792 0.9370365739 
-11.89488506 0.3176611364 -1.47608912 0.9531706572 
-11.88534641 -0.2116137594 -1.474613309 0.9532163739 
-11.86625195 -1.272153258 -1.480445504 0.9530357122 
-15.48453617 -4.533112526 -2.001479149 0.9370371103 
-14.43731403 -7.20309782 -2.001482487 0.9370369911 
-14.1025629 -7.838251591 -2.001484394 0.9370370507 
-13.73999214 -8.457782745 -2.00148654 0.9370369315 
-13.35015106 -9.060692787 -2.001488924 0.9370367527 
-11.95912552 -9.77577877 -1.916109562 0.939639926 
-10.19009972 -10.89398861 -1.850460291 0.9416464567 
-9.698630333 -11.34037113 -1.851083279 0.9416273236 
-8.657599449 -12.16489506 -1.852210641 0.9415928721 
-8.11014843 -12.54133797 -1.852712512 0.9415774941 
-6.963925838 -13.21355438 -1.85285604 0.9415730834 
-6.37298584 -13.51833439 -1.853961349 0.9415392876 
-5.714799881 -13.66743088 -1.837691784 0.9420371056 
-3.879992485 -14.43751431 -1.854523897 0.9415220618 
-1.923825622 -14.82566357 -1.854546428 0.9415214062 
3.357648849 -14.5401659 -1.851177216 0.9416244626 
3.99860096 -14.36764622 -1.850046039 0.9416590333 
5.69092989 -15.09936047 -2.00170064 0.937030375 
7.010605335 -14.53387165 -2.001717329 0.9370298386 
7.650090218 -14.20770931 -2.001725435 0.9370297194 
10.59686947 -12.1695509 -2.001755953 0.9370287061 
11.12769985 -11.686203 -2.001761675 0.9370285273 
11.63653564 -11.17961597 -2.00176692 0.9370285869 
12.58429432 -10.10119152 -2.001780748 0.9370278716 
10.8903904 -6.570795536 -1.57780838 0.9500254989 
11.41113758 -6.209985256 -1.6115942 0.948983252 
12.74782658 -6.219135761 -1.759523273 0.9444328547 
15.0748167 -5.758403301 -2.001824379 0.9370266199 
15.31605911 -5.082199574 -2.001829624 0.9370265007 
15.70722389 -3.70083499 -2.001838923 0.9370262027 
16.11444855 -0.8613354564 -2.001853943 0.9370256662 
16.12726593 0.5743163824 -2.001859426 0.937025547 
16.01243591 2.005424738 -2.00186348 0.9370254278 
15.77084446 3.420666456 -2.001866102 0.9370253086 
15.40440655 4.808825493 -2.001867056 0.9370253086 
14.91599846 6.159042835 -2.001866579 0.9370253086 
14.30955315 7.460389137 -2.001867056 0.9370253086 
13.58983898 8.702689171 -2.001866102 0.9370253086 
12.76253796 9.876054764 -2.00186038 0.937025547 
12.31060028 10.43393612 -2.001857042 0.9370256066 
11.83421516 10.97127151 -2.001853466 0.9370256662 
11.33447838 11.48675537 -2.001849413 0.9370258451 
9.70464325 12.89311028 -2.001835346 0.9370262623 
8.520269394 13.70455551 -2.001824617 0.9370265603 
7.902235508 14.06991768 -2.001818895 0.9370267987 
6.62027216 14.71655273 -2.001806259 0.9370271564 
5.505412102 13.85463142 -1.849390984 0.9416791201 
4.886169434 14.09322739 -1.850360513 0.941649437 
3.620383263 14.49631119 -1.853504539 0.9415532947 
2.966971874 14.61817932 -1.850363255 0.9416493773 
2.313332558 14.73335075 -1.850066185 0.9416584373 
0.9943664074 14.87574768 -1.849457622 0.9416770935 
-2.963703632 14.60206604 -1.84832418 0.9417117834 
-3.610098839 14.45513725 -1.848240018 0.9417143464 
-4.880480766 14.07644844 -1.848163605 0.941716671 
-7.869318485 12.65751457 -1.848884225 0.9416946173 
-8.426787376 12.29804134 -1.849357843 0.9416801333 
-9.996809006 11.07616234 -1.850876927 0.9416337013 
-11.39233589 9.655666351 -1.852536678 0.9415828586 
-4.92442131 3.471743107 -0.7474259138 0.9760070443 
-8.003397942 4.172541618 -1.119648933 0.9642739892 
-8.165658951 2.953779221 -1.077187419 0.9656052589 
-8.42228508 2.629196644 -1.09450984 0.965061903 
-9.626322746 2.541152239 -1.235054255 0.960664928 
-15.76796341 3.420038939 -2.001501322 0.9370364547 
-15.90445042 2.715297699 -2.001497507 0.9370365739 
-16.00946999 2.005051136 -2.001494169 0.9370366931 
-11.90638924 0.9557372928 -1.481740117 0.9529955983 
-11.87772179 -0.6348754764 -1.475538611 0.9531877637 
-15.70441628 -3.700170755 -2.001479387 0.9370371103 
-15.52425766 -4.395168304 -2.001479149 0.9370370507 
-15.07218266 -5.757546425 -2.001479864 0.9370371103 
-14.80119133 -6.422250748 -2.001481056 0.9370369911 
-13.43030262 -8.941437721 -2.001488447 0.9370368123 
-10.75242138 -10.33014107 -1.849663019 0.9416707158 
-10.28591251 -10.80215836 -1.850331187 0.941650331 
-9.291250229 -11.68132305 -1.851553559 0.9416129589 
-7.660095215 -12.8246727 -1.853083611 0.9415661097 
-7.08029747 -13.14937496 -1.852619171 0.9415804148 
-5.857780457 -13.66644955 -1.844493985 0.9418289065 
-4.355497837 -13.32404709 -1.738919616 0.9450653195 
-3.363718271 -14.56648445 -1.854529858 0.9415219426 
-2.712375402 -14.70178223 -1.854537368 0.9415216446 
-1.394970655 -14.884799 -1.854552746 0.9415211678 
-0.7315282822 -14.93217278 -1.854560494 0.9415209293 
0.5985229611 -14.93822193 -1.854576707 0.9415204525 
4.505691051 -14.21038055 -1.849290013 0.9416822195 
5.556355 -15.1493597 -2.001698971 0.9370304942 
6.224841118 -14.88725567 -2.001707315 0.9370301962 
7.523496151 -14.27520466 -2.001724005 0.9370295405 
8.762482643 -13.55011654 -2.001738787 0.9370293021 
9.356554985 -13.14700699 -2.001744032 0.9370290041 
9.932191849 -12.71777534 -2.0017488 0.9370288849 
10.48807621 -12.26343441 -2.001754761 0.9370287061 
11.023283 -11.78473091 -2.001760483 0.9370285869 
11.53659439 -11.28279972 -2.001765966 0.9370283484 
12.93583488 -9.646947861 -2.001786232 0.937027812 
10.84144974 -6.67356205 -1.579259276 0.9499807358 
11.22606659 -6.239357948 -1.593232512 0.9495495558 
14.74593735 -6.554777622 -2.001817942 0.9370267987 
15.27023602 -5.218268871 -2.001828671 0.9370265007 
15.67367172 -3.840436935 -2.001837969 0.9370262027 
15.9530468 -2.43218255 -2.001846313 0.9370259643 
16.02962685 1.862873435 -2.001863241 0.9370254874 
15.93091488 2.574162483 -2.001864672 0.9370253682 
15.80065441 3.28020978 -2.001865864 0.9370253086 
15.44658375 4.671584606 -2.001867056 0.9370253086 
14.68734074 6.685983658 -2.001865864 0.9370253682 
14.37542248 7.332651138 -2.001866817 0.9370253086 
14.03497314 7.964935303 -2.001867771 0.9370253086 
12.40294075 10.32399654 -2.001857758 0.9370256066 
11.4362278 11.38545704 -2.001850128 0.9370258451 
10.3789854 12.3567791 -2.001841307 0.9370261431 
8.64186573 13.62820816 -2.001825571 0.9370265603 
8.027105331 13.99905014 -2.001820087 0.9370267987 
7.396351814 14.34227657 -2.001813889 0.9370269179 
6.092311382 14.94279766 -2.001801014 0.9370273352 
2.842264414 10.96437263 -1.405089736 0.9553720951 
2.865191698 13.49946499 -1.711913228 0.945894897 
1.031638145 8.545149803 -1.067725539 0.9659022093 
1.126837134 14.86674786 -1.849513531 0.941675365 
0.4642675817 14.90000248 -1.849245667 0.9416835308 
-0.1990392953 14.90397549 -1.849006414 0.9416908622 
-0.861669898 14.878685 -1.848796487 0.9416972995 
-1.522591472 14.82417583 -1.848615885 0.9417027831 
-2.18027091 14.74057007 -1.848465204 0.9417074323 
-2.066281796 8.598263741 -1.096984744 0.964984417 
-4.122280121 14.31712246 -1.848194718 0.9417157173 
-5.378368855 13.89387035 -1.848167419 0.9417165518 
-5.991139889 13.64111996 -1.848199725 0.9417155981 
-6.592299461 13.3615427 -1.848262787 0.9417136908 
-4.754288197 8.644445419 -1.223834872 0.9610154629 
-7.756008148 12.72639656 -1.848792195 0.9416974187 
-8.316496849 12.37196064 -1.849261284 0.941683054 
-9.388244629 11.5901022 -1.850260019 0.9416524768 
-10.38716507 10.71576118 -1.851303697 0.9416205883 
-10.85673809 10.2461834 -1.851853728 0.9416037202 
-11.30528545 9.756025314 -1.852421165 0.9415863752 
-11.73158455 9.246315956 -1.85298264 0.9415692687 
-4.977288723 3.250165939 -0.7374159098 0.9763245583 
-8.039843559 4.283034801 -1.130038857 0.9639484882 
-7.999843597 3.814968109 -1.099447727 0.9649071097 
-8.02146244 3.396030188 -1.080568671 0.9654992223 
-8.139462471 3.026462317 -1.077242017 0.96560359 
-8.323718071 2.680016994 -1.08476007 0.9653676748 
-15.9909811 2.147548676 -2.001494884 0.9370366931 
-11.88929653 -4.882812391e-06 -1.585363984 0.9531546235 
-11.87022209 -1.059213877 -1.589110017 0.9530466199 
-14.87646484 -1.997827053 -2.001494169 0.9412264824 
-14.06892586 -5.231242657 -2.001492977 0.9412264824 
-13.82229996 -5.851896763 -2.001493692 0.9412264824 
-13.54830265 -6.460971355 -2.001495123 0.9412264824 
-13.2474947 -7.057258129 -2.001496553 0.9412264228 
-12.56783867 -8.206791878 -2.001500607 0.9412263036 
-11.78872776 -9.291347504 -2.001505852 0.9412261248 
-9.652084351 -9.9575243 -1.849183917 0.9455749989 
-9.202348709 -10.38014126 -1.849737525 0.945559144 
-8.247926712 -11.16317558 -1.850767136 0.9455296397 
-6.693500996 -12.17030525 -1.852086186 0.9454919696 
-6.146279335 -12.45761204 -1.85232234 0.9454851151 
-4.43118906 -13.15787601 -1.851343751 0.9455131292 
-3.84249258 -13.3455267 -1.851837516 0.9454990029 
-2.64218998 -13.63966274 -1.852575064 0.9454779029 
-2.033015013 -13.74496078 -1.852745295 0.9454730153 
-0.8032982945 -13.87081528 -1.852686763 0.9454746842 
-0.1854492128 -13.89110851 -1.852458119 0.9454812407 
0.4325756729 -13.8828907 -1.852097154 0.945491612 
1.049431086 -13.84622002 -1.8516047 0.9455056787 
1.467675805 -12.15694332 -1.632823706 0.9517866373 
2.273051739 -13.68083477 -1.849263549 0.9455726743 
6.880551815 -13.34199715 -2.001718044 0.9412201047 
7.46726799 -13.02274132 -2.001723766 0.9412199855 
9.134221077 -11.91310501 -2.001739264 0.941219449 
10.63870335 -10.5914402 -2.001756907 0.9412189126 
11.53800011 -9.604016304 -2.001770496 0.9412186146 
11.95384693 -9.081289291 -2.001777172 0.9412184358 
13.37305164 -6.821405888 -2.001801491 0.9412176609 
14.36966801 -4.345912933 -2.001821518 0.9412171245 
14.54883289 -3.70243144 -2.001826286 0.941216886 
14.69911575 -3.051555157 -2.001829863 0.9412169456 
14.91222382 -1.733027339 -2.001837254 0.9412167072 
15.00727749 -0.4007788002 -2.001843214 0.9412165284 
15.01026821 0.2671996951 -2.001845837 0.9412164688 
14.84120083 2.262687922 -2.00185132 0.94121629 
14.58137703 3.572817326 -2.001853228 0.9412162304 
14.40801716 4.21791029 -2.001853704 0.9412162304 
14.20612526 4.854660511 -2.001853704 0.9412162304 
13.71840286 6.098061562 -2.001852751 0.94121629 
13.43356133 6.70227766 -2.001851797 0.94121629 
12.78467178 7.869737148 -2.001852989 0.9412163496 
12.03463078 8.974862099 -2.001849413 0.9412163496 
11.62346077 9.50130558 -2.001846313 0.9412164688 
11.18928719 10.008955 -2.001842976 0.9412165284 
10.73295116 10.49675274 -2.001839399 0.9412167072 
9.757472038 11.40910149 -2.001831293 0.9412169456 
8.152070999 12.60622311 -2.001816988 0.9412173033 
6.999324322 13.28082371 -2.001806021 0.9412176013 
6.401599407 13.57899666 -2.001800299 0.9412177205 
5.35030508 12.79581738 -1.849390984 0.9455689788 
4.198063374 13.24030209 -1.852134228 0.9454905391 
3.607784271 13.42455673 -1.853600621 0.945448637 
3.003535032 13.55598068 -1.851445913 0.9455102682 
1.78621459 13.76474571 -1.850836277 0.9455277324 
1.17195189 13.82848358 -1.85055542 0.945535779 
-0.06174438447 13.87431145 -1.850072622 0.9455495477 
-0.6787902713 13.8563242 -1.849871516 0.9455552697 
-0.8046703935 8.585922241 -1.149897218 0.9657990336 
-3.718431234 13.36072826 -1.84928298 0.9455721378 
-4.309008598 13.18186474 -1.849250317 0.9455730915 
-5.46360445 12.74685478 -1.849270582 0.9455724955 
-6.025397778 12.49155617 -1.849323511 0.9455709457 
-8.640421867 10.86305141 -1.850855231 0.9455271959 
-9.576852798 10.05747795 -1.851843715 0.9454988837 
-9.918554306 8.714613914 -1.760544419 0.948114574 
-11.88676929 7.171916485 -1.851183891 0.9455177188 
-7.780454159 3.795729876 -1.154352427 0.9656687975 
-10.58477497 2.493898869 -1.450062275 0.9570655227 
-14.74875736 2.78901124 -2.001510859 0.9412260056 
-11.9007616 0.6360741854 -1.589158893 0.9530451894 
-11.87213326 -0.9529736042 -1.588168263 0.9530737996 
-14.89365673 -1.865361333 -2.001494408 0.9412264824 
-14.79593754 -2.526030302 -2.001493454 0.9412264824 
-14.51286316 -3.831096172 -2.0014925 0.9412264824 
-14.32807827 -4.472887993 -2.0014925 0.9412264824 
-13.60525894 -6.340136528 -2.001494646 0.9412264824 
-13.30977535 -6.93908453 -2.001496077 0.9412264228 
-12.640378 -8.094618797 -2.00150013 0.9412263036 
-12.26780033 -8.648908615 -2.001502514 0.941226244 
-11.45057106 -9.705053329 -2.001508474 0.9412260652 
-9.293820381 -10.29723835 -1.849628806 0.9455621839 
-8.829093933 -10.70356178 -1.850162148 0.9455469251 
-7.847009182 -11.45201111 -1.851148486 0.9455187321 
-5.69950676 -12.66959953 -1.852486372 0.9454804063 
-4.548547268 -13.11924267 -1.851529479 0.9455078244 
-3.960893393 -13.31006813 -1.851734877 0.9455019236 
-2.763396025 -13.61523914 -1.852525115 0.9454793334 
-1.542556167 -13.80891037 -1.852785707 0.9454718828 
-0.9267211556 -13.86333466 -1.852716446 0.9454739094 
-0.3090795875 -13.88932133 -1.852514505 0.9454796314 
0.3090209961 -13.88681126 -1.852179885 0.9454892278 
0.9262182117 -13.8558445 -1.851713657 0.9455025196 
1.363869548 -12.20927715 -1.638159394 0.9516329765 
2.151196241 -13.70051193 -1.84926188 0.9455727339 
2.758539915 -13.59130383 -1.849269867 0.9455724955 
3.955637217 -13.29244137 -1.84928453 0.9455721378 
6.158613205 -13.69015598 -2.0017097 0.9412203431 
8.485339165 -12.38358116 -2.001732349 0.9412196875 
9.02782917 -11.99391556 -2.001738071 0.9412195086 
10.05809307 -11.14410114 -2.001749039 0.941219449 
10.54397202 -10.68568325 -2.001755476 0.9412190914 
11.00891304 -10.20610809 -2.00176239 0.941218853 
11.45206547 -9.70632267 -2.001769304 0.9412186146 
10.90840816 -7.690522194 -1.779716134 0.9475649595 
10.80277061 -6.917851448 -1.7105304 0.9495510459 
11.00229263 -6.373962402 -1.695501328 0.9499829412 
13.87602711 -5.729570389 -2.001811028 0.9412174225 
14.33042431 -4.473618031 -2.001820564 0.9412171245 
14.51526833 -3.831733227 -2.001825333 0.9412170649 
14.67136478 -3.182250977 -2.001829147 0.9412170053 
14.79844189 -2.526457548 -2.001832962 0.9412168264 
14.96447468 -1.201184034 -2.001839876 0.9412166476 
15.00311947 -0.5343285799 -2.001842737 0.9412165284 
15.01205254 0.1336084008 -2.00184536 0.9412164688 
14.86075401 2.130515099 -2.001851082 0.94121629 
14.75126934 2.789467812 -2.001852274 0.94121629 
14.61259747 3.442907572 -2.001852989 0.9412162304 
13.49267769 6.582456112 -2.001852036 0.94121629 
12.11415768 8.867407799 -2.00184989 0.941215992 
11.27790165 9.908975601 -2.001843691 0.941216588 
10.82591629 10.40082455 -2.001840115 0.9412167072 
10.35254288 10.87209797 -2.0018363 0.9412167072 
9.858646393 11.32183075 -2.001832008 0.9412168264 
9.345219612 11.74914932 -2.001827717 0.9412170053 
8.813305855 12.15320778 -2.001822948 0.9412170649 
8.26393795 12.53317833 -2.001817942 0.9412173033 
7.117255688 13.21800995 -2.001807213 0.9412175417 
6.5221982 13.52177238 -2.001801491 0.9412167668 
4.894178867 12.98524666 -1.850407243 0.9455400109 
1.295024395 13.81792355 -1.850609541 0.9455341697 
0.06173339859 13.87462711 -1.850116134 0.945548296 
-0.5554528832 13.86209297 -1.849909425 0.9455541968 
-1.171430588 13.82232857 -1.849730372 0.9455593228 
-2.394970655 13.66148376 -1.849455237 0.9455671906 
-3.599390745 13.39336681 -1.849292994 0.9455718398 
-4.191540241 13.21972179 -1.849254608 0.9455729723 
-5.349925518 12.79491329 -1.84926331 0.9455727339 
-5.913949013 12.54460049 -1.849310517 0.9455713034 
-8.045868874 11.30528545 -1.850290298 0.9455432892 
-9.023508072 10.55088139 -1.851246715 0.9455159307 
-9.486462593 10.14176273 -1.851744056 0.9455016851 
-10.35604191 9.26361084 -1.852771282 0.9454723597 
-4.907547474 3.659814358 -0.8163248897 0.9755980968 
-12.12779522 6.74057579 -1.850163221 0.9455469847 
-7.77880621 3.881000996 -1.159187555 0.9655275345 
-7.879201412 3.090432167 -1.128569722 0.9664226174 
-7.988728046 2.729982853 -1.125729442 0.9665056467 
-10.19079113 2.497001886 -1.399077058 0.9585433602 
-14.83865452 2.262292385 -2.001508236 0.9412260652 
-11.87404251 -0.8468383551 -1.587352753 0.9530972838 
-14.81782913 -2.394260168 -2.001493692 0.9412264824 
-14.69665527 -3.051042318 -2.001492977 0.9412264824 
-14.54638386 -3.701794386 -2.0014925 0.9412264824 
-14.36731434 -4.345202446 -2.0014925 0.9412264824 
-13.66114712 -6.218813419 -2.001494408 0.9412264824 
-12.34426975 -8.539381981 -2.001502037 0.9412263036 
-11.95220661 -9.080060959 -2.00150466 0.9412261844 
-9.384531021 -10.21350765 -1.849519014 0.9455653429 
-8.923493385 -10.62394714 -1.850057483 0.9455499649 
-8.444411278 -11.01343441 -1.850569844 0.9455353022 
-6.366721153 -12.345644 -1.852231979 0.9454877377 
-5.572761059 -13.66840267 -1.968260884 0.9421736002 
-4.665615082 -13.07958221 -1.85171926 0.9455023408 
-3.485373497 -13.4453516 -1.852114081 0.9454911351 
-2.277265549 -13.70619583 -1.852693081 0.945474565 
-1.665385723 -13.7946043 -1.852783561 0.945472002 
0.1854321212 -13.88960457 -1.852257371 0.9454869628 
1.416894555 -13.79571724 -1.849251509 0.9455730319 
2.029160023 -13.71910572 -1.84926033 0.9455727339 
3.240534544 -13.48456478 -1.849275947 0.9455723166 
5.419147968 -13.99927711 -2.001700878 0.9412206411 
6.642001629 -13.46233845 -2.001715422 0.9412201047 
7.812263012 -12.81878376 -2.001726627 0.9412198663 
8.374796867 -12.45860577 -2.001731157 0.9412196875 
8.920722008 -12.0737648 -2.001737118 0.9412195683 
9.448996544 -11.66501713 -2.001742601 0.941219449 
10.44844723 -10.77909851 -2.001754045 0.9412190914 
10.91763878 -10.30367184 -2.00176096 0.9412189126 
11.36521912 -9.80784893 -2.001767874 0.9412186742 
10.79033184 -7.046071529 -1.718420863 0.9493243098 
10.93720913 -6.466938496 -1.694273949 0.9500182867 
13.55039978 -6.461967468 -2.00180459 0.9412176609 
13.8244915 -5.852822304 -2.001809835 0.9412174225 
14.07118607 -5.232084751 -2.001815081 0.9412173033 
14.29001236 -4.600971699 -2.001819611 0.9412172437 
14.48059082 -3.960754395 -2.001824141 0.9412170649 
14.77536869 -2.658066273 -2.001832247 0.9412168264 
14.87900352 -1.998173833 -2.001835823 0.9412167668 
15.01264572 -7.324218586e-06 -2.001844645 0.9412164688 
14.95326138 1.334323645 -2.001848936 0.9412163496 
14.87910843 1.998181105 -2.001850605 0.9412163496 
14.77550983 2.658083439 -2.001851797 0.94121629 
14.64265347 3.312719584 -2.001852751 0.9412162304 
14.29027843 4.6010499 -2.001853704 0.9412162304 
14.0714674 5.23217535 -2.001853704 0.9412161708 
13.82478523 5.852939129 -2.001852989 0.9412162304 
13.55072975 6.462111473 -2.001852274 0.94121629 
11.79070187 9.29294014 -2.001847506 0.9412165284 
9.959012985 11.23364925 -2.001832962 0.9412168264 
8.921115875 12.07428837 -2.001823902 0.9412171245 
8.375159264 12.45914268 -2.001818895 0.9412172437 
6.642271996 13.46290493 -2.001802683 0.9412177205 
6.036807537 13.74496555 -2.001796722 0.9412180781 
5.00877142 12.93919563 -1.850123286 0.9455481172 
4.431661129 13.1593647 -1.851554513 0.9455071688 
3.244548321 13.50123787 -1.851563692 0.9455068707 
1.417979717 13.80626202 -1.850664616 0.9455325603 
0.8023071289 13.85367775 -1.850399375 0.9455401897 
0.1852282733 13.87386703 -1.850160599 0.9455470443 
-0.4320812821 13.86677361 -1.849948645 0.945553124 
-1.048395991 13.83244705 -1.84976387 0.9455584288 
-1.662534118 13.77095413 -1.849606872 0.9455628991 
-2.273314238 13.68241501 -1.849477768 0.945566535 
-2.879560471 13.56699753 -1.849376798 0.9455694556 
-3.480082989 13.4249506 -1.849303961 0.9455715418 
-4.659349442 13.06209278 -1.849244356 0.9455732703 
-5.235838413 12.84198475 -1.84925735 0.9455728531 
-4.455715179 8.64002037 -1.29627502 0.9615302086 
-7.944552898 11.3758831 -1.850198984 0.9455459118 
-8.928764343 10.63021469 -1.851147771 0.9455187321 
-4.943058968 3.419440746 -0.8014671803 0.9760369062 
-12.06900597 6.849199295 -1.850420237 0.9455395937 
-7.778844833 3.967878342 -1.16440928 0.9653749466 
-7.78389883 3.543376446 -1.140418887 0.9660761356 
-7.957609653 2.798676729 -1.124810457 0.966532588 
-8.504230499 2.571972609 -1.184713006 0.96478194 
-14.69681072 3.051052094 -2.001512289 0.9412258863 
-14.81794167 2.394252777 -2.001508951 0.9412260652 
-14.90975761 1.732736826 -2.001505613 0.9412261248 
-11.90459919 0.8490111828 -1.591437697 0.9529795051 
-11.87595177 -0.7408178449 -1.586663961 0.9531171918 
-11.86638641 -1.272136211 -1.591378093 0.9529812336 
-14.83854961 -2.262294769 -2.001493692 0.9412264824 
-14.72322464 -2.92013669 -2.001492977 0.9412264824 
-13.97359562 -5.480800629 -2.001493216 0.9412264824 
-13.71594715 -6.096999168 -2.001494169 0.9412264824 
-13.11977768 -7.291940689 -2.00149703 0.9412264228 
-12.78244591 -7.868354321 -2.001499176 0.9412263036 
-12.41978264 -8.42918396 -2.001501322 0.9412263036 
-11.62148857 -9.499699593 -2.001507044 0.9412261248 
-10.8993578 -9.749608994 -1.949972153 0.9426951408 
-9.974616051 -9.755146027 -1.860401988 0.9452539682 
-9.017172813 -10.54351521 -1.849951863 0.9455530047 
-8.048776627 -11.30938721 -1.850960016 0.9455241561 
-7.015151024 -11.98579788 -1.851855993 0.9454984665 
-6.47618866 -12.28817844 -1.852184653 0.945489049 
-5.359553337 -12.81799316 -1.852594614 0.9454773068 
-3.604714394 -13.41316414 -1.852027059 0.9454936385 
-2.399118662 -13.68514633 -1.852659106 0.9454755187 
0.6795409918 -13.87162113 -1.851915836 0.9454968572 
1.294628859 -13.81378365 -1.850055218 0.9455500245 
2.51618886 -13.63823223 -1.849266768 0.9455726147 
3.120390654 -13.51286125 -1.849274397 0.9455723763 
3.718390942 -13.36073685 -1.849281549 0.9455721378 
4.31556654 -13.20188904 -1.852060914 0.9454926848 
5.294338226 -14.04694748 -2.001699209 0.9412206411 
5.913989067 -13.79758263 -2.001706839 0.9412204027 
6.521909237 -13.5208931 -2.001713991 0.9412202239 
7.11693573 -13.21744633 -2.001720428 0.9412200451 
8.263573647 -12.53264904 -2.001730204 0.9412197471 
8.812914848 -12.15268803 -2.001735687 0.9412195683 
10.35216522 -10.87164021 -2.001752615 0.9412189722 
10.82551765 -10.40041447 -2.001759529 0.9412189126 
11.27749252 -9.908600807 -2.001766443 0.9412186742 
12.11359119 -8.867101669 -2.001779795 0.9412183762 
11.41453838 -6.211828709 -1.732848287 0.9489099383 
13.49236012 -6.582297325 -2.001803637 0.9412176609 
14.24850082 -4.72796154 -2.001818895 0.9412172437 
14.6125164 -3.442997932 -2.001827478 0.9412164688 
14.75112724 -2.789465189 -2.001831532 0.9412168264 
14.86062717 -2.13052249 -2.001835108 0.9412167668 
14.94072247 -1.467324138 -2.001838446 0.9412166476 
14.99122047 -0.8012597561 -2.001841545 0.941216588 
15.01205063 -0.1336035132 -2.001844168 0.9412164688 
15.0031538 0.534311533 -2.00184679 0.9412164092 
14.67156219 3.182267904 -2.001852751 0.9412162304 
14.51547527 3.831791878 -2.001853466 0.9412162304 
13.87632561 5.729672909 -2.001853228 0.9412162304 
13.60769749 6.341269493 -2.001852274 0.94121629 
13.31214809 6.940310001 -2.00185132 0.94121629 
12.99030972 7.525624752 -2.001852751 0.9412160516 
11.87295246 9.187644958 -2.001847982 0.9412164688 
11.452528 9.706695557 -2.001845121 0.9412164092 
10.54440403 10.68611908 -2.001837969 0.9412167072 
10.05860806 11.14457607 -2.001833916 0.9412167668 
8.485726357 12.38412189 -2.001820087 0.9412171841 
6.761828423 13.40328312 -2.001803637 0.9412176609 
6.158882141 13.69076157 -2.001797676 0.9412178397 
4.547900677 13.11736584 -1.851266026 0.9455153942 
2.730415583 9.175200462 -1.276481152 0.9621062875 
2.761599779 13.60646439 -1.851332068 0.9455134869 
1.369857192 8.72422123 -1.177578211 0.964990437 
0.9255871177 13.84637165 -1.850450397 0.9455387592 
-0.9252563119 13.84148884 -1.849798679 0.9455574155 
-2.151499033 13.70226002 -1.849501252 0.9455659389 
-1.745461345 8.599862099 -1.170122385 0.9652081132 
-3.360495567 13.45547581 -1.849316359 0.9455711842 
-4.542936802 13.10305309 -1.849245071 0.9455732107 
-7.842614651 11.44555855 -1.850108266 0.9455485344 
-9.755402565 9.88651371 -1.852045059 0.9454931021 
-10.18836117 9.445400238 -1.85256052 0.9454783797 
-4.924064636 3.471496582 -0.803365171 0.9759808183 
-7.779657841 4.05593729 -1.169887066 0.9652149081 
-7.78077364 3.625888586 -1.14464283 0.9659526348 
-7.841808796 3.237961292 -1.131290674 0.9663430452 
-7.936234951 2.870793343 -1.125356317 0.9665165544 
-14.79605198 2.526040077 -2.001509428 0.9412260652 
-14.89374733 1.865349054 -2.001506329 0.9412261248 
-11.88739204 -0.10579101 -1.585173249 0.9531601667 
-11.87786102 -0.634855926 -1.586101651 0.9531334043 
-11.8683033 -1.165610313 -1.590180993 0.9530157447 
-14.02181625 -5.356232643 -2.001493216 0.9412264824 
-13.76967716 -5.974665165 -2.001494169 0.9412264824 
-12.4943037 -8.318325043 -2.001500845 0.9412263036 
-12.11192131 -8.865888596 -2.001503468 0.941226244 
-9.110116959 -10.46224308 -1.84984529 0.9455560446 
-8.638139725 -10.8602047 -1.850368142 0.9455411434 
-7.642700195 -11.59101295 -1.851332307 0.9455134869 
-7.121220589 -11.92235088 -1.851771712 0.9455008507 
-6.585114479 -12.2297411 -1.852136135 0.9454904199 
-4.898620605 -12.99710941 -1.852093577 0.9454916716 
-3.125568867 -13.53528786 -1.85234344 0.945484519 
-1.296530724 -13.83408165 -1.852774024 0.9454722404 
1.172536612 -13.83524418 -1.85145843 0.945509851 
1.583088398 -12.19944763 -1.640360832 0.9515695572 
2.394721508 -13.66006851 -1.849265099 0.9455726743 
5.169094086 -14.09349537 -2.001697779 0.9412207007 
5.790952206 -13.84964371 -2.001705408 0.9412205219 
7.582878113 -12.95578861 -2.00172472 0.9412199259 
10.25497246 -10.96331978 -2.001751184 0.9412190914 
11.18885231 -10.00856686 -2.001765013 0.9412187338 
11.62304211 -9.500961304 -2.001771927 0.941218555 
12.03419399 -8.97454071 -2.001778603 0.9412184358 
13.97583008 -5.481674671 -2.001812935 0.9412173629 
14.40779018 -4.217856407 -2.001822472 0.9412171245 
14.72570515 -2.920627356 -2.001830816 0.941216886 
14.92705822 -1.600258708 -2.001837969 0.9412167072 
14.98349857 -0.9346337914 -2.001841068 0.941216588 
15.01025105 -0.2671899498 -2.001843929 0.9412165284 
14.97464275 1.067963839 -2.001848221 0.9412163496 
14.91231155 1.733034611 -2.001850128 0.9412163496 
14.82047844 2.394677639 -2.001851559 0.94121629 
14.36990738 4.345959187 -2.001853704 0.9412162304 
13.92675781 5.605966568 -2.001853228 0.9412162304 
13.66358852 6.219916821 -2.001852512 0.94121629 
13.37338352 6.821567059 -2.001851559 0.94121629 
13.05669689 7.409723759 -2.001852274 0.9412162304 
12.71412945 7.983201504 -2.001852751 0.9412163496 
12.34642792 8.540856361 -2.00185132 0.9412163496 
11.09982967 10.10814667 -2.00184226 0.9412163496 
9.134616852 11.91360283 -2.001825809 0.9412170649 
8.039569855 12.67827129 -2.001815796 0.9412173033 
2.275294065 13.6942625 -1.851079345 0.945520699 
1.0487988 13.83796978 -1.850502372 0.9455372691 
0.4321410954 13.86905479 -1.850252986 0.9455444217 
-0.1852160543 13.87289047 -1.850030184 0.9455507398 
-1.417216778 13.79881191 -1.849666357 0.9455611706 
-2.029476166 13.72105885 -1.849526048 0.9455652237 
-2.066297531 8.598265648 -1.179169536 0.9649438858 
-3.83718133 13.32705402 -1.849274039 0.9455723763 
-5.576861382 12.69779301 -1.849278808 0.9455721974 
-6.683882713 12.1528101 -1.84942472 0.9455681443 
-7.74005127 11.51435566 -1.850018382 0.9455510974 
-8.737218857 10.78627872 -1.85095191 0.9455244541 
-9.210859299 10.38972378 -1.851446986 0.9455102086 
-10.52049065 9.078857422 -1.852984428 0.94546628 
-10.91714287 8.604411125 -1.853527904 0.9454506636 
-4.924612999 3.53791976 -0.8085595369 0.9758273959 
-11.94849586 7.064870358 -1.850930572 0.9455249906 
-7.78028059 3.710285664 -1.149382114 0.9658141136 
-7.824975491 3.312829494 -1.13307023 0.9662909508 
-7.916625977 2.943630219 -1.126246452 0.9664905667 
-8.093254089 2.605793476 -1.133743644 0.9662712812 
-9.275129318 2.536950588 -1.282211304 0.9619394541 
-10.97465324 2.482871056 -1.500387073 0.9556090236 
-14.77300549 2.657614708 -2.001510382 0.9412259459 
-11.90844917 1.062609792 -1.594229341 0.9528990388 
-11.89884758 0.5298290849 -1.58821106 0.9530725479 
-11.87022209 -1.059208989 -1.589111567 0.9530466199 
-14.87646675 -1.997819781 -2.001494169 0.9412264824 
-14.64001942 -3.312155724 -2.001492739 0.9412264824 
-14.47819042 -3.960109711 -2.0014925 0.9412264824 
-14.28770256 -4.600226879 -2.0014925 0.9412264824 
-14.06892586 -5.231242657 -2.001492977 0.9412264824 
-13.8222971 -5.851891994 -2.001493692 0.9412264824 
-13.54830265 -6.460966587 -2.001495123 0.9412264824 
-13.24749756 -7.057260513 -2.001496553 0.9412264228 
-12.92044926 -7.639611721 -2.001498461 0.9412263632 
-10.33219242 -9.751134872 -1.894415379 0.9442814589 
-9.202355385 -10.38014126 -1.849737525 0.9455590844 
-7.226697922 -11.8579607 -1.851686239 0.9455033541 
-6.693498611 -12.17030716 -1.852086186 0.9454919696 
-5.014228344 -12.95327091 -1.852135539 0.9454905391 
-3.842470646 -13.34553146 -1.851837516 0.9454990029 
-3.245773792 -13.50640583 -1.852272153 0.9454866052 
-2.642182589 -13.63966274 -1.852575064 0.9454779029 
-2.033012629 -13.74496078 -1.852745295 0.9454730153 
-1.419597149 -13.82206535 -1.852782607 0.9454719424 
1.049448252 -13.84622574 -1.8516047 0.9455056787 
1.467687964 -12.15694046 -1.632823467 0.9517866373 
2.273063898 -13.68083477 -1.849263549 0.9455726743 
3.480021954 -13.42477512 -1.849278808 0.945572257 
4.073786736 -13.25672817 -1.849285841 0.9455720186 
6.280204773 -13.6348238 -2.00171113 0.9412202835 
6.88056612 -13.34198666 -2.001718044 0.9412201047 
7.467277527 -13.02273941 -2.001723766 0.9412199855 
8.595214844 -12.30758762 -2.001733541 0.9412196875 
9.134221077 -11.91310501 -2.001739264 0.941219449 
11.09933281 -10.10772419 -2.001763821 0.9412187934 
11.5380125 -9.604001045 -2.001770496 0.9412186146 
10.81896687 -7.484203815 -1.754185796 0.9482973218 
10.814785 -6.790585995 -1.702796102 0.9497733116 
13.92648125 -5.605827332 -2.001811981 0.9412174225 
14.36966991 -4.345898151 -2.001821518 0.9412171841 
14.54888916 -3.702485323 -2.001826286 0.941216588 
15.00728035 -0.4007934332 -2.001843214 0.9412165284 
15.01026821 0.2672094703 -2.001845837 0.9412164688 
14.84120369 2.262692928 -2.00185132 0.94121629 
14.72587395 2.920644522 -2.001852274 0.9412162304 
14.58137703 3.572817326 -2.001853228 0.9412162304 
14.40802002 4.21791029 -2.001853704 0.9412162304 
13.43355465 6.702287674 -2.001851797 0.94121629 
12.78474331 7.869740963 -2.001852989 0.9412161112 
10.25536633 10.96380615 -2.001835346 0.9412167072 
9.757474899 11.40911865 -2.001831293 0.941216886 
8.704796791 12.23114204 -2.001821995 0.9412171245 
7.583211899 12.9563446 -2.001811743 0.9412174225 
4.779155254 13.03030491 -1.850692391 0.9455317855 
4.198057175 13.24030209 -1.852134347 0.9454905987 
3.607781887 13.4245615 -1.853600621 0.9454485774 
2.397151947 13.67394352 -1.851142645 0.9455189109 
1.786216974 13.7647438 -1.850836277 0.9455277324 
1.171970248 13.82848644 -1.85055542 0.9455357194 
-0.8046569824 8.585921288 -1.149897575 0.9657990336 
-1.907346129 13.73876572 -1.849551797 0.9455644488 
-2.516451359 13.63946533 -1.849433899 0.9455677867 
-4.309025764 13.18185997 -1.849250197 0.9455730915 
-4.891114235 12.97709846 -1.849246025 0.9455732107 
-5.46361208 12.74685192 -1.849270582 0.9455724955 
-6.025407791 12.49154758 -1.849323511 0.9455710053 
-6.575405121 12.211689 -1.849404812 0.9455686212 
-8.146564484 11.23380089 -1.850382447 0.9455406666 
-8.640412331 10.86305904 -1.850855231 0.9455271959 
-9.576835632 10.05749512 -1.851843715 0.9454988837 
-10.83952141 8.700680733 -1.853418112 0.9454538226 
-11.21681595 8.210622787 -1.853582621 0.9454491138 
-4.906218052 3.266391516 -0.7859417796 0.9764956236 
-7.800805569 4.245212078 -1.184244633 0.9647956491 
-7.807870865 3.387831926 -1.134914994 0.9662370682 
-7.898046494 3.016994476 -1.127377629 0.9664574265 
-9.004865646 2.549367666 -1.247936487 0.9629377723 
-10.58475304 2.493903637 -1.450059891 0.9570655823 
-14.74875927 2.789013624 -2.001510859 0.9412260056 
-11.87213326 -0.9529907107 -1.588168621 0.9530737996 
-14.51285648 -3.831118107 -2.0014925 0.9412264824 
-14.11491871 -5.105839729 -2.001492977 0.9412264824 
-12.98793411 -7.524289608 -2.001497984 0.9412263632 
-12.64038563 -8.094611168 -2.00150013 0.9412263036 
-12.26781178 -8.648891449 -2.001502514 0.941226244 
-11.87093735 -9.186049461 -2.001505136 0.9412261844 
-11.45058823 -9.7050457 -2.001508474 0.9412260652 
-9.293798447 -10.29724789 -1.849628806 0.9455622435 
-8.346488953 -11.08875465 -1.850669026 0.9455324411 
-7.331586838 -11.79262161 -1.851599574 0.9455058575 
-6.801296234 -12.10982895 -1.852021098 0.9454938173 
-5.69950676 -12.66959953 -1.852486372 0.9454804063 
-5.130173206 -12.91030693 -1.852446198 0.9454815984 
-4.548527718 -13.11924267 -1.851529479 0.9455078244 
-3.36572504 -13.4764204 -1.85219574 0.9454888105 
-2.155246496 -13.72613239 -1.85272181 0.9454737306 
-1.542580485 -13.8089056 -1.852785707 0.9454718828 
-0.3090454042 -13.88932133 -1.852514505 0.9454796314 
0.3090502918 -13.88682556 -1.852179885 0.9454891682 
0.9262475371 -13.85583496 -1.851713657 0.9455025196 
2.151210785 -13.70052719 -1.84926188 0.9455726743 
2.75854969 -13.59130383 -1.849269867 0.9455724955 
3.955644369 -13.29244614 -1.84928453 0.9455720782 
4.917446136 -14.18324661 -2.001694679 0.9412207603 
7.351066589 -13.08869839 -2.001722574 0.9412199259 
9.552429199 -11.58049011 -2.001743793 0.9412193894 
10.05823421 -11.14407444 -2.001749039 0.941219151 
11.00894547 -10.20609856 -2.00176239 0.9412187934 
11.4520874 -9.706303596 -2.001769304 0.9412186146 
10.90839863 -7.690497875 -1.779713154 0.9475650191 
10.80277348 -6.917841434 -1.710529923 0.9495510459 
11.00229454 -6.373960018 -1.695501685 0.9499829412 
13.60737228 -6.341127872 -2.001805782 0.9412176609 
13.87602711 -5.729570389 -2.001811028 0.9412174225 
14.33041954 -4.473635197 -2.001820564 0.9412171245 
14.79843998 -2.526484251 -2.001832962 0.9412168264 
14.89621067 -1.865637183 -2.001836538 0.9412167072 
14.96447468 -1.201154709 -2.001839876 0.9412166476 
15.00311947 -0.5342919827 -2.001842737 0.9412165284 
15.01205254 0.1336230487 -2.00184536 0.9412164688 
14.99127865 0.8012841344 -2.001847506 0.9412163496 
14.75126648 2.789479971 -2.001852274 0.94121629 
14.61259747 3.442907572 -2.001852989 0.9412162304 
14.24876881 4.728039265 -2.001853704 0.9412162304 
13.77213383 5.975727558 -2.001852989 0.94121629 
13.49268532 6.582448483 -2.001852036 0.94121629 
12.11403942 8.867433548 -2.00184989 0.94121629 
11.70754528 9.397519112 -2.00184679 0.9412164092 
10.82575417 10.40083122 -2.001840115 0.9412171245 
9.345210075 11.74915409 -2.001827717 0.9412170053 
8.813305855 12.15320778 -2.001822948 0.9412170649 
8.26393795 12.53317833 -2.001817942 0.9412173033 
7.117255688 13.21800995 -2.001807213 0.9412175417 
5.463961124 12.7476511 -1.849386811 0.9455691576 
4.894191742 12.98523998 -1.850407243 0.9455400109 
4.315065861 13.20033455 -1.851843834 0.9454988837 
2.518805981 13.65253258 -1.851207137 0.9455171227 
1.908671856 13.74875259 -1.850895524 0.9455260038 
1.294991374 13.81792545 -1.850609541 0.9455341697 
-3.000148773 13.54070759 -1.849359989 0.9455699921 
-4.19152689 13.2197237 -1.849254608 0.9455729723 
-4.775406361 13.02009869 -1.849244595 0.9455732703 
-5.913938046 12.54460335 -1.849310517 0.945571363 
-7.533208847 11.64915657 -1.849841237 0.9455561638 
-6.769407749 8.667948723 -1.466542363 0.9565886855 
-9.930920601 9.712363243 -1.852249265 0.9454872608 
-10.76101494 8.796313286 -1.853308678 0.9454569221 
-4.880584717 3.312402248 -0.78652668 0.9764782786 
-11.82406998 7.278412819 -1.851435781 0.9455105662 
-7.790493011 3.463015079 -1.136824369 0.9661812186 
-7.879199028 3.09043932 -1.128569722 0.9664226174 
-7.988720417 2.729995012 -1.125729084 0.9665056467 
-10.19087124 2.497001886 -1.399087071 0.9585430622 
-14.72336864 2.920112133 -2.001511574 0.9412259459 
-14.83866405 2.26226306 -2.001508236 0.9412260652 
-11.88357639 -0.317365706 -1.585167766 0.9531603456 
-14.90966511 -1.732734323 -2.001494646 0.9412264824 
-14.69665527 -3.051042318 -2.001492977 0.9412264824 
-14.54638672 -3.701774836 -2.0014925 0.9412264824 
-14.36732101 -4.345187664 -2.0014925 0.9412264824 
-14.15981197 -4.979990005 -2.001492739 0.9412264824 
-13.92426682 -5.604943752 -2.001493454 0.9412264824 
-13.37099075 -6.82038784 -2.001495838 0.9412264228 
-12.71190357 -7.981828213 -2.001499653 0.9412263036 
-12.34426498 -8.539394379 -2.001502037 0.9412263036 
-11.53646469 -9.602767944 -2.001507759 0.9412261248 
-9.384531021 -10.21350765 -1.849519014 0.9455653429 
-8.923493385 -10.62394714 -1.850057483 0.9455499649 
-8.444411278 -11.01343441 -1.850569844 0.9455353022 
-7.948215008 -11.38113976 -1.851054788 0.9455214739 
-7.435921669 -11.7263422 -1.851511598 0.9455083609 
-6.366738319 -12.34563732 -1.852231979 0.9454877377 
-5.811926365 -12.6180954 -1.85244751 0.9454815984 
-4.66562748 -13.07959461 -1.85171926 0.9455022812 
-4.078918457 -13.2735157 -1.851626992 0.9455050826 
-2.884348154 -13.58969688 -1.852469802 0.9454809427 
-1.665368557 -13.7946043 -1.852783561 0.945472002 
-0.4326782227 -13.88640118 -1.852565408 0.9454782009 
1.416894555 -13.79571724 -1.849251509 0.9455730319 
2.029160023 -13.71910572 -1.84926033 0.9455727339 
2.637458324 -13.61530685 -1.849268317 0.9455725551 
3.24052 -13.48456478 -1.849275947 0.9455723166 
3.837150812 -13.32712364 -1.849283099 0.9455721378 
5.41911602 -13.99930191 -2.001700878 0.9412205815 
6.642018795 -13.46231937 -2.001715422 0.9412201643 
7.812299728 -12.81878662 -2.001726627 0.9412198067 
8.374809265 -12.45859814 -2.001731157 0.9412196875 
10.44844723 -10.77909851 -2.001754045 0.9412190914 
10.91763878 -10.30367184 -2.00176096 0.9412189126 
11.36521912 -9.80784893 -2.001767874 0.9412186742 
10.79032898 -7.046088696 -1.718421578 0.9493242502 
13.82450199 -5.852795124 -2.001809835 0.9412174225 
14.07119846 -5.232050896 -2.001815081 0.9412173033 
14.48059273 -3.960734844 -2.001824141 0.9412170649 
14.64246273 -3.31267333 -2.001828432 0.9412170053 
14.77537346 -2.658049345 -2.001832247 0.9412168264 
14.87900066 -1.99815917 -2.001835823 0.9412167668 
14.95319271 -1.334306598 -2.001839161 0.9412166476 
14.99780273 0.6678149104 -2.001847029 0.9412164092 
14.95326424 1.334304214 -2.001848936 0.9412163496 
14.642663 3.312707424 -2.001852751 0.9412162304 
14.4808054 3.96078372 -2.001853466 0.9412162304 
14.07143974 5.232199669 -2.001853704 0.94121629 
13.55070972 6.462141037 -2.001852274 0.94121629 
12.19246197 8.759260178 -2.001850367 0.9412163496 
10.91808128 10.30407524 -2.00184083 0.9412166476 
10.44889164 10.77952766 -2.001837015 0.9412167668 
9.959021568 11.23363972 -2.001832962 0.9412168264 
9.449430466 11.66551495 -2.001828671 0.9412169456 
8.92113018 12.07427692 -2.001823902 0.9412171245 
7.812644005 12.81933975 -2.00181365 0.9412173033 
7.234580994 13.15417957 -2.001808167 0.9412174821 
5.008761406 12.93919849 -1.850123286 0.9455481172 
4.431647778 13.15936756 -1.851554513 0.9455071688 
2.655796528 9.224000931 -1.279930472 0.9620058537 
3.244535446 13.50123596 -1.851563692 0.9455069304 
0.8023071289 13.85367775 -1.850399375 0.9455401897 
0.1852282733 13.87386703 -1.850160599 0.9455470443 
-0.4320666492 13.8667717 -1.849948645 0.945553124 
-1.048381329 13.83244991 -1.84976387 0.9455583692 
-2.273297071 13.68241501 -1.849477768 0.9455665946 
-2.879533529 13.56700134 -1.849376798 0.9455694556 
-5.235846996 12.84197807 -1.84925735 0.9455728531 
-5.802044392 12.59663773 -1.849298954 0.9455717206 
-6.899303913 12.03220272 -1.849467397 0.945566833 
-7.944552898 11.3758831 -1.850198984 0.9455459118 
-10.27259731 9.354887962 -1.852665544 0.9454753399 
-10.68165302 8.891220093 -1.853200078 0.9454600811 
-4.819386005 3.661274433 -0.8070504069 0.9758719802 
-4.943052769 3.419457912 -0.8014672399 0.9760368466 
-7.78389883 3.543356895 -1.140417814 0.9660761356 
-8.504230499 2.571972609 -1.184713006 0.96478194 
-14.90975761 1.732736826 -2.001505613 0.9412261248 
-11.87595177 -0.740788579 -1.586664438 0.9531171918 
-11.86638641 -1.272111773 -1.591377854 0.9529812336 
-14.72321701 -2.920163393 -2.001492977 0.9412264824 
-14.20355701 -4.853820801 -2.001492739 0.9412264824 
-13.97358608 -5.480832577 -2.001493216 0.9412264824 
-13.71594715 -6.096999168 -2.001494169 0.9412264824 
-13.11977768 -7.291940689 -2.00149703 0.9412264228 
-12.78244591 -7.868354321 -2.001499176 0.9412263036 
-12.41978264 -8.42918396 -2.001501322 0.9412263036 
-10.8993578 -9.749608994 -1.949972153 0.9426951408 
-9.474504471 -10.12895966 -1.849408269 0.9455685616 
-9.017196655 -10.54349804 -1.849951863 0.9455530047 
-8.048749924 -11.30940437 -1.850960016 0.9455241561 
-7.539590836 -11.65915775 -1.851422548 0.9455108643 
-7.015126705 -11.98580742 -1.851855993 0.9454985261 
-5.923832893 -12.56560993 -1.852407217 0.9454827309 
-3.005100012 -13.56304169 -1.852409124 0.9454826713 
-2.399118662 -13.68514633 -1.852659106 0.9454755187 
-1.788088322 -13.77918434 -1.85277617 0.9454721808 
-1.173361778 -13.8449707 -1.852760315 0.9454725981 
-0.5562793016 -13.88233852 -1.852611184 0.9454768896 
0.6795117259 -13.87162113 -1.851915836 0.9454968572 
1.294658184 -13.81378365 -1.850054622 0.9455500245 
1.907048345 -13.73661613 -1.84925878 0.9455727339 
5.294338226 -14.04694748 -2.001699209 0.9412206411 
6.521909237 -13.5208931 -2.001713991 0.9412202239 
7.697868347 -12.88780022 -2.001725674 0.9412199259 
8.263573647 -12.53264904 -2.001730204 0.9412197471 
9.858210564 -11.3213625 -2.001746893 0.9412192702 
10.35213375 -10.87166214 -2.001752615 0.9412189722 
10.82549286 -10.40043926 -2.001759529 0.9412189126 
12.11360836 -8.867077827 -2.001779795 0.9412183762 
13.49236012 -6.582297325 -2.001803637 0.9412176609 
13.77183533 -5.975607872 -2.001808882 0.9412175417 
14.02405453 -5.357094765 -2.001813889 0.9412173629 
14.24850082 -4.72796154 -2.001818895 0.9412172437 
14.75112724 -2.789465189 -2.001831532 0.9412168264 
14.86062717 -2.13052249 -2.001835108 0.9412167668 
14.9407196 -1.467360854 -2.001838446 0.9412166476 
14.99122047 -0.8012963533 -2.001841545 0.941216588 
14.89629841 1.865703106 -2.001850367 0.9412163496 
14.79857635 2.526508808 -2.001851797 0.94121629 
14.67155743 3.182299852 -2.001852751 0.9412162304 
14.51547527 3.831791878 -2.001853466 0.9412162304 
14.11747074 5.106740475 -2.001853704 0.9412162304 
12.26997566 8.65038681 -2.001850843 0.9412162304 
11.45256901 9.706665993 -2.001845121 0.9412163496 
11.00937748 10.20649052 -2.001841545 0.941216588 
10.54438114 10.68614388 -2.001837969 0.9412167072 
9.02821064 11.99443817 -2.001824856 0.9412170649 
7.926389217 12.74932098 -2.001814842 0.9412173629 
6.761828423 13.40328312 -2.001803637 0.9412176609 
5.122953415 12.89213562 -1.849840164 0.9455561638 
4.547900677 13.11736584 -1.851266026 0.9455153942 
1.369876623 8.72423172 -1.177579284 0.9649903774 
0.9255566001 13.84637547 -1.850450397 0.9455387592 
-1.539960861 13.78542233 -1.849636078 0.945562005 
-2.151499033 13.70226002 -1.849501252 0.9455659389 
-3.955611467 13.29230404 -1.84926641 0.9455726147 
-4.542936802 13.10305309 -1.849245071 0.9455732107 
-5.689666748 12.64771366 -1.849288344 0.945571959 
-6.246866226 12.3825264 -1.849352717 0.9455701709 
-6.791840553 12.09298515 -1.849445462 0.9455675483 
-7.323944092 11.78030109 -1.849667192 0.9455611706 
-7.842590332 11.44557571 -1.850108266 0.9455485344 
-8.833358765 10.7086544 -1.851049662 0.9455215931 
-4.924064636 3.471496582 -0.803365171 0.9759808183 
-7.779657841 4.05593729 -1.169887066 0.9652149081 
-7.78077364 3.625888586 -1.14464283 0.9659526348 
-7.841808796 3.237961292 -1.131290674 0.9663430452 
-8.241386414 2.572770834 -1.151242614 0.9657597542 
-9.555088043 2.522348642 -1.317759395 0.9609051943 
-11.41862297 2.476723671 -1.558008552 0.953944087 
-14.89374447 1.865329504 -2.001506329 0.9412261844 
-11.88739014 -0.1058227494 -1.585173488 0.9531601667 
-11.87786102 -0.6348803639 -1.586101651 0.9531334043 
-14.8580904 -2.130158663 -2.001493931 0.9412264824 
-14.74863243 -2.788989305 -2.001493216 0.9412264824 
-14.60996342 -3.442304611 -2.0014925 0.9412264824 
-14.02181625 -5.356232643 -2.001493216 0.9412264824 
-11.09580994 -9.749018669 -1.969522476 0.942137599 
-7.642700195 -11.59101295 -1.851332307 0.9455134869 
-6.035309792 -12.51210213 -1.852365375 0.945483923 
-4.898649693 -12.99709892 -1.852093577 0.9454916716 
-3.125539541 -13.53529739 -1.85234344 0.945484519 
-1.910598159 -13.76264095 -1.852763295 0.9454725385 
-1.296503901 -13.83408165 -1.852774024 0.9454722404 
-0.67979002 -13.8771534 -1.852651596 0.9454756975 
0.55609864 -13.87782192 -1.852009058 0.945494175 
1.172536612 -13.83524418 -1.85145843 0.945509851 
3.5993433 -13.39327621 -1.849280238 0.945572257 
4.191613674 -13.21995068 -1.849287271 0.9455720186 
5.169094086 -14.09349537 -2.001697779 0.9412207007 
6.401298523 -13.57840824 -2.001712561 0.9412202239 
6.998993874 -13.28024387 -2.001719236 0.9412201047 
7.582914829 -12.95576668 -2.00172472 0.9412199259 
8.151806831 -12.60567856 -2.001729488 0.9412195683 
9.757097244 -11.4086256 -2.001745939 0.9412192702 
10.73252869 -10.49633026 -2.001758337 0.9412189722 
11.18885231 -10.00856686 -2.001765013 0.9412187338 
11.62304211 -9.500961304 -2.001771927 0.941218555 
12.03419399 -8.97454071 -2.001778603 0.9412184358 
10.80135918 -7.330771446 -1.740685582 0.9486848712 
10.83975601 -6.67250967 -1.69730866 0.9499310255 
11.22582245 -6.239279747 -1.71256125 0.9494926333 
13.71810246 -6.097956181 -2.001807928 0.9412175417 
13.97581768 -5.481709003 -2.001812935 0.9412173629 
14.20585155 -4.85460186 -2.001817942 0.9412172437 
14.40779781 -4.217829704 -2.001822472 0.9412171245 
14.5812664 -3.57283926 -2.001826763 0.9412166476 
14.84108639 -2.262646437 -2.001834631 0.9412167668 
15.01025105 -0.2671899498 -2.001843929 0.9412165284 
14.69929886 3.051574707 -2.001852512 0.9412162304 
14.54900646 3.702434063 -2.001853228 0.9412162304 
14.16236782 4.980876446 -2.001853704 0.9412162304 
13.92676926 5.605932713 -2.001853228 0.9412162304 
13.37336159 6.821599007 -2.001851559 0.94121629 
12.71405697 7.98321867 -2.001852751 0.9412165284 
11.09982967 10.10814667 -2.00184226 0.9412163496 
10.63910007 10.59187222 -2.001838684 0.9412166476 
9.134616852 11.91360283 -2.001825809 0.9412170649 
8.595596313 12.30811501 -2.001821041 0.9412171841 
8.039569855 12.67827129 -2.001815796 0.9412173033 
7.467607975 13.02330494 -2.001810551 0.9412174821 
6.880866051 13.34256363 -2.001804829 0.9412176609 
6.280511379 13.63541031 -2.001798868 0.9412177801 
2.84221673 10.96437073 -1.510355234 0.9553207755 
2.882663012 13.58176517 -1.851388335 0.9455118775 
1.031638145 8.545149803 -1.147717595 0.965862751 
0.4321410954 13.86905479 -1.850252986 0.9455444217 
-0.1852160543 13.87289047 -1.850030184 0.9455507398 
-0.8020629883 13.84945774 -1.849834561 0.9455563426 
-3.837155581 13.32706165 -1.849274039 0.9455723763 
-4.426117897 13.14297581 -1.849247098 0.9455731511 
-5.006439209 12.93307686 -1.849248648 0.9455730915 
-5.576880932 12.69776917 -1.849278808 0.945572257 
-4.261373043 8.63713932 -1.284257293 0.961879909 
-6.683908463 12.15279388 -1.84942472 0.9455681443 
-7.218516827 11.84445 -1.849581599 0.9455636144 
-8.737218857 10.78627872 -1.85095191 0.9455244541 
-9.210859299 10.38972378 -1.851446986 0.9455102086 
-9.666501045 9.972392082 -1.851944089 0.9454959631 
-10.52049065 9.078857422 -1.852984428 0.94546628 
-10.91714287 8.604411125 -1.853527904 0.9454506636 
-4.924612999 3.53791976 -0.8085595369 0.9758273959 
-4.944336891 3.22864747 -0.7874141335 0.9764520526 
-11.9484911 7.064902306 -1.850930691 0.945524931 
-7.824980259 3.31280756 -1.133069992 0.9662910104 
-7.916630745 2.943610668 -1.126246214 0.9664905667 
-8.093268394 2.605778694 -1.133744955 0.9662712216 
-14.77300549 2.657614708 -2.001510382 0.9412259459 
-11.88929653 -4.882812391e-06 -1.585363984 0.9531546235 
-11.87022209 -1.059208989 -1.589111567 0.9530466199 
-14.87646675 -1.997819781 -2.001494169 0.9412264824 
-14.64002609 -3.312119007 -2.001492739 0.9412264824 
