# .PCD v0.7 - Point Cloud Data file format
VERSION 0.7
FIELDS x y z intensities
SIZE 4 4 4 4
TYPE F F F F
COUNT 1 1 1 1
WIDTH 923
HEIGHT 1
VIEWPOINT 0 0 0 1 0 0 0
POINTS 923
DATA ascii
6.302905083 -4.613684177 -2.006232977 0.9682563543 
7.021864891 -3.425642014 -2.00670743 0.9682489634 
7.416264534 -2.460876465 -2.006959438 0.9682450891 
7.518635273 -2.128605843 -2.007022858 0.9682440758 
7.606081486 -1.79208982 -2.007075787 0.9682432413 
7.735537052 -1.109013677 -2.00714922 0.9682421088 
7.777292252 -0.7638232112 -2.007169485 0.9682418108 
7.789553165 0.6252758503 -2.007142782 0.9682421684 
7.753903866 0.9711449742 -2.007109404 0.9682427049 
7.702863693 1.315078139 -2.007064819 0.9682433605 
7.458551884 2.328391075 -2.006867886 0.96824646 
7.347275257 2.657753944 -2.00678134 0.9682478309 
7.221433163 2.981806517 -2.00668478 0.968249321 
6.383469105 4.500388145 -2.006057978 0.9682590961 
5.230844498 5.79561758 -2.005216122 0.9682722092 
4.694123268 6.236391544 -2.004828215 0.9682782292 
4.411616325 6.438371658 -2.004624844 0.9682813883 
3.82111311 6.803559303 -2.004200935 0.9682880044 
3.514293194 6.966037273 -2.00398159 0.9682914019 
2.55499506 7.369296551 -2.003299475 0.9683020115 
1.889464021 7.565427303 -2.002826452 0.9683094025 
1.472203374 7.253500938 -1.901010036 0.9698958993 
1.117209435 7.115185261 -1.849890351 0.970693469 
0.4802465737 7.184570312 -1.849438787 0.9707005024 
0.1601599157 7.197944164 -1.849212766 0.9707040191 
-0.1601733416 7.197067738 -1.848987222 0.9707075357 
-0.4801073968 7.181948185 -1.848762751 0.9707110524 
-0.7990148664 7.152619362 -1.84853971 0.9707145095 
-1.116264582 7.109138012 -1.8483181 0.9707180262 
-2.052345037 6.896633148 -1.848134875 0.9707208276 
-2.356717587 6.797411919 -1.847835898 0.9707255363 
-2.656289101 6.684684753 -1.847514033 0.9707305431 
-3.240259886 6.422946453 -1.847746372 0.9707270265 
-4.273503304 6.236811161 -1.941866398 0.9692589641 
-4.950146198 6.001042366 -1.998055816 0.9683836699 
-5.462967396 5.536369324 -1.997707963 0.9683890939 
-5.703372478 5.287443638 -1.997545719 0.9683915973 
-5.932477951 5.028110027 -1.997391582 0.9683940411 
-6.149821758 4.758891582 -1.997246027 0.968396306 
-6.354994774 4.480309963 -1.997109175 0.9683983922 
-6.547579288 4.192912579 -1.996981502 0.9684004188 
-6.727223873 3.897275209 -1.996863008 0.9684022069 
-6.661633015 3.473054171 -1.929578781 0.9694505334 
-7.046243668 3.283593655 -1.996655107 0.9684054852 
-7.18500948 2.966760159 -1.996565819 0.9684069157 
-7.309587002 2.644120932 -1.996486783 0.9684081078 
-7.515186787 1.983859777 -1.996359706 0.9684100747 
-7.595812798 1.647556067 -1.996311784 0.9684108496 
-7.71194458 0.9658617973 -1.996248007 0.9684118032 
-7.747210503 0.6218432188 -1.996232152 0.9684121013 
-7.767183781 0.2766039968 -1.996227026 0.9684121609 
-7.771828651 -0.06918212771 -1.996232748 0.9684120417 
-7.693780422 -1.103029728 -1.996314406 0.96841079 
-7.565701962 -1.782580495 -1.996421933 0.968409121 
-7.479180813 -2.117434025 -1.996491194 0.9684080482 
-7.377880573 -2.448132277 -1.996570945 0.9684067965 
-7.262002945 -2.774030685 -1.996660709 0.9684054255 
-6.987443924 -3.40884757 -1.996869922 0.9684021473 
-6.472807407 -4.309374809 -1.997254491 0.9683961272 
-6.27514267 -4.59339571 -1.997400641 0.9683938622 
-6.065074444 -4.868371487 -1.997555137 0.9683914781 
-5.842976093 -5.133764744 -1.997717977 0.9683889747 
-5.364504337 -5.633752346 -1.998066783 0.968383491 
-4.843466759 -6.089392185 -1.998444319 0.9683776498 
-4.283950329 -6.497087479 -1.998847604 0.9683713317 
-3.382163048 -7.011733055 -1.999493957 0.9683613181 
-3.067255735 -7.156052113 -1.999718785 0.9683578014 
-2.746210814 -7.286237717 -1.999947429 0.9683542252 
-1.752575636 -7.58961153 -2.00065279 0.9683432579 
-1.071340322 -7.717199326 -2.001134157 0.9683357477 
-0.3812939227 -7.78377676 -2.001620293 0.9683281779 
-0.03467040882 -7.793984413 -2.001863718 0.9683243632 
0.3121069372 -7.788757324 -2.002107143 0.9683206081 
0.6583495736 -7.768100262 -2.002349854 0.9683167934 
1.346486807 -7.680703163 -2.002831459 0.9683092833 
1.687021494 -7.614094257 -2.003069639 0.9683055878 
2.357624531 -7.43574667 -2.003535986 0.9682983756 
3.009850979 -7.198410511 -2.003987551 0.9682912827 
3.638515472 -6.903903484 -2.004421234 0.9682845473 
4.238632679 -6.554513931 -2.004833698 0.9682781696 
4.526443005 -6.360109806 -2.00503087 0.9682750702 
4.805336952 -6.153044224 -2.005221128 0.9682721496 
5.583014965 -5.460148811 -2.005749226 0.9682639241 
5.820839882 -5.206813812 -2.00590992 0.9682614207 
6.047160625 -4.943095684 -2.006062031 0.9682590365 
6.991020203 -3.487968683 -2.006687164 0.968249321 
7.139604568 -3.17368412 -2.006783485 0.9682477713 
7.589792252 -1.859680176 -2.007066011 0.9682434201 
7.813512802 -0.1390844733 -2.007179022 0.968241632 
7.811923504 0.2086279243 -2.007169008 0.9682418108 
7.794828892 0.5559155345 -2.007148266 0.9682421088 
7.762216568 0.902143538 -2.007116556 0.9682427645 
7.714401722 1.246357441 -2.007074833 0.9682429433 
7.651005745 1.588359356 -2.007021666 0.9682440758 
7.479043007 2.261926174 -2.00688386 0.9682462215 
7.370710373 2.592272997 -2.006799459 0.9682475328 
7.110436916 3.236791849 -2.00660038 0.9682506323 
6.95899868 3.54970932 -2.006486177 0.9682524204 
6.79379034 3.855517387 -2.006362438 0.9682543278 
6.615119457 4.153647423 -2.006229401 0.9682564139 
6.218866825 4.724460125 -2.005936861 0.9682609439 
5.773400784 5.257634163 -2.005610704 0.9682660699 
5.282324314 5.748932838 -2.005253315 0.9682716131 
4.749540806 6.194484711 -2.004868031 0.9682776332 
4.468842506 6.398979187 -2.004665852 0.9682807326 
4.179336071 6.590751648 -2.004457712 0.9682840109 
3.881601572 6.769411564 -2.004244328 0.9682873487 
2.945084095 7.223415375 -2.003575802 0.96829772 
1.552861333 7.316345215 -1.921026468 0.9695838094 
-0.4161731005 7.186105728 -1.848807454 0.9707103968 
-1.052965045 7.118967056 -1.848362207 0.9707173109 
-1.368874431 7.066491604 -1.84872961 0.9707115293 
-2.59680295 6.708285809 -1.847579002 0.9707295299 
-2.892123938 6.584958553 -1.847249389 0.9707346559 
-3.464893818 6.299938679 -1.846690655 0.9707434177 
-3.809222221 6.250344276 -1.880008698 0.9702234864 
-4.194057465 6.239194393 -1.930914521 0.9694296718 
-5.16021347 5.820651531 -1.997913122 0.9683858752 
-6.692337513 3.957045794 -1.996885896 0.9684019089 
-6.861348629 3.655217171 -1.99677515 0.9684036374 
-7.016816139 3.346188784 -1.99667418 0.9684051871 
-7.158399582 3.030607939 -1.996582866 0.9684066176 
-7.398858547 2.382199764 -1.996430874 0.9684090018 
-7.497276306 2.050651789 -1.996370554 0.9684099555 
-7.580888271 1.715073228 -1.996320486 0.9684106708 
-7.741379261 0.6907787919 -1.996234417 0.9684120417 
-7.772130013 -2.441406195e-06 -1.996230721 0.9684120417 
-7.764484882 -0.3457324207 -1.996245027 0.9684118629 
-7.741519451 -0.6907983422 -1.996270061 0.9684115052 
-7.649796009 -1.376174331 -1.996352315 0.9684101939 
-7.581223011 -1.715148926 -1.996409297 0.9684092999 
-6.86200285 -3.655568838 -1.996964335 0.9684006572 
-6.693021297 -3.957451105 -1.997090816 0.9683986902 
-6.510797977 -4.251550198 -1.997226357 0.9683966041 
-6.315684795 -4.537297249 -1.99737072 0.9683943391 
-5.160991192 -5.82152319 -1.998214483 0.9683812261 
-4.897380352 -6.045920372 -1.998405218 0.9683782458 
-4.624049187 -6.258412838 -1.998602748 0.9683751464 
-4.341514587 -6.458564281 -1.998806238 0.9683719873 
-3.44434309 -6.981213093 -1.999449372 0.9683619738 
-3.130732298 -7.128320217 -1.999673367 0.9683585167 
-2.810866594 -7.261354923 -1.999901414 0.9683549404 
-2.485358715 -7.380055904 -2.000132799 0.9683513641 
-1.820019484 -7.573532581 -2.000604868 0.9683439732 
-0.7960864305 -7.751193523 -2.00132823 0.9683327079 
-0.4505541921 -7.779880047 -2.001571655 0.9683289528 
1.278039575 -7.692180157 -2.002783775 0.9683101177 
1.619140625 -7.62863493 -2.003022432 0.9683063626 
2.94562006 -7.224740982 -2.003943205 0.9682919979 
3.264448166 -7.087338924 -2.004163504 0.9682886004 
4.469567776 -6.40002203 -2.00499177 0.9682756662 
4.75028801 -6.195456505 -2.005183697 0.968272686 
5.021645546 -5.978571415 -2.00536871 0.968269825 
5.283092976 -5.749770164 -2.005546331 0.9682670832 
5.53410387 -5.509538651 -2.005716324 0.968264401 
5.77417469 -5.258337498 -2.005878448 0.9682618976 
6.219604492 -4.725021839 -2.006177425 0.9682572484 
6.615834713 -4.154055119 -2.006440878 0.9682531357 
6.794469833 -3.855866671 -2.006558895 0.9682512879 
6.95964098 -3.550002337 -2.006666899 0.968249619 
7.111017704 -3.23705554 -2.006765127 0.9682480693 
7.572902679 -1.927158117 -2.007055998 0.9682435393 
7.651308537 -1.588415504 -2.007102251 0.9682428241 
7.79494381 -0.5559204221 -2.007176638 0.9682416916 
7.811970234 -0.2086254805 -2.007179737 0.968241632 
7.799491882 0.4865112305 -2.007153273 0.9682420492 
7.770014286 0.8329662681 -2.007123709 0.9682424664 
7.725139141 1.177766085 -2.00708437 0.9682430029 
7.66488266 1.520229459 -2.00703311 0.968243897 
7.393549442 2.526616096 -2.006817102 0.9682472348 
7.139030457 3.173432589 -2.006622076 0.9682502747 
6.990407467 3.487665892 -2.006509781 0.9682520628 
6.651917458 4.09465313 -2.006256819 0.9682559967 
6.26076746 4.66899395 -2.005967617 0.9682604671 
5.073991776 5.932837009 -2.005102396 0.9682739973 
3.326853037 7.056896687 -2.003847599 0.968293488 
2.685871601 7.322995663 -2.00339222 0.968300581 
2.357182503 7.434357643 -2.003159285 0.9683042169 
1.636747956 7.387192249 -1.94337678 0.9692354202 
0.9267895222 7.141955376 -1.849755168 0.9706955552 
0.6081030369 7.175236702 -1.849529386 0.9706990719 
-0.3521960378 7.189704418 -1.848852396 0.9707096815 
-0.6716210842 7.166047096 -1.848628759 0.9707131386 
-0.9896118045 7.128220081 -1.848406434 0.9707166553 
-1.305985093 7.078596115 -1.848784566 0.9707106948 
-1.619328618 7.012434006 -1.848505497 0.9707150459 
-1.929403067 6.93252182 -1.848255992 0.9707189798 
-2.235522509 6.838747501 -1.847961783 0.9707235694 
-2.537078857 6.73137188 -1.847643852 0.9707285166 
-3.124188185 6.476906776 -1.846979141 0.9707388878 
-3.408753633 6.330661297 -1.846729279 0.9707428217 
-4.115437031 6.241523266 -1.92022109 0.969596386 
-4.517399788 6.229321003 -1.976395011 0.9687210321 
-5.108287334 5.866452694 -1.997948408 0.9683853388 
-5.363726616 5.632926941 -1.997775078 0.968388021 
-6.274421215 4.592822075 -1.997162938 0.9683975577 
-6.4720788 4.308888912 -1.997031569 0.9683996439 
-6.656945705 4.016469479 -1.996909261 0.9684015512 
-6.828632832 3.716164351 -1.996796489 0.9684032798 
-6.986828327 3.408542395 -1.996693492 0.9684048891 
-7.131206989 3.09423089 -1.99660027 0.9684063196 
-7.261483192 2.773830414 -1.996517301 0.9684076309 
-7.377415657 2.447971106 -1.996444345 0.9684087634 
-7.478770733 2.117311954 -1.99638176 0.9684097767 
-7.565354824 1.782497525 -1.996329665 0.9684105515 
-7.636995792 1.444172382 -1.996288061 0.9684112072 
-7.693571568 1.103000522 -1.996257305 0.9684116244 
-7.761030197 0.4148315191 -1.99622786 0.9684121609 
-7.767240047 -0.2766406238 -1.99624145 0.9684119225 
-7.747334957 -0.621887207 -1.996264338 0.9684115648 
-7.661702633 -1.308059096 -1.996342063 0.9684103727 
-7.596138954 -1.647621989 -1.996397018 0.9684094787 
-7.420159817 -2.316403866 -1.996537924 0.9684073329 
-7.310089111 -2.644301653 -1.996623635 0.968405962 
-7.185573578 -2.966999531 -1.99671936 0.9684044719 
-7.046845436 -3.283871889 -1.996824861 0.9684028625 
-6.727894306 -3.897665977 -1.997064829 0.9683991075 
-6.548285961 -4.193366528 -1.997198462 0.9683970809 
-5.70413208 -5.28819561 -1.997819424 0.9683873653 
-5.463721752 -5.537184715 -1.997994661 0.9683846235 
-5.212483883 -5.775270939 -1.998177171 0.9683818221 
-4.950881004 -6.001999378 -1.998366714 0.9683788419 
-4.398712158 -6.41954565 -1.998765111 0.968372643 
-4.109229565 -6.609555721 -1.99897325 0.9683693647 
-3.811547756 -6.786528111 -1.999186635 0.9683660865 
-3.193986654 -7.100002289 -1.999628305 0.9683592319 
-2.875317335 -7.235881329 -1.999855399 0.9683556557 
-2.550893545 -7.357468128 -2.000086308 0.9683520794 
-1.208491206 -7.696540356 -2.001037359 0.9683372378 
-0.8650268316 -7.743605614 -2.001279593 0.9683335423 
-0.5197387338 -7.775373459 -2.001523018 0.9683297276 
0.1734277308 -7.792692661 -2.002010107 0.9683220983 
0.5199658275 -7.778205395 -2.002253056 0.9683183432 
1.209519029 -7.703066349 -2.002735853 0.968310833 
1.551171899 -7.642485142 -2.002974987 0.9683073163 
1.889824152 -7.566882133 -2.003210783 0.9683033824 
2.555466175 -7.370668888 -2.003673077 0.9682962298 
2.881135225 -7.250510216 -2.003898621 0.9682927132 
3.2011621 -7.115964413 -2.004119873 0.9682892561 
3.514916897 -6.967272758 -2.004336119 0.9682858586 
4.694868088 -6.237380028 -2.005145788 0.9682732821 
5.231635571 -5.796447754 -2.005511284 0.9682676196 
5.484772682 -5.558469296 -2.005682945 0.9682649374 
5.727048397 -5.309443474 -2.005846739 0.9682623744 
5.958051682 -5.049787521 -2.006002188 0.9682599306 
6.384189129 -4.500900745 -2.006287098 0.9682555199 
7.081855297 -3.300187826 -2.006746292 0.9682483673 
7.221992016 -2.982001781 -2.006836414 0.9682469368 
7.347770691 -2.657929659 -2.006916523 0.9682457447 
7.45899868 -2.328493595 -2.006986141 0.9682446122 
7.703107834 -1.315122008 -2.007131577 0.9682423472 
7.75409174 -0.9711352587 -2.007158518 0.96824193 
7.814425945 0.06952881068 -2.007174253 0.9682416916 
7.8035326 0.4171020389 -2.007157803 0.96824193 
7.518219948 2.128525257 -2.006914854 0.9682457447 
7.167065144 3.109797239 -2.006643295 0.9682499766 
7.021240234 3.425373554 -2.006532907 0.9682517052 
6.861523151 3.734064817 -2.006412983 0.9682535529 
6.688177109 4.035363674 -2.00628376 0.9682555795 
5.630721092 5.409582615 -2.005506516 0.9682676792 
5.384000301 5.654225826 -2.005327225 0.9682704806 
5.126698017 5.887548923 -2.005140543 0.9682734013 
4.582231522 6.318674088 -2.004747629 0.9682794809 
4.001609802 6.699563026 -2.004330397 0.9682859778 
3.073185921 7.170183182 -2.003666878 0.9682965279 
2.750869036 7.298976898 -2.003438234 0.9682999849 
2.090873957 7.512834072 -2.002969742 0.9683071375 
1.317092299 7.138994217 -1.864559293 0.9704645276 
0.9903515577 7.133595943 -1.849800229 0.9706948996 
0.3523242176 7.191628456 -1.849348426 0.9707019329 
0.0320263654 7.199304104 -1.849122286 0.9707054496 
-0.288194567 7.192731857 -1.848897219 0.9707089663 
-1.242553711 7.08781004 -1.848229885 0.9707193971 
-1.556927443 7.026777267 -1.848562121 0.9707142115 
-2.174660683 6.85859108 -1.848024249 0.9707226157 
-2.477147102 6.753920555 -1.847708225 0.9707275033 
-3.066525698 6.504704475 -1.847047329 0.9707378149 
-3.660815239 6.254738808 -1.861432314 0.9705133438 
-4.435146332 6.231874943 -1.964599013 0.9689047337 
-4.788432598 6.131393909 -1.998165965 0.9683819413 
-5.560431957 5.438102722 -1.997642159 0.9683901072 
-5.796389103 5.184934139 -1.997483015 0.9683926105 
-6.02086401 4.921559811 -1.997332215 0.9683949351 
-6.433572769 4.366357327 -1.997056961 0.9683992267 
-6.621007919 4.075614929 -1.996932983 0.9684011936 
-6.956285477 3.47064209 -1.9967134 0.9684045315 
-7.103449345 3.157575607 -1.996618152 0.9684060812 
-7.355389118 2.513537645 -1.996458054 0.9684085846 
-7.459669113 2.183815956 -1.996393442 0.9684095979 
-7.72787714 0.8284863234 -1.996240377 0.9684119225 
-7.770879745 0.1383544952 -1.99622798 0.9684121609 
-7.76938343 -0.2074951082 -1.996238112 0.9684119821 
-7.752538681 -0.5529321432 -1.996258855 0.968411684 
-7.720392704 -0.8972289562 -1.996290207 0.9684111476 
-7.672998905 -1.239829063 -1.996332526 0.9684104919 
-7.610462666 -1.579929113 -1.996385098 0.9684096575 
-7.333257675 -2.579133272 -1.996605635 0.96840626 
-7.211626053 -2.902890444 -1.996699452 0.9684047699 
-7.075707912 -3.221013069 -1.996803045 0.9684031606 
-6.925831318 -3.532746553 -1.996916294 0.968401432 
-6.39524889 -4.424040318 -1.99731195 0.9683952928 
-5.977657318 -4.975705624 -1.997619271 0.9683904648 
-5.750898361 -5.237092018 -1.99778533 0.9683879018 
-5.263563156 -5.728566647 -1.998140097 0.9683823586 
-5.004015923 -5.957578182 -1.998328209 0.9683794379 
-4.16778183 -6.572590351 -1.99893105 0.96837008 
-3.871723652 -6.752184868 -1.9991436 0.9683667421 
-3.567885637 -6.918498516 -1.999361038 0.9683633447 
-3.256982327 -7.071135044 -1.999583364 0.9683598876 
-2.939516544 -7.209850788 -1.999809623 0.9683563709 
-1.954460382 -7.539567471 -2.000509739 0.9683455229 
-1.617299795 -7.619965553 -2.000748396 0.9683417678 
-0.2427148372 -7.789709091 -2.001717806 0.9683266282 
0.1040893495 -7.793737411 -2.001961231 0.9683228731 
0.4506982267 -7.782343388 -2.002204657 0.9683190584 
0.7965673804 -7.755522251 -2.002446651 0.9683153033 
1.140876412 -7.713351727 -2.002687693 0.9683115482 
1.483078599 -7.655822754 -2.002927303 0.968307972 
2.489704609 -7.392953873 -2.003627539 0.9682969451 
2.816445351 -7.275695801 -2.003853798 0.9682934284 
3.452717304 -6.998115063 -2.004293203 0.9682865739 
3.760966778 -6.838339806 -2.004505634 0.968283236 
4.061889648 -6.664928913 -2.004712582 0.968280077 
5.179740906 -5.842688084 -2.005475998 0.9682681561 
5.435007095 -5.60695076 -2.005649328 0.9682654738 
5.679494381 -5.36009264 -2.005814552 0.9682629108 
6.724614143 -3.976096153 -2.006512642 0.9682520032 
6.895200253 -3.673254251 -2.006624699 0.9682502747 
7.195085526 -3.046169281 -2.006819248 0.9682472348 
7.323779106 -2.723176241 -2.006901264 0.9682459831 
7.691073895 -1.383598566 -2.007124901 0.9682424664 
7.807021141 -0.3475952148 -2.007179737 0.968241632 
7.81473875 -2.441406195e-06 -2.007176399 0.9682416916 
7.806950569 0.34765625 -2.007161856 0.9682418704 
7.783657074 0.6945531964 -2.007136822 0.9682422876 
7.690849304 1.383515596 -2.007054806 0.9682434201 
7.621428013 1.724284649 -2.006997585 0.9682444334 
7.437468052 2.394667864 -2.006851196 0.968246758 
7.194530964 3.045939922 -2.006664276 0.968249619 
6.894555569 3.672914982 -2.006437778 0.9682531953 
6.723938942 3.97569561 -2.006310463 0.9682551622 
6.53996563 4.270605564 -2.006173611 0.9682572484 
6.343080997 4.556935787 -2.006028175 0.9682595134 
6.133600712 4.834235668 -2.005874157 0.9682619572 
5.911987305 5.101918697 -2.005711794 0.9682644606 
5.43419075 5.606203556 -2.005363464 0.9682698846 
4.061201096 6.663805962 -2.004373074 0.9682853222 
2.489235878 7.391571999 -2.003252745 0.9683027864 
1.393522859 7.193576336 -1.881982565 0.9701927304 
0.4163024724 7.188376427 -1.849393606 0.9707012773 
0.09608153999 7.198908329 -1.849167466 0.9707047343 
-0.2241931111 7.195185184 -1.848942161 0.970708251 
-0.8625976443 7.145051003 -1.848495245 0.9707152247 
-1.179473877 7.098747253 -1.848273993 0.9707186818 
-1.805826426 6.966198444 -1.848366141 0.9707171917 
-2.417042255 6.775929928 -1.84777236 0.9707265496 
-2.715565205 6.660549164 -1.847448349 0.9707315564 
-3.96078372 6.24602747 -1.89962256 0.9699175358 
-5.003248215 5.95665741 -1.998019695 0.9683842063 
-5.511919975 5.487448692 -1.997674823 0.9683896303 
-6.191855431 4.703898907 -1.997218013 0.9683967233 
-6.394516468 4.42353487 -1.997082949 0.9683988094 
-6.584566593 4.13441658 -1.996957064 0.9684007764 
-6.925192833 3.532421827 -1.996733665 0.9684042931 
-7.211080074 2.90267086 -1.996549129 0.9684071541 
-7.33276701 2.578962326 -1.996472239 0.9684083462 
-7.439988613 2.250104904 -1.996405482 0.9684094191 
-7.532516956 1.916843176 -1.996349096 0.9684102535 
-7.672762394 1.23972404 -1.996268272 0.9684115052 
-7.770914078 -0.1383569241 -1.996235132 0.9684120417 
-7.757134914 -0.4838696122 -1.996253729 0.9684117436 
-7.728045464 -0.8285033703 -1.996283174 0.9684112668 
-7.624166012 -1.512150884 -1.996373892 0.9684098959 
-7.355871201 -2.5137012 -1.996588111 0.968406558 
-7.237091064 -2.838588715 -1.996679902 0.9684051275 
-6.95690155 -3.47094965 -1.996892929 0.9684017897 
-6.796010494 -3.777238607 -1.997013807 0.9683998823 
-6.621706486 -4.076052189 -1.997143984 0.9683978558 
-6.434263706 -4.366911411 -1.997282982 0.96839571 
-6.234122276 -4.649120808 -1.997430801 0.9683933854 
-5.797169209 -5.185634613 -1.997751474 0.9683884382 
-5.561214447 -5.438871861 -1.997923732 0.968385756 
-5.314270973 -5.681364536 -1.998103261 0.968382895 
-5.056725979 -5.91270256 -1.998290062 0.968380034 
-4.789193153 -6.132370472 -1.998483539 0.9683769941 
-4.51209116 -6.339997292 -1.998683453 0.9683738947 
-3.629282236 -6.886301041 -1.999317288 0.9683640599 
-3.319694757 -7.041720867 -1.999538541 0.9683606029 
-3.003540039 -7.18321991 -1.999764085 0.9683570862 
-1.002629399 -7.726623535 -2.001182556 0.9683349729 
-0.6580370665 -7.764511585 -2.001425505 0.9683312178 
-0.3120019436 -7.787053108 -2.00166893 0.9683274031 
0.7274487019 -7.762121201 -2.002398252 0.9683160782 
2.091271877 -7.514262676 -2.003350973 0.9683012366 
2.423771858 -7.414640903 -2.003581762 0.9682976604 
2.751479387 -7.300329208 -2.003808737 0.9682940841 
3.699902296 -6.871384144 -2.004463673 0.9682838917 
4.002350807 -6.700675964 -2.004671574 0.968280673 
4.296862602 -6.516676903 -2.004873514 0.968277514 
4.582963943 -6.319689751 -2.005069494 0.9682744741 
5.127463341 -5.888439655 -2.005440474 0.9682686925 
5.631489277 -5.410326958 -2.005782127 0.9682633877 
5.867028713 -5.154897213 -2.005940914 0.9682608843 
6.091005802 -4.889145374 -2.006091356 0.9682585597 
6.302887917 -4.613703728 -2.006232977 0.9682564139 
6.688864708 -4.035776138 -2.006489277 0.9682523608 
7.021848202 -3.425668955 -2.00670743 0.9682489634 
7.16763401 -3.110036612 -2.006801605 0.9682475328 
7.606081486 -1.79208982 -2.007075787 0.9682432413 
7.735537052 -1.109013677 -2.00714922 0.9682421088 
7.77729702 -0.7637890577 -2.007169485 0.9682418108 
7.803610802 -0.4171069264 -2.00717926 0.968241632 
7.789553165 0.6252758503 -2.007142782 0.9682421684 
7.753903866 0.9711157084 -2.007109404 0.9682427049 
7.636523247 1.656354904 -2.007009745 0.9682442546 
7.555026531 1.994379878 -2.00694418 0.9682453275 
7.458557129 2.328359365 -2.006867886 0.96824646 
7.347275257 2.657753944 -2.00678134 0.9682478309 
7.221420765 2.981838226 -2.00668478 0.968249321 
7.081262112 3.299919367 -2.006578207 0.9682509899 
6.759131908 3.915764093 -2.006336689 0.968254745 
6.383469105 4.500388145 -2.006057978 0.9682590961 
5.95728159 5.049142838 -2.005744934 0.9682639837 
3.821142435 6.803539753 -2.004200935 0.9682880044 
3.200558901 7.114687443 -2.003757477 0.9682948589 
2.880607843 7.249181747 -2.003530025 0.9682984352 
2.554960966 7.36930418 -2.003299475 0.9683020115 
2.224389553 7.474777699 -2.003064871 0.968305707 
1.889429927 7.56543684 -2.002826452 0.9683094025 
-0.4800781012 7.181950569 -1.848762751 0.9707110524 
-0.7990148664 7.152619362 -1.84853971 0.9707145095 
-1.11623168 7.10914278 -1.8483181 0.9707180262 
-1.431674719 7.053803444 -1.848674297 0.9707124829 
-2.052345037 6.896633148 -1.848134875 0.9707208276 
-2.356744289 6.797402382 -1.847835898 0.9707255363 
-3.240259886 6.422946453 -1.847746372 0.9707270265 
-3.88458252 6.248212814 -1.889689565 0.9700725079 
-4.678700924 6.215895653 -1.998240829 0.9683808088 
-5.211707592 5.774411678 -1.997878075 0.9683864117 
-5.462967396 5.536369324 -1.997707963 0.9683890939 
-5.70334816 5.287467957 -1.997545719 0.9683915973 
-5.932477951 5.028110027 -1.997391582 0.9683940411 
-6.547560692 4.192941666 -1.996981502 0.9684004188 
-6.727223873 3.897275209 -1.996863008 0.9684022069 
-7.046243668 3.283593655 -1.996655107 0.9684054852 
-7.309587002 2.644120932 -1.996486783 0.9684081078 
-7.419726372 2.316227913 -1.996417999 0.9684091806 
-7.595825195 1.64752686 -1.996311784 0.96841079 
-7.747210503 0.6218798757 -1.996232152 0.9684120417 
-7.771823406 -0.06914794445 -1.996232748 0.9684120417 
-7.761111736 -0.4148364067 -1.996249199 0.9684118032 
-7.735090256 -0.7596411109 -1.996276379 0.968411386 
-7.637276649 -1.444252849 -1.996362925 0.9684100747 
-7.377880573 -2.448132277 -1.996570945 0.9684067965 
-6.987429142 -3.408874512 -1.996869922 0.9684021473 
-6.657619476 -4.016931057 -1.997117162 0.968398273 
-6.27514267 -4.59339571 -1.997400641 0.9683938622 
-6.06509161 -4.8683424 -1.997555137 0.9683914781 
-5.609332085 -5.389035702 -1.997888565 0.9683862925 
-5.364504337 -5.633752346 -1.998066783 0.968383491 
-4.568218708 -6.299462795 -1.998643041 0.9683745503 
-4.283950329 -6.497087479 -1.998847604 0.9683713317 
-3.99108386 -6.681940556 -1.999058008 0.968368113 
-3.690319777 -6.853586197 -1.999273539 0.9683647156 
-3.382141113 -7.011750221 -1.999493957 0.9683613181 
-2.746184111 -7.286257267 -1.999947429 0.9683542252 
-1.413398385 -7.660981178 -2.000892639 0.9683395028 
-1.071374536 -7.717194557 -2.001134157 0.9683357477 
-0.7270776033 -7.758159161 -2.001376867 0.9683319926 
-0.03467040882 -7.793984413 -2.001863718 0.9683243632 
0.6583495736 -7.768100262 -2.002349854 0.9683167934 
1.003400803 -7.73205328 -2.002591372 0.9683130383 
2.357653856 -7.435744286 -2.003535986 0.9682983756 
2.686362267 -7.324352741 -2.003763676 0.9682947993 
3.009882689 -7.198390961 -2.003987789 0.9682913423 
3.638542414 -6.903883934 -2.004421234 0.9682845473 
3.942436457 -6.735910416 -2.004630327 0.9682813287 
4.238632679 -6.554513931 -2.004833698 0.9682781696 
4.805336952 -6.153044224 -2.005221128 0.9682721496 
5.074728966 -5.933757305 -2.005404711 0.9682692885 
5.334152699 -5.702619553 -2.005580902 0.9682665467 
5.582993031 -5.46017313 -2.005749226 0.9682639241 
6.047184944 -4.943068504 -2.006062031 0.9682590365 
6.463473797 -4.386650085 -2.006340027 0.968254745 
6.652609825 -4.095075607 -2.006465197 0.9682527781 
6.828598499 -3.795278311 -2.006581068 0.9682509303 
7.139618874 -3.173657179 -2.006783485 0.9682477713 
7.274023056 -2.853078604 -2.006869793 0.96824646 
7.394028187 -2.526735783 -2.00694561 0.9682452679 
7.499345303 -2.19543457 -2.007011175 0.9682442546 
7.589792252 -1.859680176 -2.007066011 0.9682434201 
7.770180702 -0.8330199718 -2.007166386 0.9682418108 
7.813512802 -0.1391137689 -2.007179022 0.968241632 
7.762216568 0.902143538 -2.007116556 0.9682427645 
7.714345455 1.246437907 -2.007074833 0.9682430625 
7.572529316 1.927092195 -2.006958008 0.9682450891 
7.479043007 2.261926174 -2.00688386 0.9682462215 
6.959015846 3.549675226 -2.006486177 0.9682524204 
6.79379034 3.855517387 -2.006362438 0.9682543278 
6.615140438 4.153617859 -2.006229401 0.9682564139 
6.42334938 4.443483829 -2.006087542 0.9682586193 
6.218885422 4.72443819 -2.005936861 0.9682609439 
6.002068996 4.996022701 -2.005777597 0.9682634473 
5.773424149 5.257609844 -2.005610704 0.9682660699 
5.533331394 5.508771896 -2.005435705 0.9682687521 
5.282297134 5.748957157 -2.005253315 0.9682716131 
5.020885944 5.977663517 -2.005064011 0.9682745337 
4.749516487 6.194506645 -2.004868031 0.9682775736 
4.179306507 6.590768814 -2.004457712 0.9682840109 
3.881601572 6.769411564 -2.004244328 0.9682873487 
2.945051193 7.223427773 -2.003575802 0.96829772 
1.956778526 7.548486233 -2.002874136 0.9683086276 
1.552861333 7.316345215 -1.921026468 0.9695838094 
1.180527329 7.10513401 -1.849935293 0.9706927538 
0.5442273021 7.180182934 -1.849483848 0.9706998467 
0.2242285162 7.196408749 -1.849257946 0.9707033634 
-0.7353625298 7.159611702 -1.848584056 0.9707138538 
-1.052965045 7.118967056 -1.848362207 0.9707173109 
-1.368898869 7.066479206 -1.84872961 0.9707115889 
-2.892095804 6.584972858 -1.847249389 0.9707346559 
-3.181601524 6.448606014 -1.846910834 0.9707399607 
-3.809222221 6.250344276 -1.880008698 0.9702234864 
-4.194018364 6.239191532 -1.930909395 0.969429791 
-4.600629807 6.226711273 -1.988479853 0.9685328007 
-5.16021347 5.820651531 -1.997913122 0.9683858752 
-5.413581371 5.584841251 -1.997741342 0.9683885574 
-5.656176567 5.338088036 -1.997577429 0.9683911204 
-5.887590408 5.08077383 -1.997421622 0.9683935642 
-6.692354679 3.957014084 -1.996885896 0.9684019089 
-7.016816139 3.346188784 -1.99667418 0.9684051871 
-7.158388615 3.030632257 -1.996582866 0.9684066176 
-7.285825253 2.709055185 -1.996501923 0.9684078693 
-7.497276306 2.050651789 -1.996370554 0.9684099555 
-7.580882549 1.715109825 -1.996320486 0.9684106708 
-7.649525166 1.376130342 -1.996281028 0.9684113264 
-7.764417648 0.3456957936 -1.996227264 0.9684121609 
-7.488109112 2.441406195e-06 -1.996430039 0.969476819 
-7.480745792 -0.3331054747 -1.996443868 0.9694766402 
-7.458616734 -0.6655492783 -1.996467948 0.969476223 
-7.421749115 -0.9967016578 -1.996502519 0.9694757462 
-7.304153919 -1.652482867 -1.996602178 0.969474256 
-7.020020485 -2.610249043 -1.996826291 0.9694708586 
-6.8972826 -2.920075655 -1.996920586 0.9694694281 
-6.760903358 -3.224167347 -1.997024179 0.9694678783 
-5.884726524 -4.638073444 -1.997675776 0.9694581032 
-5.450071812 -5.143576622 -1.997994065 0.9694532752 
-5.216314793 -5.381379128 -1.998164177 0.9694507122 
-4.454873085 -6.029450417 -1.99871552 0.9694424272 
-3.613814592 -6.570732117 -1.999319911 0.9694333076 
-3.318293333 -6.725693226 -1.999531388 0.9694301486 
-3.016147375 -6.867387772 -1.999747157 0.96942693 
-2.39437747 -7.109855652 -2.000189781 0.9694202542 
-1.42724359 -7.367809772 -2.000875235 0.9694099426 
-0.4340454042 -7.494845867 -2.001575708 0.9693993926 
0.2338647395 -7.50552702 -2.002044916 0.9693922997 
1.885368586 -7.27310276 -2.003200293 0.9693749547 
2.524894953 -7.078315258 -2.00364399 0.969368279 
2.837570667 -6.959745884 -2.003860474 0.9693650007 
3.144692421 -6.827355862 -2.004072905 0.9693617821 
4.026648045 -6.34997797 -2.00467968 0.9693526626 
4.305546761 -6.165155888 -2.004870653 0.9693498015 
4.837331295 -5.75912571 -2.005233526 0.9693443179 
5.330952168 -5.307277679 -2.005568504 0.9693392515 
5.562189579 -5.065285683 -2.005724669 0.9693369269 
5.99123764 -4.551520824 -2.006012678 0.9693325758 
6.188180923 -4.280786037 -2.006144047 0.9693306088 
6.372870922 -4.001515865 -2.006266594 0.9693287611 
6.704030514 -3.419633627 -2.006484032 0.9693254828 
6.849838734 -3.118171215 -2.006578684 0.9693240523 
7.100436687 -2.497216702 -2.006738901 0.9693216681 
7.294723988 -1.856367111 -2.006858826 0.96931988 
7.370244026 -1.530070782 -2.00690341 0.9693191648 
7.431137562 -1.200710416 -2.006937742 0.9693186879 
7.524987698 -0.2009570301 -2.006978035 0.9693180323 
7.512970924 0.468649894 -2.006952524 0.9693184495 
7.484577656 0.8023803234 -2.006924152 0.9693188667 
7.223491192 2.114663124 -2.006708384 0.9693220854 
7.121992111 2.43379879 -2.00662899 0.9693232775 
7.006364822 2.748083353 -2.006539822 0.9693246484 
6.876840591 3.056879759 -2.006440878 0.9693261385 
6.733691216 3.359582424 -2.006332874 0.9693277478 
6.577187538 3.655583382 -2.006215572 0.969329536 
6.407663345 3.944294453 -2.006089211 0.9693314433 
6.225444317 4.225143909 -2.005954027 0.9693334699 
6.030901909 4.49756813 -2.005810738 0.9693356156 
5.606423378 5.015021801 -2.005499601 0.9693403244 
4.887770653 5.715119362 -2.004977465 0.9693481922 
4.62827158 5.926335335 -2.004789829 0.9693509936 
4.359641075 6.125756741 -2.004596233 0.9693539143 
4.082427979 6.313002586 -2.004396915 0.9693568945 
3.504445791 6.649487019 -2.003982544 0.969363153 
3.204836369 6.798068523 -2.003768682 0.9693663716 
2.587385178 7.05445528 -2.003328562 0.9693729877 
2.270754337 7.161765099 -2.003103733 0.9693763852 
1.94969964 7.254860878 -2.002875805 0.9693798423 
1.239411592 7.069919109 -1.913681149 0.9707232714 
0.8928222656 6.880212307 -1.849737167 0.9716875553 
0.5858080983 6.912309647 -1.84951973 0.971690774 
0.2777124047 6.930707932 -1.849302173 0.9716941118 
-0.03086669929 6.935385704 -1.849084735 0.9716973901 
-0.9533520341 6.86716795 -1.848438621 0.9717071056 
-1.257740498 6.817184925 -1.848226428 0.9717103243 
-1.559827805 6.754814148 -1.848316312 0.9717089534 
-1.858498454 6.67779541 -1.848054409 0.9717128873 
-2.443870783 6.484098911 -1.847460866 0.9717218876 
-2.729494572 6.368088245 -1.847205043 0.9717257619 
-6.045019627 4.424919128 -1.997328281 0.9694632888 
-6.235476017 4.15137434 -1.997201681 0.9694651961 
-6.731447697 3.283967257 -1.996876001 0.9694700837 
-6.870558739 2.981140137 -1.996786356 0.9694714546 
-6.996085167 2.67245841 -1.996706247 0.9694726467 
-7.288885117 1.717351079 -1.996525407 0.9694753885 
-7.357918739 1.391384244 -1.996485353 0.9694759846 
-7.452280045 0.7318896055 -1.996436238 0.9694766998 
-7.477424145 0.3996582031 -1.996427298 0.9694768786 
-7.464221001 -0.5991479158 -1.996462345 0.9694763422 
-7.318528652 -1.587397456 -1.996590257 0.9694744349 
-7.148965836 -2.231740713 -1.996726036 0.9694723487 
-6.922926903 -2.858544827 -1.996900916 0.9694697261 
-6.308887959 -4.040070534 -1.997362614 0.9694627523 
-6.123343468 -4.317014217 -1.997499943 0.9694607258 
-5.716272831 -4.844885349 -1.997799277 0.9694561958 
-5.263906002 -5.33466053 -1.998129725 0.9694512486 
-4.508270264 -5.989445686 -1.998677015 0.9694430232 
-3.958873272 -6.367702484 -1.999072433 0.9694370627 
-3.672070265 -6.538178444 -1.999278188 0.9694339633 
-3.377944231 -6.695759296 -1.999488592 0.9694308043 
-2.140004873 -7.191225529 -2.000370502 0.9694175124 
-1.818203092 -7.280131817 -2.000598669 0.9694140553 
-1.492724538 -7.354650497 -2.000828981 0.9694105983 
-1.164218783 -7.414628506 -2.001061201 0.9694071412 
-0.8333300352 -7.45994854 -2.001294613 0.9694036245 
0.8338183165 -7.464311123 -2.002465487 0.9693859816 
1.494294405 -7.362314224 -2.002927542 0.9693791866 
1.820527315 -7.289431095 -2.003155231 0.9693756104 
2.143224955 -7.202040672 -2.003379345 0.9693722129 
2.461747885 -7.100351334 -2.003600359 0.9693689346 
3.96989727 -6.385431767 -2.004640818 0.9693532586 
4.250427246 -6.203112602 -2.004832983 0.969350338 
4.785805702 -5.801845551 -2.005198479 0.9693448544 
5.283417702 -5.354431152 -2.005536318 0.969339788 
5.516808987 -5.114499569 -2.005694151 0.9693374038 
5.7392869 -4.864391804 -2.005843878 0.9693351388 
5.950412273 -4.604594707 -2.00598526 0.969332993 
6.149760723 -4.335637093 -2.006118536 0.9693309665 
6.336933613 -4.058027267 -2.006242752 0.9693291187 
6.511547565 -3.772329092 -2.006357908 0.9693273902 
6.673264027 -3.479118586 -2.006464005 0.9693258405 
6.821755409 -3.178981781 -2.006560564 0.9693243504 
7.077888012 -2.560290575 -2.006724596 0.969321847 
7.18500948 -2.242980957 -2.006791592 0.9693208337 
7.356303692 -1.595593214 -2.006895304 0.969319284 
7.420138836 -1.266794443 -2.006931782 0.9693187475 
7.46924305 -0.9354785085 -2.006957769 0.9693183303 
7.522900105 -0.2679223716 -2.006978512 0.9693180323 
7.527348518 0.0669946298 -2.006973028 0.9693181515 
7.451171875 1.068239689 -2.006893873 0.9693193436 
7.396105766 1.398601055 -2.006847382 0.9693199992 
7.030605316 2.685644388 -2.006558418 0.96932441 
6.76339817 3.299557924 -2.006355286 0.9693274498 
5.866657734 4.709084511 -2.005689859 0.9693374634 
5.186391354 5.446686745 -2.00519371 0.969344914 
4.13852787 6.276540279 -2.004437208 0.9693562984 
3.854838848 6.453771591 -2.004233599 0.9693593383 
3.563561916 6.618173599 -2.004024982 0.9693624973 
2.650119543 7.031311035 -2.003373384 0.9693723321 
0.9580956697 6.901357174 -1.857640743 0.9715682864 
0.6475097537 6.908979416 -1.850098848 0.9716820717 
0.03086303733 6.935549259 -1.849128246 0.9716967344 
-1.197052002 6.828269005 -1.848268747 0.9717096686 
-1.799047828 6.694289207 -1.848110437 0.9717119932 
-2.956463575 6.271247387 -1.848484397 0.97170645 
-3.29489255 6.251882076 -1.884153128 0.9711683989 
-3.6534338 6.242094517 -1.928322554 0.970502615 
-4.029491901 6.231137753 -1.97840631 0.969748199 
-4.613272667 5.907138348 -1.99829483 0.9694487453 
-4.871058464 5.695568562 -1.998119354 0.9694513679 
-6.005475998 4.478603363 -1.997354507 0.9694629312 
-6.378970623 3.92663312 -1.997106791 0.9694666266 
-6.303473949 3.503439903 -1.92272532 0.9705870152 
-6.972081184 2.734636068 -1.996721268 0.9694724083 
-7.187057972 2.103989124 -1.996586919 0.9694744945 
-7.273350716 1.782155752 -1.996534586 0.9694752097 
-7.345265865 1.456823707 -1.996492624 0.9694758654 
-7.402682781 1.128613234 -1.996460795 0.9694763422 
-7.445483208 0.7981786728 -1.996439338 0.9694766998 
-7.47358036 0.4661865234 -1.996428132 0.969476819 
-7.486912727 0.1332812458 -1.996427417 0.9694768786 
-7.485468388 -0.1998950094 -1.996437192 0.9694766998 
-7.469239235 -0.5326977372 -1.996457219 0.9694764018 
-7.43825531 -0.8644384742 -1.996487498 0.9694759846 
-7.39259243 -1.194489717 -1.996528149 0.9694753289 
-7.332324028 -1.522194743 -1.996578932 0.9694746137 
-7.168487549 -2.168010235 -1.996710658 0.9694725871 
-7.065235615 -2.484843731 -1.996791363 0.969471395 
-6.672645092 -3.403620481 -1.997090697 0.9694668651 
-6.515017986 -3.697297335 -1.997208953 0.9694651365 
-6.161429405 -4.262287617 -1.997471929 0.969461143 
-5.966163158 -4.532473087 -1.997615933 0.9694589376 
-5.759074688 -4.793745041 -1.997768044 0.9694566727 
-5.311086178 -5.28749752 -1.998095393 0.9694517851 
-4.820970535 -5.739653111 -1.998450994 0.9694464207 
-4.561305046 -5.948976994 -1.998638749 0.9694436193 
-3.437331438 -6.665285587 -1.999446273 0.9694314599 
-3.137766123 -6.812321663 -1.999660254 0.9694282413 
-2.520424843 -7.065798283 -2.000100136 0.9694215655 
-1.558081031 -7.340900898 -2.000782728 0.9694113135 
-0.8996679783 -7.45207262 -2.001247883 0.9694042802 
-0.2338232398 -7.504299164 -2.001716614 0.9693972468 
0.1002392545 -7.508144379 -2.001951218 0.9693937302 
2.078999043 -7.220664024 -2.003334761 0.9693729281 
2.39840579 -7.121833324 -2.00355649 0.9693695307 
2.71313715 -7.008844852 -2.003774405 0.969366312 
3.022546291 -6.881952763 -2.003988504 0.9693630934 
3.326035023 -6.741394043 -2.004197836 0.9693599343 
3.622997999 -6.587436199 -2.004402399 0.9693568349 
3.912839174 -6.420388222 -2.004601479 0.9693538547 
4.194972992 -6.240576267 -2.004795074 0.969350934 
4.733896255 -5.844108582 -2.005163193 0.9693453908 
5.909123421 -4.657304764 -2.005957842 0.9693334103 
6.30049324 -4.114211559 -2.006218433 0.9693294764 
6.641970158 -3.538337231 -2.006443501 0.9693261385 
6.930822372 -2.934272289 -2.006630898 0.9693232775 
7.054760456 -2.623166561 -2.006710052 0.9693220854 
7.164714336 -2.30682373 -2.006778955 0.9693210721 
7.341782093 -1.660988688 -2.006886959 0.9693194628 
7.460600376 -1.001916528 -2.006953478 0.9693184495 
7.497851372 -0.6690478325 -2.006971121 0.9693181515 
7.520216942 -0.3348559439 -2.006978273 0.9693180919 
7.460410118 1.001894474 -2.006902218 0.9693192244 
7.260082722 1.985795856 -2.006737232 0.9693216681 
7.164296627 2.306699276 -2.006661892 0.9693228006 
6.93030262 2.93405509 -2.006481647 0.9693255424 
6.792575359 3.239269972 -2.00637722 0.9693270922 
6.641374588 3.538027287 -2.006263494 0.9693288207 
6.477018833 3.829724073 -2.006140709 0.9693306684 
6.11017704 4.389643669 -2.00586915 0.9693347216 
5.908422947 4.656757832 -2.005720615 0.9693369865 
5.69497776 4.914599419 -2.005564213 0.9693393111 
3.325466156 6.740243912 -2.003854752 0.9693650603 
1.755212307 7.30382061 -2.002737284 0.9693818688 
1.389830232 7.174694538 -1.948428512 0.9701996446 
0.09258911014 6.93515873 -1.849171758 0.9716960788 
-0.5240539312 6.914323807 -1.84873879 0.9717025757 
-1.439444542 6.781904221 -1.848424911 0.9717073441 
-2.035915375 6.625180721 -1.847881675 0.9717155099 
-2.619241953 6.424172401 -1.84965682 0.9716886878 
-3.225078106 6.253703594 -1.875979424 0.9712916613 
-3.580399036 6.244138241 -1.919034243 0.9706425667 
-3.952751398 6.23342514 -1.967884898 0.9699066281 
-4.291898251 6.145612717 -1.998514056 0.969445467 
-4.820256233 5.738796234 -1.998153806 0.969450891 
-5.758368015 4.793141842 -1.99751997 0.9694604278 
-7.064785004 2.484675169 -1.996662736 0.9694733024 
-7.16809082 2.167878389 -1.996598482 0.9694743156 
-7.332039833 1.522136211 -1.996500254 0.9694757462 
-7.438094139 0.8644164801 -1.996442795 0.9694766402 
-7.485429287 0.1999047846 -1.996426821 0.9694768786 
-7.27368021 -1.782241225 -1.996626854 0.9694738388 
-7.187448502 -2.104106426 -1.996695638 0.9694728255 
-6.972578049 -2.734824181 -1.996862888 0.9694703221 
-6.70259285 -3.344069719 -1.997068167 0.9694672227 
-6.547585487 -3.639128447 -1.997184515 0.9694654942 
-6.199034214 -4.207223892 -1.997443914 0.9694615602 
-5.585170746 -4.995995998 -1.99789536 0.9694547653 
-5.357836723 -5.239943504 -1.99806118 0.9694522619 
-4.871772289 -5.696415901 -1.998414278 0.9694469571 
-4.613973141 -5.908041954 -1.998600721 0.9694441557 
-3.787704945 -6.471513748 -1.999195218 0.969435215 
-3.198205471 -6.783977032 -1.9996171 0.9694288373 
-2.893559456 -6.920285702 -1.999834538 0.9694256186 
-2.267551184 -7.151667118 -2.000279903 0.9694188833 
-1.62331295 -7.326574326 -2.000736713 0.9694120288 
0.7008056641 -7.477624416 -2.002372265 0.9693874121 
2.01460433 -7.238728046 -2.003289938 0.9693735242 
2.334887743 -7.142726898 -2.003512383 0.9693702459 
2.961125374 -6.908430099 -2.003946066 0.9693636894 
3.855466127 -6.4548316 -2.00456214 0.9693544507 
4.139186859 -6.277541161 -2.004756689 0.9693515301 
4.414748669 -6.08778286 -2.004945278 0.9693486691 
4.939245701 -5.672309399 -2.005302906 0.9693433046 
5.187116623 -5.447433949 -2.00547123 0.9693407416 
6.071462154 -4.444284439 -2.006066322 0.9693318009 
6.443229675 -3.887548685 -2.006313086 0.9693280458 
6.763967037 -3.299826622 -2.006523132 0.9693248868 
7.031086445 -2.685822725 -2.006694794 0.9693223238 
7.143857479 -2.370481014 -2.006766081 0.9693212509 
7.326676846 -1.726262212 -2.006877899 0.969319582 
7.491591454 -0.7357445955 -2.00696826 0.9693182111 
7.516940594 -0.4017651379 -2.006977558 0.9693180323 
7.527368069 -0.06698730588 -2.006976366 0.9693180919 
7.522853851 0.267917484 -2.006964684 0.9693182707 
7.503400803 0.6022924781 -2.006942511 0.9693186283 
7.469064713 0.9354589581 -2.006909847 0.9693191051 
7.27752161 1.921123028 -2.00675106 0.9693214893 
7.184597015 2.242866278 -2.006677628 0.9693225622 
6.956208229 2.872294903 -2.006501436 0.9693252444 
6.821200848 3.178723097 -2.006398916 0.9693267941 
6.67267561 3.478818178 -2.006287098 0.9693284631 
6.510932446 3.771972656 -2.006165981 0.9693302512 
6.149081707 4.335163593 -2.00589776 0.9693343043 
5.949722767 4.604067326 -2.005750895 0.9693365097 
5.516091347 5.113842487 -2.005433559 0.9693412781 
5.282700062 5.353701115 -2.005263805 0.9693438411 
5.038879395 5.582897663 -2.00508666 0.9693465233 
4.785099983 5.800988674 -2.004903078 0.9693493247 
4.521887302 6.007538795 -2.004713058 0.9693521261 
4.249762058 6.20213604 -2.004517078 0.9693551064 
3.385392904 6.710522175 -2.003897429 0.9693644047 
3.083198071 6.853740215 -2.00368166 0.9693676829 
2.461308479 7.099074364 -2.003239155 0.9693743587 
2.142834425 7.200722694 -2.003013134 0.9693777561 
1.820192814 7.288078308 -2.002783537 0.9693812132 
1.468288541 7.234282017 -1.968081832 0.9699036479 
1.095550537 6.977331161 -1.883041501 0.9711852074 
0.770187974 6.894694805 -1.849650383 0.971688807 
0.1543103009 6.93422842 -1.849215031 0.9716953635 
-0.1542895436 6.933410645 -1.84899807 0.9716987014 
-0.7697326541 6.890654087 -1.848567009 0.9717051983 
-1.075386882 6.848798752 -1.848353505 0.9717084169 
-1.379074693 6.794645786 -1.848478675 0.9717065096 
-1.976943374 6.643244267 -1.847940683 0.9717146158 
-2.270136595 6.547685623 -1.847645879 0.9717190862 
-2.558724403 6.43914032 -1.847335815 0.9717237353 
-2.842288733 6.318229675 -1.84712708 0.971726954 
-3.876797915 6.235668659 -1.957624197 0.970061183 
-4.237119198 6.183671951 -1.998551607 0.9694448709 
-4.507577896 5.988515377 -1.998366833 0.9694476724 
-4.769080639 5.781564713 -1.998188615 0.9694503546 
-5.021116734 5.563215256 -1.99801743 0.9694529176 
-5.263182163 5.333920956 -1.997853518 0.9694553614 
-6.122663498 4.316515923 -1.997276545 0.9694640636 
-6.308228493 4.039636135 -1.997153401 0.9694659114 
-6.64156723 3.462597609 -1.996934414 0.9694692492 
-7.042439938 2.547482967 -1.996676922 0.9694731236 
-7.148550987 2.231608868 -1.996610522 0.9694741368 
-7.318231106 1.587333918 -1.996508121 0.9694756269 
-7.487822056 -0.06663329899 -1.996431947 0.9694767594 
-7.452415466 -0.7319164872 -1.996474147 0.9694761634 
-7.358176231 -1.391440392 -1.996557474 0.9694749117 
-7.108223915 -2.358654737 -1.996757865 0.9694719315 
-6.579633713 -3.580676079 -1.997160554 0.9694658518 
-6.236145973 -4.151828289 -1.997416496 0.9694619775 
-5.843301773 -4.690339088 -1.997706294 0.9694576263 
-4.666285515 -5.866638184 -1.998562932 0.9694446921 
-4.401120663 -6.068981647 -1.998754263 0.9694418311 
-4.127204418 -6.259362698 -1.998951554 0.9694388509 
-3.258381367 -6.755105019 -1.999574065 0.969429493 
-2.331049681 -7.131044865 -2.000234842 0.9694195986 
-1.688408136 -7.311674595 -2.00069046 0.9694126844 
-1.361647964 -7.380390644 -2.000921726 0.9694092274 
-0.7004613876 -7.473947525 -2.001388311 0.969402194 
-0.03341796622 -7.508395672 -2.001857519 0.9693951011 
0.6342211962 -7.483393192 -2.002325773 0.9693880677 
0.9665917754 -7.448642254 -2.002558231 0.969384551 
1.297126412 -7.399118423 -2.002789497 0.969381094 
1.625170827 -7.334933758 -2.003019094 0.9693776369 
1.950065851 -7.256198406 -2.003245115 0.9693742394 
2.587839365 -7.055729866 -2.00368762 0.9693675637 
3.505038977 -6.650605202 -2.004321337 0.9693580866 
3.797795296 -6.488761902 -2.004522562 0.9693549871 
4.36031723 -6.126713753 -2.004908085 0.9693492055 
4.888476372 -5.71595192 -2.005268335 0.9693437815 
5.138349533 -5.493288517 -2.005438089 0.9693412185 
5.60713625 -5.015642166 -2.005754948 0.9693365097 
6.4083004 -3.944692373 -2.006289959 0.9693284035 
6.734264851 -3.359865665 -2.00650382 0.9693251848 
6.877380371 -3.057106972 -2.006596565 0.9693238139 
7.006853104 -2.74826169 -2.006679535 0.9693225622 
7.12242651 -2.433945179 -2.006752491 0.9693214893 
7.31099081 -1.791379333 -2.006868601 0.9693197012 
7.441550255 -1.134541035 -2.006943464 0.9693185687 
7.484733582 -0.8023998737 -2.006965399 0.9693182707 
7.513061523 -0.4686425626 -2.006976604 0.9693180919 
7.430969238 1.200627446 -2.00687623 0.9693194032 
7.204333305 2.178842783 -2.006693125 0.9693223238 
7.099985123 2.497077465 -2.006611824 0.9693235755 
6.981557369 2.810302734 -2.006520748 0.9693249464 
6.849291801 3.117927074 -2.006420135 0.9693264961 
6.703447342 3.419335842 -2.006309986 0.9693281054 
6.3722229 4.001115799 -2.006062984 0.9693318605 
5.990548134 4.550993443 -2.005780935 0.9693360925 
5.088454247 5.537936687 -2.005122662 0.9693459868 
4.575259686 5.967175007 -2.004751444 0.9693515897 
4.30487299 6.164186954 -2.004556894 0.9693545103 
4.02600193 6.348952293 -2.004356384 0.9693574905 
3.739194155 6.521098614 -2.004150629 0.96936059 
3.144140482 6.826179028 -2.00372529 0.9693670273 
2.206882238 7.181530476 -2.003058434 0.9693770409 
1.885015845 7.271764755 -2.00282979 0.9693804979 
1.548452139 7.295500278 -1.988407135 0.969597578 
1.166489244 7.020734787 -1.897482753 0.970967412 
-0.4009277225 6.922878265 -1.848824978 0.9717012644 
-0.7084008455 6.897394657 -1.848609924 0.971704483 
-1.014405489 6.858254433 -1.848396063 0.9717077613 
-1.619842529 6.740466118 -1.848261356 0.9717097878 
-2.211851835 6.567843914 -1.847706676 0.9717181325 
-2.501402617 6.461877346 -1.84739852 0.9717227817 
-3.43637085 6.248097897 -1.901149392 0.9709121585 
-3.801596642 6.237863541 -1.947610855 0.9702119827 
-4.454184532 6.028512955 -1.998403311 0.9694470763 
-4.971491814 5.607775688 -1.998051047 0.9694524407 
-5.215587139 5.380629539 -1.997885704 0.9694549441 
-5.449343204 5.142888069 -1.997727752 0.9694573283 
-5.672297001 4.895026684 -1.997577667 0.9694595337 
-5.884013653 4.637521744 -1.997435689 0.9694616795 
-6.27210331 4.095666409 -1.997177362 0.9694655538 
-6.522638798 3.474760771 -1.970393896 0.9698688388 
-6.896761417 2.919851065 -1.996769309 0.969471693 
-7.019540787 2.610065937 -1.996691227 0.9694728851 
-7.12844944 2.29513669 -1.996623039 0.969473958 
-7.223282337 1.975722671 -1.996564746 0.9694747925 
-7.480685711 0.3330981433 -1.996426702 0.9694768786 
-7.480748177 -0.3331030309 -1.996443868 0.9694766402 
-7.458616734 -0.6655443907 -1.996467948 0.969476223 
-7.421749115 -0.9966967702 -1.996502519 0.9694757462 
-7.30414772 -1.652482867 -1.996602178 0.969474256 
-7.223652363 -1.975827575 -1.996667027 0.9694732428 
-7.128880501 -2.295292854 -1.996741772 0.9694721103 
-6.611165524 -3.521916389 -1.99713695 0.9694662094 
-6.448343277 -3.812780619 -1.997258663 0.9694643021 
-6.272759914 -4.096120358 -1.997389317 0.9694623947 
-6.08476305 -4.371398926 -1.997528434 0.9694603086 
