# .PCD v0.7 - Point Cloud Data file format
VERSION 0.7
FIELDS x y z intensities
SIZE 4 4 4 4
TYPE F F F F
COUNT 1 1 1 1
WIDTH 938
HEIGHT 1
VIEWPOINT 0 0 0 1 0 0 0
POINTS 938
DATA ascii
-17.247509 -13.34657955 1.297480583 0.916321516 
-10.04947948 -13.35126686 0.9941911101 0.9352315664 
-9.148769379 -13.35185242 0.9629478455 0.937201798 
-8.301322937 -13.35240459 0.9354029894 0.9389421344 
-7.49946022 -13.35292721 0.9111415148 0.9404776096 
-7.475024223 -14.81699467 0.9873530269 0.935662508 
-6.932412148 -17.44575882 1.116867185 0.9275362492 
-5.191953182 -17.44689178 1.08297646 0.9296557903 
-3.541318178 -17.44797134 1.059219241 0.9311444759 
-1.949211359 -17.44901085 1.04457438 0.9320634604 
-1.627792954 -24.35043144 1.451943159 0.9068377614 
-2.099116087 -94.34056091 5.614111423 0.685146153 
21.10222626 -46.90874863 3.060266018 0.8137430549 
27.12166023 -43.6242485 3.056101084 0.8139674664 
29.89286613 -43.6260643 3.146356106 0.8090344071 
21.11690903 -23.39668655 1.875085831 0.8813579679 
21.11931038 -19.57914352 1.713361621 0.8910108209 
22.92516136 -19.43039703 1.787903547 0.8865486383 
23.36983871 -16.47589111 1.701164365 0.8917429447 
24.04324722 -15.39673042 1.698598385 0.8918972015 
26.97514153 -15.62749767 1.854728818 0.8825672865 
29.86271858 -15.56899643 2.003617287 0.8737610579 
33.58698654 -15.65175056 2.20455265 0.862015903 
37.91273499 -15.65458679 2.440310955 0.8484361768 
49.94240952 -15.59088135 3.112709284 0.8108698726 
59.02044678 8.461549759 3.547279596 0.7874799371 
61.19383621 14.41805363 3.740370512 0.777305007 
33.23913574 11.02945137 2.08356452 0.8690689802 
30.49234772 11.64784622 1.941972733 0.8773966432 
29.96017456 14.61616993 1.983261228 0.8749600053 
70.06556702 38.12989044 4.745744705 0.7264107466 
47.53826523 31.64932632 3.397727013 0.7954522371 
36.67671967 32.22494125 2.904657602 0.8223122954 
30.62915611 32.16642761 2.642528057 0.836959064 
25.08192253 34.58703613 2.541855574 0.842653513 
26.56520844 44.47547913 3.082108021 0.8125423789 
25.15310478 46.71384048 3.156484365 0.8084824085 
25.15594101 52.1519928 3.444852114 0.7929319143 
-4.207802773 105.0075073 6.252361298 0.6563176513 
-13.53635693 104.312027 6.258012772 0.6560681462 
-22.77427101 102.7879486 6.263596058 0.6558209062 
-36.29968262 98.97081757 6.271748066 0.6554610729 
-64.79473877 91.04298401 6.648266315 0.6390486956 
-92.54026794 22.67453384 5.668477535 0.6826420426 
-93.66669464 18.57713127 5.681181431 0.682058394 
-110.3719711 16.82712173 6.642382145 0.6393015981 
-12.31312466 1.319999933 0.7367597818 0.9515887499 
-11.96813488 0.746538043 0.7134211659 0.9530857801 
-11.95475101 0.2127978504 0.7113523483 0.9532184601 
-11.92899132 -0.8507665992 0.7115104795 0.9532083869 
-103.8710709 -21.56368828 6.311494827 0.6537086964 
-97.19099426 -24.73322868 5.966607094 0.6690716743 
-44.07261276 -13.32913303 2.739340067 0.8315181732 
-23.51071167 -13.34249687 1.608305454 0.8973380327 
-19.2914257 -13.34524155 1.39558816 0.9102864265 
-17.56797981 -13.34636974 1.312602043 0.9153886437 
-16.03510857 -13.34736061 1.241244912 0.9197984338 
-13.40857887 -13.3490696 1.125663877 0.9269866943 
-11.21364021 -13.35050488 1.037287474 0.9325209856 
-9.324419022 -13.35173512 0.9688871503 0.9368269444 
-8.466967583 -13.3523016 0.9406376481 0.9386111498 
-7.656542778 -13.35281944 0.9157502651 0.9401857853 
-5.127851486 -16.68696022 1.03859508 0.9324387908 
-4.522744179 -17.44732666 1.07232523 0.9303229451 
-3.703215361 -17.44785881 1.061172366 0.9310221076 
-2.898998976 -17.44838524 1.052309036 0.9315779805 
-2.106542826 -17.44890404 1.04564774 0.9319960475 
-1.62601316 -21.45385933 1.280044317 0.9173980951 
-2.919262648 -93.69054413 5.576758862 0.6868721843 
21.18171883 -48.22775269 3.133818865 0.8097175956 
21.62454605 -43.82957077 2.907719612 0.822142899 
24.10666847 -43.83119202 2.976083279 0.8183656931 
26.71361351 -43.83288956 3.053942919 0.8140856028 
29.37969208 -43.70604324 3.133141518 0.8097544312 
26.97276306 -19.37767792 1.975912333 0.8753931522 
19.72303581 -12.87914753 1.40145731 0.9099283814 
26.97493553 -15.94975281 1.864406586 0.8819923997 
29.2243557 -15.56858158 1.97000742 0.875741303 
32.65103531 -15.57082272 2.152125597 0.8650647998 
41.9711113 -15.60598373 2.664069653 0.835745573 
49.94209671 -16.07979202 3.121479511 0.8103908896 
57.28032684 -15.6673069 3.533027172 0.7882362604 
68.22473907 -15.43495369 4.161563396 0.7555642128 
73.82317352 13.28056335 4.462563515 0.7404009104 
62.23099136 14.07893753 3.795959473 0.7744004726 
70.54504395 41.71186447 4.875802994 0.7200776339 
70.07064819 45.75612259 4.978890896 0.7150948644 
60.85066223 47.95985413 4.609542847 0.7331075668 
31.17941856 32.16606903 2.665190458 0.8356823921 
28.51788712 32.16779709 2.557590008 0.8417608738 
20.60360336 25.43558311 1.947453141 0.8770728111 
25.08148956 33.94647217 2.511086941 0.8444015384 
25.08377457 37.31531525 2.675017118 0.8351297975 
26.56460953 43.58838654 3.036904335 0.8150202036 
25.15294456 45.73400116 3.105280161 0.8112757206 
-21.27799797 100.2517853 6.097267151 0.6632091403 
-30.76953125 100.1279602 6.231962204 0.6572194695 
-21.61719513 37.69979095 2.586169958 0.8401804566 
-95.23982239 38.33685684 6.108049393 0.6627278924 
-101.1334381 35.56845856 6.378126144 0.6507813334 
-110.4800568 33.41299057 6.866965771 0.6297042966 
-93.80773163 23.87220001 5.758905411 0.6784971356 
-93.50235748 19.41111565 5.681471825 0.6820452213 
-12.34399414 1.434558034 0.7393385172 0.951423347 
-11.97086143 0.8537402153 0.7140067816 0.9530480504 
-11.95739746 0.3193286061 0.7116511464 0.953199327 
-11.94429874 -0.2126220614 0.7107301354 0.9532583952 
-97.04134369 -23.77794647 5.944200516 0.6700822711 
-45.64416885 -13.36235046 2.829542875 0.8264830112 
-39.24879837 -13.41259003 2.467664003 0.8468747139 
-34.20425797 -13.41587162 2.185893059 0.8630999923 
-30.4400692 -13.53118896 1.981874228 0.8750417233 
-30.44112015 -15.18775082 2.023969412 0.872564435 
-24.00546074 -13.34216976 1.633954525 0.8957888484 
-19.66288757 -13.34499741 1.413809657 0.9091699123 
-14.92219925 -13.34808826 1.191138387 0.9229078293 
-13.64930153 -13.34891319 1.135855198 0.926350832 
-12.48710918 -13.34967518 1.087528467 0.9293708205 
-11.41774178 -13.35037804 1.045133829 0.9320283532 
-7.474633694 -14.18274117 0.9538029432 0.9377791286 
-7.475668907 -15.85735035 1.043004274 0.9321620464 
-1.59402585 -12.28375721 0.7369434834 0.9515770674 
-1.624604464 -19.16939163 1.144556999 0.9258078933 
23.60077095 -43.83086014 2.961686373 0.8191600442 
26.18117523 -43.83254623 3.037556171 0.8149843812 
31.69594574 -43.70755768 3.212128878 0.8054580092 
21.11637115 -24.25046158 1.913076878 0.8791057467 
21.11767578 -22.17755508 1.821925521 0.8845195174 
21.11886215 -20.28963661 1.742332578 0.889272511 
22.11422729 -19.42986488 1.751356959 0.8887336254 
26.54777336 -19.43276978 1.957366705 0.8764872551 
24.44955063 -14.75167179 1.698863387 0.8918812871 
28.60727501 -15.56818104 1.93767345 0.8776506782 
40.98664474 -15.65659904 2.610323429 0.83877635 
49.94178772 -16.57175446 3.130556583 0.809895575 
55.33529282 -15.66602707 3.421525717 0.7941781878 
103.8802109 -14.89292717 6.24347353 0.6567107439 
118.3547058 14.8234787 7.096450806 0.620046258 
74.34217834 12.69217491 4.486930847 0.7391866446 
30.0632534 14.00965214 1.973263621 0.8755493164 
70.0644989 36.52826309 4.700929642 0.7286087871 
70.19688416 40.66711044 4.826535702 0.7224713564 
70.07006073 44.87118912 4.950285435 0.7164745927 
45.41279221 32.01629257 3.305748224 0.8003955483 
61.97663498 47.95911026 4.662305832 0.7305065989 
32.32117844 32.75574493 2.737774611 0.8316073418 
29.03281975 32.16746521 2.577998638 0.8406045437 
25.0832901 36.60689545 2.640126944 0.837094605 
25.08880615 44.67103577 3.04800415 0.8144034147 
25.10717773 55.81147385 3.641031504 0.7825260758 
-16.32067299 103.941452 6.259696484 0.6559937 
-62.26983261 100.1588135 7.016631126 0.6233885288 
-68.67391205 83.25317383 6.420763969 0.6489159465 
-95.9801178 55.60396194 6.599314213 0.6411589384 
-105.7215042 49.26678467 6.93924284 0.6266456246 
-92.26940918 20.01348877 5.617154598 0.6850060225 
-12.37507057 1.549880385 0.74199754 0.9512529969 
-11.97360325 0.961079061 0.7146531343 0.9530066252 
-11.9340477 -0.6378808618 0.7110221982 0.9532397389 
-11.92147636 -1.170837402 0.7126725316 0.9531337023 
-97.46099091 -22.96310234 5.957139015 0.6694981456 
-47.07396698 -13.32717514 2.910720825 0.8219771981 
-40.41878891 -13.41182804 2.533614874 0.8431211114 
-35.11918259 -13.41528988 2.236640215 0.8601548076 
-30.73934555 -13.3378191 1.993551135 0.874353826 
-30.44200325 -16.56663704 2.061943769 0.8703353405 
-22.11545181 -13.34340096 1.536680102 0.901677072 
-20.04419136 -13.34475327 1.432631969 0.908018291 
-18.23214531 -13.34593487 1.344261289 0.9134386778 
-12.71153736 -13.34952831 1.096688032 0.9287977219 
-11.62486744 -13.35024166 1.053178549 0.9315235019 
-10.61920357 -13.35089588 1.014920473 0.9339268208 
-8.803872108 -13.35207748 0.9515122771 0.9379239678 
-7.975507736 -13.3526144 0.9253245592 0.9395796657 
-7.474442959 -13.88137913 0.9379746914 0.9387794733 
-7.475444317 -15.4977169 1.023684263 0.9333757162 
-7.476652622 -17.44338036 1.129092574 0.9267726541 
-6.060017109 -16.07844353 1.022264242 0.9334650636 
-4.028969765 -17.44765282 1.065351963 0.930760026 
-1.635302663 -17.44921684 1.042679906 0.9321824908 
-1.038117647 -21.19234085 1.262337208 0.9184929132 
21.1485939 -50.57928467 3.261638641 0.8027768731 
25.65463829 -43.83220673 3.021597147 0.8158609867 
28.2630558 -43.70530319 3.096535683 0.8117534518 
31.10610199 -43.70716858 3.191642284 0.8065705299 
21.11462402 -27.03642273 2.040921211 0.871568799 
21.1160984 -24.69029427 1.932880044 0.8779341578 
21.11863708 -20.65385437 1.757429361 0.8883702159 
21.72092247 -19.42960167 1.733834624 0.8897829652 
28.00981903 -15.56778049 1.906519294 0.879494369 
39.9152832 -15.65589046 2.550867319 0.8421420455 
107.552475 -21.33117294 6.523398399 0.6444454193 
74.87197876 12.09774113 4.512235165 0.7379282713 
61.74905777 12.8191328 3.75204587 0.776694119 
31.9492569 12.86052799 2.049015284 0.8710938096 
30.08950806 13.69722748 1.96690619 0.8759242892 
70.06665802 39.76326752 4.793051243 0.7241018414 
70.06948853 43.99670792 4.922392845 0.7178217769 
29.5562973 32.16712189 2.598956823 0.8394190073 
27.01991081 32.16876984 2.499403715 0.8450662494 
25.08282661 35.91633606 2.606317759 0.8390026689 
25.61113739 44.66514969 3.063185453 0.8135792017 
-0.5323443413 9.192140579 0.5477987528 0.9637770653 
-15.39344215 104.0732422 6.2591362 0.6560186148 
-61.28981781 100.5671234 7.006738663 0.6238033772 
-62.35396194 92.75945282 6.649625778 0.638989687 
-98.07542419 64.04322815 6.968797684 0.625400126 
-105.4978104 50.30986404 6.953682899 0.6260371208 
-103.1500168 43.66988373 6.664156437 0.6383646727 
-100.0997467 37.21971893 6.353727341 0.6518523693 
-98.5689621 17.73219872 5.958430767 0.6694402695 
-111.493103 14.97285366 6.692751408 0.6371362805 
-11.96273899 0.5326732993 0.7124201655 0.9531499147 
-11.94949722 -4.882812391e-06 0.7109263539 0.953245759 
-12.28201866 -1.649404287 0.7372694016 0.9515559673 
-74.3742218 -13.37971401 4.495873451 0.7387416363 
-49.15171814 -13.44398689 3.031658888 0.8153082132 
-41.40357971 -13.33087635 2.58779788 0.8400492668 
-36.0007019 -13.3862133 2.285109043 0.8573516607 
-30.44069672 -14.51675987 2.006445408 0.8735950589 
-18.57653809 -13.3457098 1.360841513 0.9124192595 
-15.46718502 -13.34773159 1.215484381 0.9213958383 
-14.14400578 -13.34859562 1.157068014 0.9250283241 
-12.93989944 -13.3493824 1.106093287 0.9282094836 
-10.81452084 -13.35076904 1.022188902 0.9334697723 
-9.8647089 -13.35138893 0.987627089 0.9356452823 
-7.476391315 -17.02288246 1.106136322 0.9282066822 
-6.228842735 -16.09109116 1.026552916 0.9331955314 
-5.023368835 -17.4469986 1.080167413 0.9298318624 
-4.192875862 -17.44754028 1.067581654 0.9306202531 
-1.798591256 -12.16009521 0.731328845 0.9519369006 
21.18310928 -45.98994064 3.012434721 0.8163647652 
22.60356903 -43.83020401 2.93398428 0.820689559 
21.11431122 -27.53784943 2.064503193 0.8701856136 
21.11716843 -22.98253632 1.856880546 0.8824394345 
21.11840248 -21.02465057 1.772885203 0.8874441981 
25.5787735 -19.43213081 1.911129594 0.8792211413 
24.81126404 -15.57887936 1.742990851 0.8892345428 
27.43150902 -15.56740475 1.876506805 0.8812738061 
49.94115067 -17.56422997 3.149616003 0.8088566661 
61.57678986 -15.67012405 3.780236721 0.7752211094 
106.6130219 -22.13293648 6.478108883 0.6464141011 
73.73020935 14.62341022 4.471980572 0.7399318218 
34.53047943 8.460946083 2.115135193 0.8672228456 
30.08085823 13.37150955 1.958484888 0.8764211535 
70.06611633 38.94253922 4.769120216 0.7252702713 
58.67363739 47.96126938 4.508590221 0.7381094694 
30.08839798 32.16677856 2.620463848 0.838203907 
27.51169395 32.16845322 2.518300772 0.8439910412 
25.08236694 35.24352646 2.573587656 0.8408542871 
26.54089737 41.04255676 2.907871008 0.8221341968 
26.14170837 44.664814 3.078989744 0.8127135634 
25.15327644 47.72708511 3.209697247 0.8055902123 
25.15738678 53.3637085 3.509946823 0.7894624472 
-0.2953784168 66.39053345 3.949903488 0.7664127946 
-0.4531774819 9.251178741 0.5510490537 0.9635657072 
-19.0948925 103.4965439 6.261373997 0.6559192538 
-20.71640587 89.71142578 5.477771282 0.6914665699 
-28.24286079 101.4790497 6.266895771 0.6556758285 
-32.74324799 100.165741 6.269607544 0.6555556655 
-37.18234634 98.65213776 6.272278786 0.6554375887 
-96.17160034 58.02514648 6.682436466 0.6375793815 
-92.59103394 21.81562614 5.659478664 0.6830561757 
-110.6175919 15.85888863 6.64840126 0.6390421391 
-12.05320263 1.183764577 0.7205479145 0.9526283145 
-11.95211601 0.10633789 0.7111124992 0.9532339573 
-11.93914795 -0.425227046 0.7107633948 0.9532563686 
-11.92647457 -0.9573559165 0.7118418813 0.9531871676 
-12.2373333 -1.532690406 0.7337403893 0.9517822266 
-42.71399307 -13.33434296 2.66218996 0.8358514905 
-32.29944229 -13.33680344 2.079004526 0.869336009 
-30.44049263 -14.18547535 1.998026848 0.8740903735 
-23.03144646 -13.34280014 1.583571553 0.8988336921 
-20.83809471 -13.34422588 1.472162604 0.905603826 
-18.92956161 -13.34547615 1.377946019 0.9113687873 
-17.247509 -13.34657955 1.297480583 0.916321516 
-13.17211628 -13.34923077 1.115747213 0.9276061654 
-12.04902077 -13.34995842 1.069904923 0.9304745793 
-11.01256847 -13.35064697 1.029639363 0.933001399 
-8.301322937 -13.35240459 0.9354029894 0.9389421344 
-7.476144791 -16.61894798 1.084171534 0.9295809269 
-6.932412148 -17.44575882 1.116867185 0.9275362492 
-5.518393517 -15.91654968 1.002242565 0.9347246289 
-4.357480526 -17.44743919 1.069906473 0.9304745197 
-3.541318178 -17.44797134 1.059219241 0.9311444759 
-2.739716768 -17.44849396 1.050803661 0.9316723943 
-1.949211359 -17.44901085 1.04457438 0.9320634604 
-1.627788067 -24.35198975 1.452035308 0.906832099 
22.11174202 -43.82988358 2.920670748 0.821425736 
29.89286613 -43.6260643 3.146356106 0.8090344071 
21.19424248 -28.15763855 2.096743822 0.868298173 
21.1155262 -25.59830284 1.974221349 0.8754928112 
22.92516136 -19.43039703 1.787903547 0.8865486383 
25.11115646 -19.43183327 1.889043331 0.8805301189 
24.04358292 -15.39709663 1.69862771 0.8918955326 
33.58698654 -15.65175056 2.20455265 0.862015903 
37.91320038 -15.65458679 2.440335989 0.8484346867 
59.05044937 -15.58815193 3.633512497 0.7829197049 
59.02044678 8.461549759 3.547279596 0.7874799371 
29.96009636 14.61629009 1.983260274 0.8749600649 
70.12477112 42.31027222 4.872589588 0.7202333212 
59.75037003 47.96056366 4.558338642 0.7356402874 
33.54063034 32.22338104 2.76717329 0.8299623132 
30.62915611 32.16642761 2.642528057 0.836959064 
28.01103973 32.16812515 2.537695408 0.8428892493 
25.64963341 32.24773026 2.451438904 0.8478005528 
25.14253044 38.13145828 2.717375517 0.8327507973 
26.56520844 44.47589874 3.082129478 0.8125411868 
25.15310478 46.71384048 3.156484365 0.8084824085 
-13.53678703 104.3119965 6.258012772 0.6560680866 
-18.17126846 103.653038 6.260816097 0.6559442878 
-22.77471542 102.7878418 6.263596058 0.6558209062 
-27.3360939 101.7176361 6.266348839 0.6556997895 
-36.29968262 98.97081757 6.271748066 0.6554610729 
-43.14058685 103.1742783 6.653280258 0.6388326883 
-64.79434967 91.04322815 6.648263931 0.6390487552 
-104.1144867 46.28026199 6.778617382 0.6334623098 
-94.70388794 37.14548874 6.052253723 0.6652235985 
-112.9743958 38.60639954 7.102949142 0.6197746396 
-110.1782379 32.25463867 6.830096722 0.6312698126 
-92.54026794 22.67453384 5.668477535 0.6826420426 
-93.6648407 18.57715034 5.68107605 0.6820633411 
-11.94172096 -0.3189184368 0.7107200623 0.9532592297 
-103.8710709 -21.56368828 6.311494827 0.6537086964 
-97.19099426 -24.73369789 5.966614246 0.6690713167 
-44.07261276 -13.32913303 2.739340067 0.8315181732 
-33.13106918 -13.33626652 2.12480998 0.8666582704 
-30.4402771 -13.85708237 1.989842057 0.8745723963 
-30.44133949 -15.52763367 2.033091784 0.8720286489 
-23.51071167 -13.34249687 1.608305454 0.8973380327 
-19.2914257 -13.34524155 1.39558816 0.9102864265 
-17.56812668 -13.34636974 1.312609434 0.9153882265 
-16.03510857 -13.34736061 1.241244912 0.9197984338 
-11.21364021 -13.35050488 1.037287474 0.9325209856 
-10.23672295 -13.35114479 1.000927806 0.934807539 
-9.324419022 -13.35173512 0.9688871503 0.9368269444 
-8.466892242 -13.3523016 0.9406355023 0.938611269 
-7.656542778 -13.35281944 0.9157502651 0.9401857853 
-5.127851486 -16.68696022 1.03859508 0.9324387908 
-4.52282238 -17.44733047 1.072325826 0.9303228855 
-2.106542826 -17.44890404 1.04564774 0.9319960475 
-1.626008272 -21.45261002 1.279970527 0.9174026847 
-2.919262648 -93.69054413 5.576758862 0.6868721843 
21.18170929 -48.22832108 3.133849382 0.8097159266 
24.10641479 -43.83119202 2.976075888 0.8183661103 
29.37941742 -43.70604324 3.133132219 0.8097549677 
21.11664009 -23.81928825 1.893820047 0.8802469373 
21.11791992 -21.78599358 1.805137157 0.8855202794 
22.51559067 -19.4301281 1.769376278 0.887655735 
26.97276878 -19.37750626 1.97590673 0.8753935099 
19.72303581 -12.87914753 1.40145731 0.9099283814 
26.97493553 -15.94959641 1.864401698 0.8819926977 
32.65139008 -15.57082272 2.152161121 0.8650636673 
49.94210434 -16.08002663 3.12148428 0.8103905916 
57.28032684 -15.6673069 3.533027172 0.7882362604 
73.82317352 13.28056335 4.462563515 0.7404009104 
62.2311058 14.0792408 3.795969248 0.7743999362 
29.92186928 12.6679697 1.933148623 0.8779181838 
30.03727531 14.32419682 1.979847193 0.8751612902 
70.06503296 37.32546616 4.723073483 0.7275230289 
70.54540253 41.71166992 4.875814915 0.7200769782 
70.07064819 45.75612259 4.978890896 0.7150948644 
60.85066223 47.95985413 4.609542847 0.7331075668 
34.14383698 32.2236824 2.793168783 0.828510046 
31.17917442 32.16606903 2.665180683 0.8356829286 
20.60354042 25.43573189 1.947453737 0.8770725727 
25.08148956 33.94647217 2.511086941 0.8444015384 
25.08377647 37.31567001 2.675035238 0.8351287842 
25.15454483 50.98428726 3.38236928 0.7962754965 
-12.08301258 100.0858002 5.997764111 0.6676687002 
-26.42767525 101.9477997 6.26580143 0.6557242274 
-30.76908112 100.1279602 6.231966972 0.6572198272 
-104.2089005 47.43809509 6.811990738 0.6320396066 
-95.23982239 38.33685684 6.108049393 0.6627278924 
-110.4800568 33.41299057 6.866965771 0.6297042966 
-93.80728149 23.87164307 5.758868217 0.6784986854 
-93.50235748 19.41111565 5.681471825 0.6820452213 
-109.8968353 17.75656509 6.62303257 0.6401352286 
-12.34399414 1.434558034 0.7393385172 0.951423347 
-11.93882084 -1.279936552 0.7143626213 0.9530252814 
-90.69193268 -13.8267746 5.458008766 0.6923882365 
-102.3754272 -20.30484009 6.209394932 0.6582196355 
-97.04134369 -23.77749634 5.944192886 0.6700825691 
-30.4400692 -13.53103256 1.981870532 0.8750419617 
-24.00520706 -13.34216976 1.633941174 0.8957896233 
-21.67731476 -13.3436842 1.514428854 0.9030293226 
-19.66270638 -13.34500694 1.413801074 0.9091704488 
-17.89619064 -13.34615421 1.328196287 0.9144277573 
-14.92219925 -13.34808826 1.191138387 0.9229078293 
-11.41764641 -13.35037327 1.045129776 0.9320285916 
-9.50217247 -13.35161877 0.9749748111 0.9364429116 
-8.634501457 -13.35219002 0.9460071921 0.9382717013 
-7.815155983 -13.35272217 0.9204743505 0.9398866296 
-7.474633694 -14.18259525 0.9537946582 0.9377796054 
-7.475668907 -15.85735035 1.043004274 0.9321620464 
-5.950307369 -16.22348404 1.028077245 0.9330996275 
-3.865729809 -17.44776154 1.063214898 0.9308939576 
-3.058823109 -17.44828415 1.053905487 0.9314779043 
-1.593989253 -12.28388691 0.7369514108 0.9515765905 
-1.676757812 -41.84921646 2.491789341 0.845499754 
23.60077095 -43.83086014 2.961686373 0.8191600442 
26.18144035 -43.83254623 3.037570238 0.814983964 
31.69623947 -43.70755768 3.212140322 0.8054574132 
21.11637115 -24.25024033 1.913068295 0.8791063428 
21.11885643 -20.28945923 1.742362499 0.8892729878 
24.20788002 -19.43124771 1.846814632 0.8830381632 
26.54754257 -19.43276978 1.957355499 0.8764879107 
24.44965363 -14.7518816 1.698875189 0.8918805718 
28.60727501 -15.56818104 1.93767345 0.8776506782 
32.08052063 -15.65075874 2.123627186 0.8667272329 
36.07596588 -15.65338612 2.339649677 0.8542079329 
40.98717499 -15.65659904 2.610353947 0.8387746811 
49.94178772 -16.57175446 3.130556583 0.809895575 
55.33622742 -15.66602707 3.421578884 0.7941753268 
66.30393219 -15.62206745 4.0527215 0.7611234784 
118.3564072 14.82318592 7.096549511 0.6200421453 
62.6849823 13.59626675 3.816110849 0.773349762 
70.0644989 36.52867889 4.700942039 0.7286082506 
45.41279221 32.01629257 3.305748224 0.8003955483 
61.97612762 47.95911026 4.662282467 0.730507791 
38.02138901 32.22530746 2.965234995 0.8189638257 
32.32146835 32.75574493 2.737784386 0.8316066265 
25.0832901 36.60655975 2.640110493 0.8370955586 
26.46203613 42.5633049 2.981764555 0.8180524111 
25.08880806 44.67058945 3.048167706 0.8144046664 
25.10690117 55.81147385 3.640970945 0.7825264931 
21.82160187 87.37548828 5.35801363 0.6970669627 
-0.613997817 9.185443878 0.5477017164 0.9637832046 
-13.4911375 54.01961899 3.312580585 0.8000276089 
-34.52697372 99.5838089 6.270680904 0.6555089355 
-38.93870926 97.99110413 6.27333498 0.6553914547 
-40.33204651 89.65419769 5.848790169 0.6744018793 
-62.98199463 91.91585541 6.629081249 0.6398745179 
-98.67359161 63.18876648 6.971069813 0.6253041625 
-95.9801178 55.60396194 6.599314213 0.6411589384 
-99.31980133 41.00965881 6.392851353 0.650136292 
-92.27019501 20.01325417 5.617196083 0.6850040555 
-12.37507057 1.549880385 0.74199754 0.9512529969 
-11.94688892 -0.1063012704 0.7108005881 0.9532539248 
-11.9340477 -0.6378808618 0.7110221982 0.9532397389 
-11.92147923 -1.170778751 0.7126722336 0.9531337619 
-102.3748245 -19.35969353 6.198672295 0.6586954594 
-47.07321548 -13.32718468 2.910675526 0.8219795823 
-20.04419136 -13.34475327 1.432631969 0.908018291 
-16.62795067 -13.34698009 1.268539906 0.9181090593 
-15.1918726 -13.34790707 1.20313704 0.9221622944 
-9.682191849 -13.35150623 0.9812183976 0.9360491633 
-7.975424767 -13.3526144 0.9253224134 0.9395798445 
-7.474442959 -13.88137913 0.9379746914 0.9387794733 
-6.059936523 -16.07843971 1.0222615 0.9334651828 
-5.379882812 -16.45778084 1.030129552 0.9329705834 
-3.219067335 -17.44818115 1.055586338 0.9313724041 
-1.635302663 -17.44921684 1.042679906 0.9321824908 
-1.038210392 -21.19232559 1.262336493 0.9184929729 
20.03105927 -114.2620316 6.901611328 0.628236413 
21.18376923 -44.93487167 2.955556631 0.8194982409 
25.65439415 -43.83220673 3.021589994 0.8158614039 
31.10583878 -43.70716858 3.191632509 0.8065710068 
21.11462402 -27.03642273 2.040921211 0.871568799 
21.11742592 -22.57611084 1.839160919 0.8834933639 
26.05747414 -19.43245316 1.933894515 0.8778740168 
24.59241676 -15.13809299 1.718088508 0.8907272816 
31.22908211 -15.58087158 2.076359034 0.8694909215 
35.21334457 -15.65281963 2.292648315 0.8569164872 
39.9152832 -15.65589046 2.550867319 0.8421420455 
53.50923538 -15.66483593 3.317109823 0.7997832298 
74.87184143 12.09803486 4.512229919 0.7379285693 
70.0694809 43.99627686 4.922379494 0.7178224325 
63.12881851 47.95836639 4.716684341 0.7278363109 
39.03873825 32.49518204 3.021914005 0.8158437014 
32.67667389 32.53160477 2.743246317 0.8313009143 
27.01991081 32.16876984 2.499403715 0.8450662494 
26.43779182 41.69237518 2.937131166 0.8205161691 
25.15889168 54.62162781 3.5778234 0.785861671 
-10.7442627 104.6078796 6.256322384 0.6561429501 
-15.39344215 104.0732422 6.2591362 0.6560186148 
-21.5590229 89.71196747 5.489297867 0.6909298897 
-29.14753342 101.2323837 6.267440796 0.655651927 
-30.17016602 89.58756256 5.624081135 0.6846867204 
-38.06222534 98.32554626 6.272807598 0.6554142237 
-39.77095795 90.55378723 5.884138107 0.6727982163 
-61.28981781 100.5671234 7.006738663 0.6238033772 
-105.4978104 50.30986404 6.953682899 0.6260371208 
-100.0997467 37.21971893 6.353727341 0.6518523693 
-92.53672028 20.93559837 5.64454031 0.6837432981 
-111.4922409 14.973176 6.692700863 0.6371384263 
-11.97636414 1.068671823 0.7153574824 0.9529614449 
-11.92573261 0 0.6001551747 0.9533594251 
-11.9128561 -0.5304663181 0.6001045108 0.9533635378 
-49.80751038 -13.62345409 2.598602772 0.8131744266 
-41.40391541 -13.33086681 2.188964367 0.8401216865 
-30.44196701 -16.2171936 1.73580122 0.8709738255 
-22.56650734 -13.34310246 1.31931138 0.9003270268 
-16.93418694 -13.34677505 1.085076094 0.9172679782 
-10.81450176 -13.35076904 0.8646394014 0.9335020781 
-8.13753891 -13.35250664 0.7869135737 0.9392944574 
-7.474350452 -13.59006596 0.7805250287 0.9397720098 
-7.475327015 -15.15139389 0.850238502 0.9345725179 
-7.476493835 -17.02302933 0.9356575012 0.9282407165 
-6.197710037 -16.01059723 0.8639863133 0.9335505962 
-5.482509613 -16.2797718 0.8644794822 0.9335137606 
-1.798586369 -12.16007042 0.6186088324 0.9519605637 
19.4708252 -117.1892929 5.978335381 0.6213973165 
21.09890175 -51.74956894 2.812397957 0.7994553447 
21.18282127 -45.98950195 2.548102856 0.8164495826 
22.60352516 -43.83019257 2.481770754 0.8207710385 
25.13327599 -43.83185577 2.542711496 0.8167998195 
27.71419907 -43.7049408 2.604357243 0.812802434 
30.52337837 -43.70677567 2.68280077 0.8077440858 
23.34347153 -19.43066597 1.528463006 0.8854649663 
23.61596107 -16.33675575 1.445111871 0.8913581371 
24.52716255 -15.40058327 1.457466245 0.8904823661 
30.52315903 -15.56942081 1.724356771 0.8717676997 
34.20740509 -15.57183838 1.891444802 0.8602518439 
61.5766983 -15.67010975 3.19757247 0.7753204703 
34.52959442 8.460650444 1.789084911 0.8672881126 
31.96909142 10.92480278 1.700175881 0.8734468818 
31.63876343 12.40954399 1.710297108 0.8727434278 
70.0656662 38.94223785 4.034034252 0.7253887653 
70.0684433 43.13125992 4.140669346 0.7192589045 
45.89400101 31.14775658 2.791276217 0.8008004427 
44.03237152 32.83728409 2.764247417 0.8025252819 
58.67359543 47.96127701 3.813676119 0.7382220626 
35.95584869 32.16296768 2.42775178 0.8243073821 
32.96934509 32.24383163 2.320738077 0.8313573599 
30.08835793 32.16678238 2.216569901 0.838278234 
25.3467865 32.45567322 2.072388172 0.8479527831 
25.08452034 38.79030991 2.324707508 0.8310948014 
25.1529789 47.72635269 2.714943886 0.8056801558 
25.1570549 53.36286163 2.968923807 0.7895589471 
11.50711918 88.67504883 4.499947548 0.6989843845 
-12.43144035 89.54603577 4.549580097 0.6962288022 
-20.71623421 89.71143341 4.633486271 0.6915947199 
-60.14725876 100.6985703 5.902767658 0.625146091 
-95.61550903 57.6898613 5.619799614 0.6393841505 
-105.2050934 51.3247757 5.890830994 0.6257398129 
-98.56843567 42.76885605 5.407231331 0.6502925754 
-95.43318176 36.45480728 5.141083241 0.6642127037 
-93.00261688 21.91254044 4.808456898 0.6820308566 
-98.17597198 18.56509972 5.028216362 0.6702065468 
-110.8733368 15.89540291 5.636690617 0.6385247111 
-11.92834187 0.1061572209 0.6003113985 0.953347683 
-11.90272713 -0.9554223418 0.6009248495 0.9533010721 
-105.5910492 -18.02702904 5.390688896 0.6511484981 
-97.1921463 -25.65670586 5.058692932 0.6685827971 
-42.71423721 -13.33440113 2.251884222 0.8359258771 
-32.29947281 -13.3367939 1.758570313 0.8693970442 
-30.44067383 -14.18555832 1.690079808 0.8741486669 
-23.03141975 -13.34280014 1.339501143 0.8988819122 
-20.83806038 -13.34423065 1.24525857 0.9056489468 
-17.24746513 -13.34656906 1.097494006 0.9163618684 
-15.74818611 -13.34755135 1.038884997 0.9206463695 
-14.39839077 -13.34842491 0.9880692959 0.924376905 
-7.475114346 -14.81716061 0.8351814151 0.9356930256 
-6.932412148 -17.44575882 0.9447233081 0.9275712371 
-5.582367897 -16.10110474 0.8575971723 0.9340252876 
-4.357468128 -17.44743919 0.9050001502 0.9305081964 
-3.541298866 -17.44796562 0.8959623575 0.9311778545 
-2.739697218 -17.44849396 0.8888444304 0.9317054749 
-1.949177146 -17.44900131 0.8835734129 0.9320964217 
-1.417434096 -21.20410919 1.069466352 0.918408215 
-2.097788095 -94.27176666 4.745350838 0.6854650378 
27.12169838 -43.62423706 2.585069418 0.8140515089 
21.11379433 -28.05069923 1.766840935 0.8688252568 
21.11915016 -19.57906532 1.449274659 0.8910630345 
22.92507362 -19.4303875 1.512331605 0.8866024613 
25.1113224 -19.43182373 1.597890139 0.8805859089 
26.97281265 -19.01604271 1.660818934 0.8761870265 
24.55233383 -15.72275066 1.467217207 0.8897914886 
26.97497559 -15.62740898 1.568851471 0.8826232553 
37.71791458 -15.57413769 2.053582191 0.8492227197 
43.28652573 -15.65810299 2.316513777 0.8316371441 
49.94212723 -15.59072971 2.632927895 0.8109562397 
59.35562515 -15.66865444 3.089357853 0.7820267081 
67.71752167 -14.68805885 3.487088442 0.7576608658 
59.01860809 8.46121788 3.000446796 0.7875802517 
31.7283783 10.52814388 1.682323098 0.8746886849 
59.75016785 47.9605751 3.855750561 0.7357540727 
28.01083946 32.16813278 2.146561384 0.842961967 
25.6496048 32.24759674 2.073594093 0.8478711843 
25.20080566 42.19119644 2.473163128 0.8213330507 
25.15561867 52.15132523 2.91385746 0.7930266261 
8.307748795 88.6439743 4.480499268 0.7000662088 
4.342685223 88.64951324 4.466585159 0.7008421421 
-30.05841255 111.8475189 5.828378677 0.6288573742 
-43.13754654 103.1680222 5.627456665 0.6389941573 
-96.42349243 53.59165955 5.551586628 0.6428645253 
-103.3307037 45.93230438 5.690667629 0.6357873678 
-95.45874786 37.44141769 5.160218239 0.6632025838 
-111.3167343 38.04016876 5.920013905 0.6242879033 
-109.1929626 31.96598816 5.725702286 0.6340172887 
-97.39341736 23.86389923 5.046262264 0.6692448258 
-110.5120087 16.84867477 5.625727177 0.6390823722 
-12.30656719 1.319308996 0.6228724718 0.9516376257 
-11.91797352 -0.318271488 0.5999796987 0.9533728361 
-103.8716736 -21.56382561 5.338754177 0.6538465619 
-97.19154358 -24.73351288 5.046999931 0.6692049503 
-37.91048813 -13.33314133 2.022372961 0.8513341546 
-33.1309433 -13.33625221 1.797304749 0.8667209744 
-30.44046593 -13.85708714 1.683154106 0.8746305704 
-30.44153023 -15.52779007 1.71974647 0.8720877171 
-19.29146385 -13.34524155 1.180489302 0.9103292823 
-17.56801796 -13.34636402 1.110288501 0.9154291749 
-11.21363735 -13.35050964 0.8774113059 0.9325537086 
-10.23680687 -13.35114002 0.8466547728 0.9348390102 
-9.324419022 -13.35173512 0.8195518255 0.9368576407 
-8.466948509 -13.35229206 0.7956578135 0.9386410117 
-7.656518459 -13.35281944 0.7746037245 0.940214932 
-7.474912167 -14.494524 0.8207148314 0.9367710352 
-7.476000786 -16.2309494 0.8992951512 0.9309309721 
-7.112773418 -17.44563675 0.9481062293 0.9273214936 
-4.522780895 -17.44733047 0.9070493579 0.9303566813 
-2.899018526 -17.44838524 0.8901179433 0.9316110611 
-2.908579111 -93.34870911 4.700007915 0.6879433393 
21.62442398 -43.82955933 2.459553003 0.8222239017 
21.11346626 -28.57603264 1.788018942 0.8673617244 
21.11646461 -23.81908798 1.601910472 0.8803042173 
22.51539993 -19.43012428 1.496653557 0.8877093196 
26.97258186 -19.37750244 1.671354532 0.8754525185 
26.97476006 -15.94960213 1.577032566 0.8820487857 
29.22439957 -15.56857586 1.666378021 0.8757994771 
32.65119553 -15.57081795 1.820440531 0.8651272058 
36.78499603 -15.57352734 2.010252476 0.8521560431 
49.94181442 -16.07982063 2.640349627 0.8104771972 
57.28001785 -15.66729736 2.988471031 0.7883313298 
68.05034637 -15.39557362 3.511142492 0.7562118173 
87.81072235 -3.909997463 4.423412323 0.7032548785 
117.2929459 15.75178909 5.955702305 0.622518003 
74.79001617 13.45456314 3.824180126 0.7376047969 
31.94361687 11.87755966 1.715073943 0.8724116087 
47.16704941 30.80002403 2.834914446 0.7980245352 
45.39142609 32.60987854 2.812676907 0.7994379997 
60.85070801 47.95986176 3.899081945 0.7332216501 
34.0807991 32.16418457 2.358300209 0.8288759589 
31.17943764 32.16607285 2.254408598 0.8357576132 
20.60297585 25.4348526 1.647241592 0.8771339655 
25.0835247 37.31502914 2.262696266 0.8352065682 
25.08914185 45.61776352 2.619988441 0.8117918372 
25.15423012 50.98399353 2.861026525 0.7963677645 
9.104955673 88.65116882 4.484802723 0.6998276711 
5.132182598 88.61911774 4.467185497 0.7008090615 
-0.6997417808 9.232320786 0.4659443498 0.9635970592 
-12.08313942 100.0858078 5.073336124 0.6678040028 
-30.76929665 100.1279755 5.2714324 0.6573580503 
-39.92058945 111.9139252 5.979587078 0.6213351488 
-21.61616707 37.69810486 2.186892509 0.8402606249 
-63.07851791 90.32272339 5.544169426 0.6432437301 
-95.1125946 53.97663116 5.503549576 0.645326674 
-103.5933533 47.15760803 5.728024006 0.6339002252 
-103.2066956 36.29761887 5.505671978 0.6452173591 
-96.96677399 24.67615509 5.035326004 0.6698269844 
-92.00080109 19.09936714 4.728605747 0.6863790154 
-110.4010162 17.83846855 5.627938271 0.638970077 
-12.33739758 1.433789015 0.6250523329 0.9514724016 
-11.94695282 0.8520336747 0.6027513146 0.9531625509 
-11.93359089 0.3186889589 0.6007667184 0.9533131719 
-11.92054939 -0.2122143507 0.5999922156 0.9533720016 
-11.90777779 -0.7428076267 0.600417912 0.9533395767 
-90.69235992 -13.8270092 4.616787434 0.6925147176 
-45.80157089 -13.40832233 2.40168047 0.8260194063 
-39.01446533 -13.33242893 2.074857473 0.8477858305 
-34.00001526 -13.33568573 1.83793807 0.8639226556 
-21.67733383 -13.34367847 1.281011224 0.9030755162 
-17.89618874 -13.34614944 1.123480082 0.9144688249 
-16.32829475 -13.34716988 1.061308384 0.9190046191 
-7.294447899 -17.44552422 0.9515931606 0.9270644188 
-5.233310223 -16.50542641 0.8713771105 0.9330014586 
-4.688840389 -17.44721794 0.9091773629 0.9301991463 
-3.058823109 -17.44828415 0.8914680481 0.9315111041 
-1.624706984 -19.17069626 0.9682121277 0.9258388877 
-1.676850557 -41.84919739 2.107727528 0.8455709815 
20.01470184 -86.67366791 4.476401806 0.7002846003 
21.18067741 -49.41545868 2.705611467 0.8062785864 
21.14138603 -43.82923889 2.448875904 0.822922647 
26.1811657 -43.8325386 2.569379807 0.8150680661 
19.53866196 -24.56477165 1.579568267 0.8818708658 
21.11869621 -20.28938675 1.473751068 0.8893259168 
22.11412621 -19.42986107 1.481418252 0.8887865543 
26.54764175 -19.43276596 1.655670643 0.876545608 
24.45836449 -16.28361511 1.478688478 0.8889793754 
26.97455597 -16.27522087 1.585427999 0.8814597726 
31.9160099 -15.5703392 1.787098527 0.8674253821 
49.94149399 -16.57163239 2.648025513 0.8099823594 
55.33536148 -15.6660223 2.894172907 0.7942698002 
87.78697968 -0.7812768221 4.418009758 0.7035571337 
117.7838821 14.75174046 5.973715305 0.6216256618 
62.35612488 13.52508068 3.211004496 0.7744925618 
32.76382065 10.22810936 1.727297783 0.8715634942 
21.2069912 8.756591797 1.154632092 0.9122045636 
70.06959534 44.87091827 4.187268734 0.716596067 
45.44390488 32.03837204 2.798150063 0.8003627062 
61.97636032 47.9591217 3.943707705 0.7306223512 
37.94617462 32.1616745 2.503253937 0.8193691373 
32.32133102 32.75574875 2.315807819 0.8316839337 
26.53552628 32.16909027 2.098588943 0.8461863995 
25.08304596 36.60636139 2.23317337 0.8371712565 
25.08850479 44.67051697 2.578255653 0.814489305 
25.10718536 55.81148148 3.079794168 0.7826223969 
-0.61401546 9.185438156 0.4632856548 0.9638010859 
-12.48953629 111.8060684 5.661578178 0.6372613311 
-20.67398453 101.8598328 5.230569363 0.6595002413 
-30.02458 100.8934326 5.297455311 0.6559980512 
-39.81404114 100.1938553 5.425704002 0.6493367553 
-40.33159637 89.65420532 4.947313786 0.6745356917 
-61.89097595 99.54904175 5.899025917 0.6253317595 
-62.78628922 91.63075256 5.589942932 0.640904963 
-99.00621033 63.40116882 5.916489124 0.6244636774 
-95.20462799 39.31098938 5.183488846 0.661975503 
-109.7173767 34.25126266 5.784255981 0.631069541 
-92.72775269 20.11271667 4.774989128 0.6838504672 
-100.3834152 17.13781548 5.124835014 0.6650727987 
-12.36844254 1.549072266 0.6272981167 0.95130229 
-11.94966793 0.9591869712 0.6032960415 0.9531213045 
-11.89770508 -1.168498516 0.6016276479 0.9532479048 
-102.5537491 -19.39309311 5.252426147 0.6583533883 
-100.3215408 -23.63711548 5.186861515 0.6617973447 
-47.07398987 -13.32717514 2.462076187 0.822058022 
-22.11534309 -13.34339046 1.299829483 0.9017242193 
-20.04410553 -13.34475327 1.211815953 0.9080625176 
-18.2322216 -13.34593487 1.137074351 0.9134799838 
-16.62787056 -13.34697437 1.073017359 0.9181486964 
-13.89435959 -13.34875679 0.9696332812 0.9257341623 
-12.71158695 -13.34952831 0.9276542664 0.9288320541 
-11.62486553 -13.35023689 0.890853107 0.9315567017 
-9.682274818 -13.35150623 0.8299866915 0.9360800385 
-7.475541592 -15.49792194 0.8659162521 0.9334071875 
-7.476755142 -17.44361496 0.9550794959 0.9268070459 
-4.029008865 -17.44764328 0.9011512399 0.9307935238 
-3.219101429 -17.44818115 0.8928883076 0.9314056039 
-1.68856442 -12.16310787 0.6179749966 0.952008605 
-2.050087929 -41.84896469 2.108552933 0.8455155492 
20.02900887 -114.2503815 5.837171555 0.6284127831 
21.18349648 -44.93405151 2.49997282 0.8195829391 
25.65449715 -43.83220673 2.555871487 0.8159445524 
31.10596085 -43.70716858 2.699708223 0.8066578507 
21.11443329 -27.03630066 1.726339221 0.871629715 
21.11591721 -24.69020271 1.634954691 0.8779922128 
21.11847115 -20.65368843 1.486544013 0.8884238601 
21.72090721 -19.42959595 1.466599822 0.8898351789 
23.77093697 -19.43094444 1.54506731 0.8842956424 
26.05746078 -19.43244743 1.635824442 0.8779314756 
53.50967026 -15.66483116 2.805868387 0.7998715639 
75.94395447 12.2709446 3.871404886 0.7348380685 
31.34988213 12.61932945 1.700684905 0.8734112382 
31.35494041 15.99371433 1.771340728 0.8685136437 
70.06620789 39.7628479 4.054273129 0.7242208719 
45.71607971 31.62485313 2.797471285 0.8004063368 
38.63754272 32.16122818 2.529890299 0.8176346421 
35.31858444 32.16337967 2.403953552 0.8258697987 
32.63143158 32.48656464 2.317206144 0.8315905929 
29.5562973 32.16712952 2.198384285 0.8394927382 
27.01992035 32.16877747 2.114169836 0.8451375961 
25.08258247 35.91598129 2.20458746 0.8390780091 
20.39214325 66.35903931 3.493614435 0.7572681308 
6.717455864 88.63079834 4.473096371 0.7004796863 
-21.55922318 89.71198273 4.643240929 0.6910579205 
-60.74852371 99.67930603 5.874470234 0.6265550256 
-62.06759262 92.33387756 5.598898411 0.6404477358 
-98.25275421 64.15876007 5.905342102 0.6250174046 
-98.38228607 41.65164948 5.376456738 0.6518864632 
-98.97206879 36.80066681 5.313883781 0.6551414132 
-98.42648315 26.92183685 5.135211468 0.6645239592 
-92.44616699 20.91469002 4.769886494 0.6841283441 
-11.95239735 1.06654048 0.6038877964 0.953076303 
-11.92573261 0 0.6001551747 0.9533594251 
-11.90021229 -1.061879873 0.6012532115 0.9532763362 
-104.1761475 -18.7412281 5.326784134 0.6544697881 
-18.5765419 -13.3457098 1.151094198 0.9124612212 
-15.46718502 -13.34773159 1.02814281 0.9214336872 
-12.93989944 -13.3493824 0.9356098771 0.9282441735 
-11.83532238 -13.35010433 0.8978358507 0.9310389161 
-9.864665031 -13.35138893 0.8354020715 0.9356765747 
-8.975293159 -13.35196018 0.8096317649 0.937597692 
-8.137531281 -13.35250664 0.7869132757 0.9392944574 
-7.474350452 -13.59006596 0.7805253267 0.9397720098 
-7.475327015 -15.15139389 0.850238502 0.9345725179 
-4.192875862 -17.44754028 0.9030339122 0.9306538105 
-3.379912138 -17.44807243 0.8943885565 0.9312945604 
-2.423574209 -41.84872055 2.109540224 0.8454489112 
19.47091293 -117.1891708 5.978330612 0.6213976145 
21.09889603 -51.74965668 2.812401772 0.7994551063 
25.1333046 -43.83185577 2.542712688 0.8167998195 
21.1156292 -25.13940048 1.652189493 0.8767886758 
21.11699104 -22.98233604 1.570668459 0.8824958205 
21.11822701 -21.02448845 1.499626279 0.8874982595 
21.33545303 -19.42934799 1.452193141 0.8908561468 
23.34351921 -19.43066597 1.528464437 0.8854648471 
25.57887077 -19.43213081 1.616573334 0.8792776465 
23.61598587 -16.33675575 1.445112467 0.8913580775 
27.4313755 -15.56739998 1.587277651 0.8813301325 
30.52314949 -15.56942081 1.724356174 0.8717677593 
34.20736313 -15.57183838 1.891442418 0.8602519631 
49.94085312 -17.56413841 2.66415453 0.8089437485 
51.52581787 -15.58321476 2.709005117 0.8060613871 
61.57678604 -15.67010975 3.197577953 0.7753202319 
107.5024185 -22.31755066 5.525356293 0.6442077756 
87.79865265 -2.344782591 4.42000246 0.7034457922 
34.52959442 8.460650444 1.789084911 0.8672881126 
114.9576111 33.65354538 6.027983189 0.6189469099 
31.6387291 12.40958214 1.710296392 0.8727434874 
31.52736282 14.01449585 1.736291051 0.87093997 
31.477211 15.70465279 1.770285487 0.8685867786 
70.0684433 43.13125992 4.140669346 0.7192589045 
45.89400101 31.14775658 2.791276217 0.8008004427 
44.03237152 32.83728409 2.764247417 0.8025252819 
58.67367172 47.96127701 3.813678503 0.7382218838 
32.96932602 32.24384308 2.320734024 0.8313573599 
30.08827019 32.16678238 2.216566801 0.8382784128 
27.51159096 32.16845703 2.130153894 0.8440631032 
25.3467865 32.45567322 2.072388172 0.8479527831 
25.08728981 42.86303711 2.499364138 0.8196225166 
25.1570549 53.36302567 2.968931913 0.7895585299 
11.50716305 88.67505646 4.499947548 0.6989843249 
-0.2953661978 66.39044952 3.341102123 0.7665153742 
-0.4531811476 9.251227379 0.4661206007 0.9635834694 
-20.6670742 112.0177917 5.732397556 0.6336807013 
-95.615448 57.6896553 5.619792461 0.6393845081 
-105.2051544 51.32460785 5.89083004 0.6257398725 
-98.56841278 42.76879883 5.407229424 0.6502926946 
-98.17595673 18.56515884 5.028218746 0.6702065468 
-110.8732986 15.89552975 5.636691093 0.6385247707 
-12.01735592 1.180246592 0.6076783538 0.9527890086 
-11.94156742 0.6382787824 0.6018116474 0.9532338977 
-11.92834187 0.1061767563 0.6003116965 0.953347683 
-11.90272713 -0.9554443359 0.6009248495 0.9533010721 
-105.590683 -18.02715492 5.390689373 0.6511493921 
-102.3766556 -22.20583725 5.271858215 0.6573364735 
-97.1921463 -25.6568222 5.058695793 0.6685827374 
-36.86094284 -13.33382511 1.972644806 0.8547106385 
-18.92955589 -13.34547043 1.165564656 0.9114112258 
-15.74822712 -13.34754562 1.038886189 0.9206462502 
-13.17211628 -13.34923077 0.9437779188 0.9276411533 
-11.01256371 -13.35063648 0.8709415793 0.9330338836 
-9.14876461 -13.35185242 0.8145301342 0.9372323155 
-7.475114346 -14.81717968 0.8351820111 0.935692966 
-6.932412148 -17.44575882 0.9447233081 0.9275712371 
-5.191953182 -17.44688606 0.9160581827 0.9296898246 
-4.357475281 -17.44743347 0.9050001502 0.9305081964 
-2.739716768 -17.44848824 0.8888447285 0.9317055345 
-1.949206471 -17.44900131 0.8835734129 0.9320964217 
-1.417465806 -21.20408821 1.06946516 0.9184082747 
22.11172867 -43.82987213 2.470510244 0.8215069175 
27.12162971 -43.62423706 2.585069418 0.8140516281 
21.1137886 -28.0507679 1.76684463 0.868825078 
21.11534119 -25.59829712 1.66992867 0.875551641 
21.11673355 -23.39648628 1.586066365 0.8814147711 
21.11799812 -21.40174484 1.513086915 0.886548996 
21.11915016 -19.57899666 1.449271917 0.8910632133 
22.92516518 -19.4303875 1.512335658 0.8866022229 
26.97281265 -19.01600266 1.660817623 0.8761870861 
26.97496986 -15.62738991 1.568851113 0.8826233149 
37.71791458 -15.57413769 2.053582191 0.8492227197 
43.28636551 -15.65809822 2.316501617 0.8316376805 
59.35542679 -15.66865444 3.089348793 0.7820273042 
70.06512451 38.12963486 4.01445055 0.7265287042 
70.12449646 42.30971527 4.121567249 0.7203534245 
30.62917328 32.16643143 2.235237837 0.8370338082 
28.01078606 32.16813278 2.146559238 0.8429620862 
25.64955711 32.24762726 2.07359457 0.847871244 
25.08401489 38.04271698 2.293189526 0.8331819177 
25.08980179 46.596241 2.663258076 0.809001267 
-30.05841255 111.8475189 5.828378677 0.6288573742 
-43.13741684 103.1679688 5.627450943 0.6389943957 
-59.52672577 101.705307 5.930490017 0.6237686276 
-64.68925476 90.89477539 5.614413261 0.6396581531 
-95.45870972 37.44152451 5.160217762 0.6632025838 
-110.5120468 16.84844971 5.625724792 0.6390823722 
-12.30656719 1.319296837 0.6228724718 0.9516376257 
-11.93095875 0.2123706043 0.6005149484 0.9533322453 
-11.91797352 -0.3182812333 0.5999796987 0.9533728361 
-11.90524864 -0.84906739 0.6006477475 0.9533221722 
-12.05543232 -1.401027799 0.6107661128 0.9525547028 
-103.8716736 -21.56382561 5.338754177 0.6538465619 
-97.19154358 -24.73340607 5.046998978 0.6692050695 
-44.07259369 -13.3291235 2.317093372 0.831595242 
-37.9106369 -13.33314133 2.02238059 0.8513336778 
-33.13109207 -13.33625698 1.797315836 0.8667204976 
-30.44153023 -15.5278883 1.719744325 0.8720875382 
-23.51072502 -13.34248734 1.360413313 0.8973867893 
-19.29142952 -13.34524155 1.180487752 0.9103294015 
-17.56797028 -13.34636402 1.110286355 0.9154292941 
-14.65770245 -13.34825897 0.9976734519 0.9236706495 
-11.21363735 -13.35050964 0.8774113059 0.9325537086 
-10.23680687 -13.35114002 0.8466547728 0.9348390102 
-8.466970444 -13.35229683 0.7956590056 0.9386409521 
-7.476000786 -16.23092079 0.8992939591 0.9309310317 
-7.112822056 -17.44563675 0.9481074214 0.927321434 
-6.223158836 -17.44622803 0.9321549535 0.9284995198 
-4.522738934 -17.44732666 0.9070487618 0.9303566813 
-3.703220129 -17.44786263 0.8976151943 0.9310554862 
-2.898996592 -17.44839096 0.8901176453 0.9316110611 
-2.106535673 -17.44890404 0.8844825625 0.9320289493 
-1.603732824 -21.15992355 1.067915797 0.9185215831 
-2.908579111 -93.34870911 4.700007915 0.6879433393 
21.18142509 -48.22707748 2.650770903 0.8098057508 
26.71360779 -43.83288956 2.583235502 0.8141697049 
29.37969208 -43.70603561 2.650232553 0.8098402619 
21.11346626 -28.57597351 1.788015604 0.8673619032 
21.11504745 -26.06697464 1.688179731 0.8742807508 
21.11646461 -23.81908798 1.601910472 0.8803042173 
19.72295189 -12.87909603 1.185471058 0.9099718332 
49.94181061 -16.07969856 2.640348434 0.810477376 
68.05031586 -15.39550018 3.511139393 0.7562119365 
87.81072235 -3.909997463 4.423412323 0.7032548785 
30.89307213 13.07914925 1.688269496 0.8742748499 
31.51402092 15.02858257 1.75702858 0.8695034385 
30.86384392 16.44198036 1.759858489 0.8693079352 
70.54484558 41.71173859 4.124287605 0.720197022 
47.16701889 30.80008316 2.834915161 0.7980245352 
31.17943764 32.16607285 2.254408598 0.8357576132 
28.51789474 32.1678009 2.163393736 0.8418336511 
25.08125496 33.94616699 2.124031067 0.8444744945 
25.48789406 41.82170486 2.464714527 0.8218860626 
25.08914185 45.61798859 2.619998693 0.8117912412 
5.132182598 88.61911774 4.467185497 0.7008090615 
-0.6997314095 9.232303619 0.4659431279 0.9635971189 
-39.92089081 111.9139252 5.979594707 0.6213349104 
-21.61622047 37.69809341 2.186957836 0.8402605653 
-13.44076157 21.19587135 1.263051867 0.9043672085 
-63.07851791 90.32272339 5.544169426 0.6432437301 
-95.11277008 53.97648239 5.503554344 0.6453264952 
-103.5931396 47.15725327 5.728007793 0.6339010596 
-95.2234726 38.33023453 5.165736198 0.6629115939 
-92.00080109 19.09936714 4.728605747 0.6863790154 
-11.94695282 0.8520336747 0.6027513146 0.9531625509 
-11.93359089 0.3186889589 0.6007667184 0.9533131719 
-11.90777588 -0.7427734137 0.600417912 0.9533396363 
-90.69242096 -13.82683277 4.616799831 0.692514658 
-103.0660553 -20.44186211 5.287765503 0.6565038562 
-33.99980927 -13.33569527 1.837928891 0.8639233112 
-30.4413147 -15.18785858 1.712024331 0.8726233244 
-24.00544357 -13.34216022 1.382117748 0.8958383799 
-21.67733383 -13.34367847 1.281011224 0.9030755162 
-17.89618874 -13.34614944 1.123480082 0.9144688249 
-16.32829475 -13.34716988 1.061308384 0.9190046191 
-14.92220211 -13.3480835 1.007549524 0.922944963 
-13.64930153 -13.34892273 0.9607847333 0.9263863564 
-12.48710442 -13.34967518 0.9199085832 0.929404974 
