# .PCD v0.7 - Point Cloud Data file format
VERSION 0.7
FIELDS x y z intensities
SIZE 4 4 4 4
TYPE F F F F
COUNT 1 1 1 1
WIDTH 942
HEIGHT 1
VIEWPOINT 0 0 0 1 0 0 0
POINTS 942
DATA ascii
-8.078596115 95.32348633 19.04965019 0.676939249 
-15.72022629 89.67192841 18.12855721 0.6898317933 
-24.47452354 91.06986237 18.77805328 0.6807155609 
-28.90541649 91.16486359 19.04415703 0.6770154238 
-32.93022537 89.78365326 19.04307365 0.6770305634 
-36.99060822 88.46700287 19.09423447 0.6763214469 
-41.69979477 88.45319366 19.47271729 0.6710988283 
-27.5741806 -14.06519985 6.163871288 0.8813962936 
-24.84316063 -14.09859848 5.68807888 0.890027523 
-20.56965256 -14.22943783 4.980549335 0.9030193686 
-16.19422722 -13.47976494 4.195691586 0.9176530838 
-14.79765797 -13.47566891 3.985375881 0.9216145277 
-13.53207016 -13.47196293 3.802312613 0.9250766039 
-12.37540245 -13.4685688 3.642213583 0.9281150699 
-11.31019783 -13.46544933 3.501709461 0.9307898283 
-10.88498783 -14.19649887 3.562245369 0.9296364188 
-10.88099384 -15.58061981 3.784231424 0.9254192114 
-9.820876122 -15.48742199 3.651764393 0.9279335141 
-9.142741203 -15.94474125 3.659979105 0.9277774096 
-5.01139164 -12.29154301 2.643210888 0.9473013878 
-6.229096413 -17.4627533 3.691933393 0.9271703362 
-5.365517616 -17.46021843 3.637288094 0.9282087684 
-3.580971718 -21.55289078 4.350627422 0.9147456288 
-2.601677179 -21.55002403 4.322378635 0.9152750373 
-1.633112788 -21.54718781 4.302964211 0.9156391025 
-0.6712816954 -21.54436874 4.292177677 0.9158414006 
1.247370601 -21.53876877 4.296163082 0.9157665968 
2.211857796 -21.53594208 4.310976028 0.9154888391 
5.982145786 -20.77693748 4.305353165 0.9155942798 
8.329674721 -21.51803589 4.594685078 0.9101843834 
9.448610306 -21.51327515 4.67886591 0.9086164236 
11.16250229 -18.31599998 4.271188259 0.9162352085 
13.52769279 -18.30908585 4.533052921 0.911334157 
14.8277998 -18.30528831 4.69093132 0.9083919525 
17.77436256 -18.33682632 5.085257053 0.9010848999 
19.4243679 -18.33201218 5.318516254 0.8967901468 
21.23676872 -18.32670784 5.585787773 0.8918942809 
16.29044724 -12.8393898 4.13031435 0.9188827276 
27.53432274 -16.28046799 6.369592667 0.877690196 
76.56739807 32.41601562 16.55685806 0.7123995423 
67.92108154 44.35242081 16.15323448 0.7183132172 
55.81705856 48.16849136 14.68123627 0.7402997017 
31.29350281 32.283741 8.953083038 0.8324548006 
23.88327026 32.3248558 8.003142357 0.8488100767 
21.87672806 32.54449463 7.808610439 0.8521987796 
13.94594097 25.35688591 5.762558937 0.8886708617 
21.46851921 43.51351547 9.66198349 0.8204551339 
21.433218 55.36861038 11.82269478 0.7849370241 
-15.67803955 94.36167908 19.04766464 0.6769667268 
-19.85902977 93.56539154 19.04656601 0.6769821048 
-24.00009537 92.58399963 19.04546547 0.6769974232 
-28.0931797 91.41954803 19.04437256 0.6770124435 
-32.13020325 90.07421875 19.04328728 0.6770275235 
-40.74297333 88.45599365 19.39273643 0.6721990108 
-25.29818153 -14.06065369 5.763381004 0.888655901 
-17.97465706 -13.40466309 4.46497488 0.9126057029 
-15.06571007 -13.47645473 4.025105476 0.9208649397 
-13.77578831 -13.47267532 3.836958647 0.9244204164 
-11.51663303 -13.46605396 3.528380632 0.9302815199 
-10.88573456 -13.93880367 3.521755934 0.9304077625 
-10.88183308 -15.2901268 3.737051249 0.9263139367 
-9.919294357 -15.3390379 3.637452841 0.9282056093 
-5.091516018 -12.17695808 2.628211498 0.9475924969 
-6.405029297 -17.46326637 3.703948975 0.9269422293 
-5.536203384 -17.46072197 3.647509575 0.9280143976 
-4.775705338 -21.55440903 4.396183968 0.9138925076 
-2.796567202 -21.55059052 4.327314377 0.9151825309 
2.989465237 -21.53367615 4.329089165 0.9151492715 
4.971228123 -21.52787971 4.399620056 0.9138281345 
7.035285473 -21.52182579 4.50877142 0.9117875099 
8.11047554 -21.51868629 4.579232693 0.9104725718 
12.07515335 -18.3133297 4.368078709 0.914418757 
14.56051922 -18.30606842 4.657739162 0.9090098143 
17.46143341 -18.33774376 5.042214394 0.9018796086 
20.8598156 -18.32781219 5.529320717 0.8929263949 
20.68130112 -16.60058022 5.280827522 0.897482574 
24.46706772 -16.28941917 5.853095531 0.8870244622 
36.6530838 -17.8813324 8.120898247 0.8467652798 
66.50006866 46.88318253 16.20211601 0.7175945044 
56.83538055 48.17146301 14.83572578 0.7379609346 
31.85722923 32.28538895 9.031804085 0.8311136365 
29.31481934 32.47976303 8.712399483 0.8365687132 
24.33159637 32.32564926 8.056643486 0.8478804827 
21.55692673 34.67360306 8.13008976 0.8466058373 
21.48818398 42.59383774 9.499854088 0.823184073 
21.43744659 53.94833755 11.55971813 0.7891764641 
-14.83796597 94.49851227 19.0478878 0.6769637465 
-19.02582169 93.73947906 19.04678345 0.6769790649 
-23.17551994 92.79502106 19.04568481 0.6769942641 
-27.27882004 91.66690826 19.0445919 0.6770095825 
-31.32768822 90.35757446 19.04350281 0.6770246029 
-53.62613297 -15.18215752 11.09818077 0.796671927 
-26.17736244 -14.24587345 5.934553146 0.8855457306 
-23.50016594 -14.17893028 5.465338707 0.8940972686 
-19.43468475 -14.22610855 4.796012402 0.9064388871 
-14.02410889 -13.47340298 3.872562885 0.9237465262 
-11.72625923 -13.46667004 3.555744648 0.9297602177 
-10.88645935 -13.68687916 3.482444286 0.9311571717 
-10.88264847 -15.00677204 3.691323757 0.9271819592 
-8.544989586 -15.86957932 3.589066029 0.929125905 
-7.620475769 -15.79838848 3.492764235 0.9309604168 
-5.216782093 -12.17099571 2.636843204 0.9474249482 
-5.70785141 -17.46122551 3.658079863 0.9278134704 
-5.020602703 -18.03965378 3.728729248 0.9264718294 
-2.991887093 -21.55116081 4.332605362 0.9150833488 
-2.019509315 -21.54831505 4.3096838 0.9155130386 
-1.055466294 -21.54549789 4.295464516 0.9157797098 
0.863132298 -21.53988647 4.292644024 0.9158326387 
1.825275779 -21.53707504 4.30401659 0.9156193137 
3.774626493 -21.53137589 4.352890968 0.9147031903 
5.784865379 -21.52549744 4.438428402 0.91310215 
7.892683029 -21.51932144 4.564237595 0.9107522368 
8.99625206 -21.51542473 4.643771648 0.9092697501 
10.72090054 -18.31729507 4.226314545 0.9170777202 
11.84311771 -18.31401253 4.34292841 0.9148899317 
13.03142262 -18.31054115 4.475270748 0.9124133587 
14.29700851 -18.30683517 4.625377655 0.9096124768 
17.1537323 -18.33864212 5.000291824 0.9026543498 
19.60643196 -16.02678108 5.042583466 0.9018726349 
22.76931381 -15.45329571 5.479634762 0.8938355446 
35.66388702 -17.79348183 7.936509609 0.8499692678 
39.83375168 -17.70674324 8.680388451 0.8371172547 
66.47548676 33.90821838 14.85976887 0.7375975847 
66.4642334 37.71847916 15.21761894 0.7322115302 
68.07694244 42.74541855 16.00681877 0.7204709649 
66.50311279 46.00465775 16.10245514 0.7190608978 
63.68518448 48.38124847 15.92598343 0.7216647267 
57.87540817 48.17449951 14.99470139 0.7355619669 
52.88440323 48.15991974 14.24307919 0.7469731569 
24.78592682 32.32645798 8.111497879 0.8469283581 
22.57108307 32.31977081 7.849852562 0.8514792323 
21.55858803 33.99754715 8.016257286 0.8485820293 
21.44148636 52.58986282 11.30906868 0.7932382822 
-9.203103065 89.60673523 17.93714714 0.6925418973 
-13.99638844 94.62791443 19.04810715 0.6769607663 
-22.34907341 92.9986496 19.04590607 0.6769912243 
-30.52273178 90.63388824 19.04372025 0.6770214438 
-34.52224731 89.18134308 19.04263878 0.6770364642 
-4.033491135 9.183742523 1.99734962 0.959915936 
-44.15925598 89.50435638 19.87408829 0.6656051278 
-53.09584808 -14.52291489 10.96125126 0.7989093661 
-29.89572716 -14.25678158 6.595359325 0.8736410141 
-26.64057732 -14.19207478 6.010690212 0.8841658831 
-21.72691917 -14.18769455 5.167175293 0.8995741606 
-17.10629654 -13.48243618 4.337164879 0.9149978757 
-11.93922615 -13.46728992 3.583827972 0.929225564 
-10.88716507 -13.44044399 3.444263935 0.9318856597 
-8.883640289 -16.15247917 3.670781851 0.9275721312 
-7.671476841 -17.46697807 3.79885006 0.9251422286 
-6.760456562 -17.4643116 3.729104519 0.9264647365 
-5.880571365 -17.46173286 3.669006348 0.9276058674 
-5.026896954 -17.45923233 3.617862463 0.9285780191 
-4.175214767 -21.55364609 4.371726513 0.9143503904 
-2.213181019 -21.54888153 4.313563347 0.9154402614 
-0.287614733 -21.54324722 4.290251255 0.9158774614 
0.6711694002 -21.54045296 4.291397572 0.9158560038 
2.599870443 -21.53480339 4.319328308 0.9153322577 
3.577526808 -21.5319519 4.346401691 0.9148248434 
4.569489479 -21.52904701 4.382543087 0.9141478539 
5.580109596 -21.52609825 4.428133488 0.9132946134 
6.614035606 -21.52305222 4.483649731 0.9122567773 
8.772517204 -21.51648331 4.626965046 0.9095828533 
9.908278465 -21.51163483 4.716127396 0.9079233408 
11.09286308 -21.50996971 4.819277287 0.9060071111 
10.50354195 -18.31793404 4.204726696 0.9174832702 
15.37402058 -18.30369186 4.759901524 0.9071096778 
14.12499237 -12.86306572 3.804205894 0.9250407815 
19.8529911 -16.52521515 5.143618584 0.9000083208 
20.86726761 -14.43527794 5.052603245 0.9016876221 
28.68196487 -16.27711296 6.56701231 0.874148488 
35.0646019 -17.88596153 7.838263988 0.8516814709 
39.26398468 -17.87371635 8.590559959 0.8386588693 
44.29449081 -17.8298378 9.508047104 0.823045969 
17.78542137 6.975932598 3.804267406 0.925039649 
17.7117672 8.836791992 3.941515446 0.9224429131 
66.46652222 36.94190979 15.14227962 0.7333421111 
66.50613403 45.13696671 16.00527 0.7204934359 
58.9382782 48.17760468 15.1583662 0.7331003547 
53.84251785 48.16272354 14.38509274 0.7448036671 
30.19467735 32.28053284 8.801726341 0.8350394368 
27.65107536 32.33154678 8.471522331 0.8407060504 
23.004179 32.32329178 7.900120735 0.850603044 
21.55164337 36.82223129 8.49591732 0.8402860165 
21.46252823 45.52624893 10.02246571 0.8144196868 
-13.15408421 94.74983978 19.04833031 0.6769575477 
-16.51170158 89.49533081 18.12175369 0.6899266243 
-21.52079773 93.19493866 19.04612541 0.6769881845 
-24.94527626 89.63063049 18.52634048 0.6842340231 
-29.71529961 90.9029541 19.04393768 0.677018404 
-33.7276535 89.48605347 19.04285622 0.6770334244 
-3.957856894 9.233856201 2.000520945 0.9598537683 
-43.56268311 90.31188965 19.96669579 0.6643460393 
-16.85606194 21.19208908 5.392048359 0.8954404593 
-30.59793091 -14.25883293 6.72201395 0.8713776469 
-24.58221436 -14.24120617 5.657128811 0.890591979 
-20.18179893 -14.22830009 4.917095661 0.9041936994 
-13.2925415 -13.47125435 3.768558979 0.9257163405 
-12.15549755 -13.46792412 3.612636566 0.9286774993 
-10.88422585 -14.46026325 3.60397768 0.9288421869 
-10.35249996 -15.10857868 3.64705801 0.9280229807 
-9.250383377 -14.87893009 3.488740206 0.931037128 
-9.113073349 -16.2259903 3.705771923 0.926907599 
-7.907013893 -15.67327595 3.495667696 0.9309050441 
-7.567263126 -16.82150269 3.672966719 0.9275305867 
-5.195773602 -17.45972633 3.627406597 0.9283965826 
-5.094138145 -20.39700699 4.186375141 0.9178281426 
-3.384089231 -21.55231476 4.344262123 0.9148649573 
-1.440363765 -21.54662514 4.3001194 0.915692389 
-0.4793578982 -21.54381371 4.291045666 0.9158626199 
0.4794018567 -21.54101562 4.290487766 0.9158730507 
3.380998373 -21.53252792 4.340272903 0.9149397016 
4.369758129 -21.52963257 4.374572754 0.9142971039 
5.376281738 -21.52669334 4.418243408 0.9134797454 
7.461354733 -21.52058029 4.535613537 0.9112862945 
10.28832245 -18.31856346 4.183684826 0.9178788066 
11.38683319 -18.31534576 4.294493198 0.9157979488 
12.54746342 -18.31195259 4.420320988 0.9134408236 
18.09278107 -18.33590317 5.129453182 0.9002694488 
19.77295113 -18.33099174 5.369071007 0.8958620429 
19.25363922 -16.31856346 5.025765896 0.9021834731 
16.48680687 -12.75790501 4.151143551 0.9184908271 
25.39200783 -16.26044464 6.004160404 0.8842841387 
34.31110382 -17.88816452 7.705105305 0.8540073633 
38.36076736 -17.87635231 8.427412987 0.8414658904 
42.75138474 -17.6525135 9.210183144 0.8280826807 
74.83213806 32.46967697 16.24346924 0.7169869542 
68.0827713 41.07781219 15.83371258 0.7230297327 
65.93025208 48.260849 16.27002716 0.7165970802 
54.81949997 48.16557693 14.53104305 0.742580533 
33.61022568 32.2905159 9.28101635 0.8268821239 
28.65666389 32.90986633 8.689538002 0.8369603753 
25.71356964 32.32810974 8.225456238 0.844953835 
21.55345726 36.08480835 8.369702339 0.8424611688 
13.64789867 25.34657097 5.732385159 0.8892202377 
21.64188004 50.49144363 10.93893433 0.799274683 
21.42879295 56.8548317 12.09884834 0.7805098891 
-12.31031513 94.86425781 19.04854965 0.6769545674 
-15.72022629 89.67192841 18.12855721 0.6898317933 
-20.6906414 93.38388824 19.04634666 0.6769851446 
-24.47452354 91.06986237 18.77805328 0.6807155609 
-36.99050903 88.46700287 19.09422874 0.6763215661 
-44.94091797 -18.0900631 9.646803856 0.8207101226 
-27.57417679 -14.06527328 6.16387558 0.8813961744 
-22.38698006 -14.05681133 5.263810158 0.8977953792 
-20.56962204 -14.22943783 4.980543137 0.9030194879 
-17.70834732 -13.45299244 4.428393841 0.9132897258 
-16.19417763 -13.47976017 4.195683956 0.917653203 
-13.53203297 -13.47195816 3.802307606 0.9250767231 
-10.88099384 -15.58061981 3.784231424 0.9254192114 
-9.820890427 -15.48739719 3.651763201 0.9279335141 
-7.752873421 -16.83201599 3.690184355 0.927203536 
-6.229054928 -17.4627533 3.691930532 0.9271703959 
-5.365473747 -17.46021843 3.637285709 0.9282087684 
-5.096259594 -19.65976524 4.044210911 0.9205046296 
-4.574740887 -21.55408096 4.387637615 0.9140524864 
-3.580947161 -21.55289459 4.350627422 0.9147456288 
-1.633083463 -21.54719162 4.302963257 0.9156391025 
-0.6712816954 -21.54436874 4.292177677 0.9158414006 
0.2875952125 -21.54156685 4.28992033 0.9158837199 
1.247370601 -21.53876877 4.296163082 0.9157665968 
2.211857796 -21.53594208 4.310976028 0.9154888391 
4.170691013 -21.53021431 4.366976261 0.9144393802 
5.982145786 -20.77701569 4.305366516 0.9155939817 
7.247633934 -21.5212059 4.521968842 0.9115410447 
10.61299992 -21.51087761 4.776395798 0.9068031907 
11.82905483 -21.50782204 4.887834549 0.9047358632 
21.23676872 -18.32670784 5.585787773 0.8918942809 
16.29043961 -12.83940887 4.130314827 0.9188827276 
27.53425026 -16.28046799 6.369579792 0.8776904345 
37.14847183 -17.71558952 8.195412636 0.8454740047 
42.19816208 -17.86515999 9.124879837 0.8295307159 
76.56684113 32.41601562 16.55675697 0.7124010324 
28.08782387 13.39468765 6.196522236 0.8808070421 
66.47105408 35.41087341 14.99732876 0.7355223894 
67.93346405 40.16769028 15.71523571 0.7247861028 
63.01550674 49.66603851 15.97708321 0.7209095955 
55.81705856 48.16849136 14.68123627 0.7402997017 
29.04541588 32.76284027 8.718637466 0.8364616632 
26.18744087 32.32894897 8.284654617 0.843930006 
21.55521965 35.36877823 8.247804642 0.8445671797 
13.94586182 25.35686874 5.76254797 0.8886710405 
21.433218 55.36876297 11.8227272 0.7849366069 
-8.478689194 111.8687897 22.3401432 0.6328200698 
-11.46554947 94.97122192 19.048769 0.6769513488 
-15.67794609 94.36164093 19.04766464 0.6769669056 
-19.8588295 93.56542969 19.04656601 0.6769821048 
-28.09337616 91.419487 19.04437256 0.6770124435 
-32.13037109 90.07415009 19.04328728 0.6770275831 
-36.10334778 88.5507431 19.04221153 0.6770424247 
-40.66763687 -18.07751846 8.862114906 0.8340072036 
-28.56735802 -14.25288582 6.357275486 0.8779116869 
-23.12844658 -14.23693371 5.408144951 0.8951453567 
-16.48379135 -13.47426224 4.239477634 0.9168305397 
-13.77584457 -13.47267056 3.836966991 0.9244202971 
-10.88573456 -13.93886185 3.521764517 0.9304075837 
-9.919269562 -15.33907223 3.637454033 0.9282055497 
-6.405029297 -17.46326637 3.703948975 0.9269422293 
-5.098239422 -18.97060013 3.911622763 0.9230078459 
-1.826164484 -21.54775429 4.306150436 0.915579319 
3.972385168 -21.53079605 4.359750748 0.9145746827 
4.97127676 -21.5278759 4.399622917 0.9138280749 
5.984230995 -21.50196266 4.44437933 0.9129908085 
8.11047554 -21.51868629 4.579232693 0.9104725718 
10.37606621 -21.51113701 4.755758762 0.9071866274 
10.94051933 -18.31665039 4.248465538 0.916661799 
12.07515335 -18.3133297 4.368078709 0.914418757 
15.93671131 -18.30204964 4.832480907 0.905762136 
17.46136475 -18.33774376 5.042204857 0.9018797278 
19.08226204 -18.33300781 5.269316196 0.8976942897 
20.68133926 -16.60054207 5.280829906 0.897482574 
26.78599739 -16.16138077 6.229505062 0.8802121878 
40.69712448 -17.65850067 8.833932877 0.8344886899 
67.93585968 39.35721588 15.63413811 0.7259911895 
67.92362213 43.49663544 16.06112099 0.7196697593 
56.83562469 48.17146301 14.83577442 0.7379603386 
29.31473541 32.47982407 8.712394714 0.8365687728 
21.55692673 34.67360306 8.13008976 0.8466058373 
-14.83796597 94.49851227 19.0478878 0.6769637465 
-19.02582169 93.73947906 19.04678345 0.6769790649 
-23.17551994 92.79502106 19.04568481 0.6769942641 
-27.27882004 91.66690826 19.0445919 0.6770095825 
-4.132053852 9.185260773 2.005598545 0.9597537518 
-53.62613297 -15.18215752 11.09818077 0.796671927 
-26.17749786 -14.24587345 5.934576511 0.8855453134 
-23.50016594 -14.17886162 5.465328693 0.8940974474 
-19.43459892 -14.22610855 4.79599905 0.9064391851 
-15.24738026 -13.39667416 4.04163456 0.9205531478 
-14.02405262 -13.47340775 3.872557878 0.9237466455 
-11.72625923 -13.46667004 3.555744648 0.9297602177 
-9.375045776 -15.69570732 3.640547514 0.9281467199 
-7.620475769 -15.79838848 3.492764235 0.9309604168 
-5.216782093 -12.17099571 2.636843204 0.9474249482 
-5.020602703 -18.03951645 3.728703022 0.9264723659 
-3.976447582 -21.55342293 4.364331722 0.9144889712 
-2.991840839 -21.55116653 4.332604885 0.9150833488 
-2.01946044 -21.54831505 4.309682369 0.9155130982 
-0.09582763165 -21.54269028 4.289802551 0.9158859253 
0.863132298 -21.53988647 4.292644024 0.9158326387 
2.794450521 -21.53424835 4.32403183 0.9152440429 
4.769968033 -21.52846146 4.390891075 0.9139915705 
6.824045181 -21.52244186 4.495993137 0.9120261073 
10.14116955 -21.51139069 4.735667229 0.9075599313 
11.33588123 -21.50926208 4.841526985 0.9055944085 
11.84316635 -18.31401253 4.342935085 0.9148898125 
17.1537323 -18.33864212 5.000291824 0.9026543498 
26.45336533 -16.28361702 6.185609818 0.8810038567 
29.28290176 -16.27536583 6.671173096 0.8722854853 
39.83375168 -17.70685959 8.680402756 0.8371170759 
66.47548676 33.9083786 14.85978127 0.7375973463 
68.07662964 42.74541855 16.00675583 0.7204716802 
66.50311279 46.00485229 16.10247803 0.7190605998 
57.87540817 48.17449951 14.99470139 0.7355619669 
52.88440323 48.15991974 14.24307919 0.7469731569 
29.71302414 32.33768845 8.744866371 0.8360124826 
27.15589523 32.3306694 8.407635689 0.841806829 
24.78592682 32.32645798 8.111497879 0.8469283581 
22.57108307 32.31977081 7.849852562 0.8514792323 
21.44148636 52.58958054 11.30901623 0.7932391167 
-22.34885406 92.99863434 19.04590607 0.6769914031 
-26.46211052 91.90720367 19.04480934 0.6770064235 
-26.64057732 -14.1921339 6.010699749 0.8841657639 
-19.50857925 -14.0152874 4.78328371 0.9066753387 
-17.10629654 -13.48243618 4.337164879 0.9149978757 
-14.27704334 -13.47414494 3.909143686 0.9230546951 
-12.97929668 -13.39002419 3.713382483 0.9267631173 
-10.26690674 -15.2733345 3.664631844 0.9276889563 
-9.490422249 -15.5723238 3.631377459 0.9283210635 
-8.34625721 -16.91673279 3.756278515 0.9259492159 
-7.671432972 -17.46697807 3.798845768 0.9251422882 
-6.760412216 -17.4643116 3.729101419 0.9264647961 
-5.880534649 -17.46173286 3.669003725 0.9276058674 
-5.09185791 -21.18839836 4.339333534 0.9149572849 
-4.175214767 -21.55364609 4.371726513 0.9143503904 
-3.187702656 -21.55173874 4.33824873 0.9149775505 
-2.213181019 -21.54888153 4.313563347 0.9154402614 
-1.247790456 -21.54606438 4.297620773 0.9157392979 
4.569440842 -21.52904701 4.38254261 0.9141479135 
6.614079475 -21.52305222 4.483653069 0.9122567177 
7.676393986 -21.51995087 4.549704075 0.9110233784 
11.09286308 -21.50996971 4.819277287 0.9060071111 
11.61371803 -18.31468201 4.318408489 0.9153495431 
12.78797054 -18.31124878 4.447453022 0.9129333496 
14.03711128 -18.30760193 4.593822479 0.9102005363 
20.86719513 -14.43516064 5.052575111 0.9016880989 
25.60149193 -16.07506752 6.01962328 0.8840041757 
28.68209076 -16.27711296 6.567034721 0.8741480708 
35.06479263 -17.88596153 7.838296413 0.8516808748 
39.26422501 -17.87371635 8.590602875 0.8386580944 
17.7117672 8.836791992 3.941515446 0.9224429131 
66.46652222 36.94190979 15.14227962 0.7333421111 
67.89984131 41.79636765 15.8769989 0.7223879099 
64.71035004 48.2579155 16.07429504 0.7194755077 
58.9382782 48.17760468 15.1583662 0.7331003547 
33.0153923 32.2887764 9.195724487 0.8283278942 
30.19479752 32.28053284 8.8017416 0.8350391388 
25.2463913 32.32727814 8.167737961 0.8459532857 
-21.52079773 93.19493866 19.04612541 0.6769881845 
-24.94527626 89.63063049 18.52634048 0.6842340231 
-3.957856894 9.233856201 2.000520945 0.9598537683 
-43.56268311 90.31188965 19.96669579 0.6643460393 
-16.85606194 21.19208908 5.392048359 0.8954404593 
-26.92428398 -14.03702641 6.046278 0.8835216761 
-21.89695549 -14.02228928 5.177725792 0.8993798494 
-15.90323162 -13.47891045 4.151211262 0.9184894562 
-13.2925415 -13.47125435 3.768558979 0.9257163405 
-12.15549755 -13.46792412 3.612636566 0.9286774993 
-10.35249996 -15.10857868 3.64705801 0.9280229807 
-9.250383377 -14.87893009 3.488740206 0.931037128 
-9.113073349 -16.2259903 3.705771923 0.926907599 
-6.939997196 -17.46483803 3.742257595 0.9262152314 
-5.195773602 -17.45972633 3.627406597 0.9283965826 
-3.384089231 -21.55231476 4.344262123 0.9148649573 
-2.407263041 -21.54944801 4.317799091 0.9153609276 
-1.44027102 -21.54662514 4.3001194 0.9156924486 
2.405695677 -21.53536987 4.314979553 0.9154137969 
3.380998373 -21.53252792 4.340272903 0.9149397016 
4.369758129 -21.52963257 4.374572754 0.9142971039 
7.461354733 -21.52058029 4.535613537 0.9112862945 
8.550368309 -21.51739693 4.61061573 0.9098874927 
9.67741394 -21.51219177 4.69717741 0.9082757235 
10.85190201 -21.5106144 4.797586441 0.9064096808 
10.28832245 -18.31856346 4.183684826 0.9178788066 
12.54746342 -18.31195259 4.420320988 0.9134408236 
13.78066635 -18.30834961 4.563051701 0.9107744098 
16.51715088 -18.30034065 4.908903122 0.9043455124 
18.09278107 -18.33590317 5.129453182 0.9002694488 
25.39194107 -16.26054573 6.004160404 0.8842841983 
38.36076736 -17.87635231 8.427412987 0.8414658904 
74.83213806 32.46967697 16.24346924 0.7169869542 
17.827425 8.697266579 3.949877262 0.9222849607 
67.35798645 44.84460831 16.11358452 0.7188969851 
54.81949997 48.16557693 14.53104305 0.742580533 
33.61051559 32.2905159 9.281051636 0.8268814087 
25.71356964 32.32810974 8.225456238 0.844953835 
23.44107819 32.32406998 7.951002121 0.8497169614 
21.55345345 36.08517838 8.369769096 0.8424600363 
13.64789867 25.34657097 5.732385159 0.8892202377 
21.46557617 44.50184631 9.838605881 0.8174924254 
-12.31072521 94.86419678 19.04854774 0.6769545674 
-28.9056797 91.16477966 19.04415703 0.6770154238 
-32.93013 89.78369141 19.04307365 0.6770305634 
-44.94091797 -18.0900631 9.646803856 0.8207101226 
-30.99570465 -14.10989761 6.781551838 0.8703157306 
-20.56962204 -14.22943783 4.980543137 0.9030194879 
-17.70840073 -13.45291519 4.428393841 0.9132897854 
-13.53203297 -13.47195816 3.802307606 0.9250767231 
-11.31019783 -13.46544933 3.501709461 0.9307898283 
-10.88498783 -14.19662571 3.562266827 0.9296360612 
-9.820841789 -15.48746586 3.651769876 0.9279333949 
-8.206710815 -15.91366196 3.565425396 0.9295759201 
-7.752873421 -16.83201599 3.690184355 0.927203536 
-5.096259594 -19.65942383 4.044141769 0.9205058813 
-2.601652861 -21.55002403 4.322377682 0.9152750373 
-1.633176208 -21.54719162 4.302964211 0.9156391025 
-0.6712816954 -21.54436874 4.292177677 0.9158414006 
0.2876879871 -21.54156685 4.28992033 0.9158837199 
1.247370601 -21.53876877 4.296163082 0.9157665968 
2.211950541 -21.53594208 4.310978413 0.9154887795 
3.184953451 -21.53310013 4.334498405 0.9150478244 
5.173303127 -21.52729034 4.408735752 0.913657546 
5.982145786 -20.77668953 4.305304527 0.9155951738 
7.247633934 -21.5212059 4.521968842 0.9115410447 
8.32972908 -21.51804161 4.594690323 0.9101843238 
9.4485569 -21.51327515 4.67886591 0.9086164832 
10.61299992 -21.51087761 4.776395798 0.9068031907 
11.82893753 -21.50782204 4.887822151 0.904736042 
11.16253185 -18.31599998 4.271194458 0.9162351489 
14.82769775 -18.30528831 4.690918922 0.9083921909 
16.22465134 -18.30120659 4.870202065 0.9050626755 
17.77451897 -18.33682632 5.085277557 0.9010844827 
19.4243679 -18.33201218 5.318516254 0.8967901468 
21.23694992 -18.32670784 5.58581543 0.8918938041 
27.53451347 -16.28046799 6.369625568 0.8776896 
30.1502018 -16.06180191 6.802545547 0.8699415326 
37.14846802 -17.71538544 8.195392609 0.8454743028 
42.19764709 -17.86515999 9.124785423 0.8295323253 
28.08796501 13.3946209 6.196542263 0.8808066845 
67.93346405 40.16729736 15.71519756 0.7247866988 
67.92108154 44.35250092 16.15324593 0.718313098 
55.81665802 48.16849136 14.68117619 0.7403005958 
31.29323387 32.283741 8.953046799 0.8324553967 
26.18719482 32.32894897 8.2846241 0.8439304829 
21.87662506 32.54456329 7.808613777 0.8521987796 
21.55521965 35.36877823 8.247804642 0.8445671797 
13.94586182 25.35686874 5.76254797 0.8886710405 
21.46851921 43.51330948 9.661945343 0.8204557896 
21.5140419 48.98495102 10.65360069 0.8039594293 
-8.479177475 111.8687897 22.34013557 0.6328199506 
-11.46554947 94.97122192 19.048769 0.6769513488 
-15.67838573 94.36161804 19.04766464 0.6769667268 
-32.13037109 90.07415009 19.04328728 0.6770275831 
-40.66811371 -18.07752419 8.862203598 0.8340057135 
-28.56735802 -14.25288582 6.357275486 0.8779116869 
-17.97465706 -13.40466309 4.46497488 0.9126057029 
-16.48379135 -13.47437954 4.239490986 0.9168302417 
-15.06571007 -13.47645473 4.025105476 0.9208649397 
-13.77573013 -13.47267056 3.836950064 0.9244205952 
-12.52361012 -13.38869095 3.650611401 0.927955389 
-11.5165844 -13.46605396 3.528374672 0.9302816391 
-10.88183308 -15.290205 3.737063408 0.9263136983 
-9.919323921 -15.33900356 3.63744998 0.9282056093 
-8.810544014 -16.71737671 3.762927771 0.9258231521 
-7.940219402 -16.84277344 3.707883835 0.926867485 
-5.091572285 -12.17694283 2.628212929 0.9475924373 
-5.536120415 -17.46072197 3.647505522 0.9280145168 
-5.098239422 -18.97060013 3.911622763 0.9230078459 
-4.775610447 -21.55440903 4.396180153 0.9138925672 
-0.86322999 -21.54493523 4.29364872 0.9158137441 
2.018361807 -21.53650856 4.307319641 0.9155573249 
3.972292423 -21.53079987 4.359747887 0.9145747423 
7.035285473 -21.52182579 4.50877142 0.9117875099 
10.37618351 -21.51113701 4.755766869 0.907186389 
10.9406271 -18.31665039 4.248475075 0.9166615605 
12.07515335 -18.3133297 4.368078709 0.914418757 
13.27806854 -18.30981827 4.503808498 0.9118801355 
17.46136475 -18.33774376 5.042204857 0.9018797278 
24.46718407 -16.28941917 5.853115082 0.8870241046 
36.65266418 -17.8813324 8.12082386 0.8467665911 
40.69712448 -17.65850067 8.833932877 0.8344886899 
78.51898193 32.4217186 16.91584396 0.7071807981 
28.28933525 13.18301487 6.214844704 0.880476594 
66.47328186 34.65634537 14.92766953 0.7365725636 
66.50006866 46.88293457 16.20208549 0.7175949216 
63.68253708 49.27957535 16.03439331 0.7200638056 
29.31473541 32.47982407 8.712394714 0.8365687728 
24.33148956 32.32565308 8.056629181 0.8478807211 
21.48421669 38.25259781 8.736521721 0.8361583352 
21.48818398 42.59383774 9.499854088 0.823184073 
21.51806068 47.83362579 10.44443321 0.8074111938 
-10.62026119 95.07049561 19.04899216 0.6769484878 
-14.83756065 94.4985733 19.0478878 0.6769637465 
-19.02582169 93.73947906 19.04678345 0.6769790649 
-23.1750946 92.7951355 19.04568863 0.6769942045 
-31.32805824 90.35746002 19.04350281 0.6770246029 
-35.3141098 88.86959076 19.04242325 0.6770394444 
-4.132104397 9.18527317 2.005605459 0.9597536325 
-29.21908951 -14.25479984 6.473827839 0.8758183718 
-26.17749786 -14.24587345 5.934576511 0.8855453134 
-23.50016594 -14.17899895 5.465342522 0.8940971494 
-19.43459892 -14.22610855 4.79599905 0.9064391851 
-16.79558754 -13.48152828 4.288631916 0.9159078598 
-15.24738026 -13.39667416 4.04163456 0.9205531478 
-14.02417183 -13.47340298 3.872571945 0.9237463474 
-12.74945259 -13.3893404 3.681578398 0.9273670912 
-11.72636223 -13.46667004 3.555757999 0.9297599792 
-10.88645935 -13.68687916 3.482444286 0.9311571717 
-10.88265324 -15.00691891 3.691345692 0.9271815419 
-10.18045425 -15.43980408 3.682685375 0.9273459911 
-9.374992371 -15.69577599 3.64055109 0.9281466007 
-8.544989586 -15.86957932 3.589066029 0.929125905 
-5.216782093 -12.17099571 2.636843204 0.9474249482 
-5.707895279 -17.46122551 3.658082724 0.9278134108 
-2.991933584 -21.55116653 4.332606792 0.9150833488 
-2.01946044 -21.54831505 4.309682369 0.9155130982 
0.8630395532 -21.5398922 4.292644024 0.9158326387 
1.825275779 -21.53707504 4.30401659 0.9156193137 
2.794543505 -21.53424263 4.324034214 0.9152439833 
5.784865379 -21.52549744 4.438428402 0.91310215 
6.824142933 -21.52244568 4.496002197 0.9120259881 
10.7208519 -18.31729507 4.22631073 0.9170777798 
14.29707241 -18.30683517 4.625384808 0.9096123576 
19.60676384 -16.02690887 5.042654514 0.9018713832 
21.44935799 -15.99592209 5.328103542 0.8966139555 
26.45336533 -16.28361702 6.185609818 0.8810038567 
29.28320885 -16.27535629 6.671226025 0.8722845316 
35.66388702 -17.79348183 7.936509609 0.8499692678 
39.83375168 -17.70664597 8.680382729 0.8371173739 
28.47849846 12.96402454 6.230813026 0.8801886439 
66.47548676 33.90805435 14.8597517 0.7375977635 
66.4642334 37.7190094 15.21763611 0.7322107553 
66.50311279 46.00485229 16.10247803 0.7190605998 
63.68517303 48.38108444 15.92593861 0.7216650248 
52.88486099 48.15992737 14.24315357 0.7469721437 
32.43104935 32.28706741 9.112659454 0.8297383785 
24.78570557 32.32646179 8.111471176 0.8469288349 
21.54977417 37.58221817 8.62668705 0.8380385637 
21.68109512 42.04185867 9.419401169 0.8245418072 
-13.99638844 94.62791443 19.04810715 0.6769607663 
-22.34885406 92.99863434 19.04590607 0.6769914031 
-26.46250153 91.90708923 19.04480934 0.6770064235 
-30.52255058 90.63396454 19.04372025 0.6770213842 
-4.03346777 9.183747292 1.99735117 0.959915936 
-44.1595192 89.50435638 19.87411308 0.6656047702 
-53.07644272 -14.51757336 10.43517876 0.7992933989 
-21.79640388 -14.23303223 4.936717987 0.8994393349 
-13.05736065 -13.4705658 3.557722807 0.9264651537 
-11.93922138 -13.46728516 3.413071156 0.9293467402 
-10.88712883 -13.44040489 3.280148268 0.9320025444 
-10.88340569 -14.73016548 3.47320056 0.9281477928 
-9.574713707 -15.71069336 3.489082575 0.9278314114 
-8.288557053 -16.79969215 3.552562237 0.9265678525 
-5.880558968 -17.46172905 3.494191885 0.9277296662 
-5.026911736 -17.45922279 3.44548583 0.9287002683 
-5.091808796 -21.18810463 4.132522106 0.9151027799 
-3.680383205 -24.88264656 4.770096779 0.9026623964 
-1.440641999 -24.87609291 4.725420952 0.9035285711 
3.001662493 -24.86310577 4.749293327 0.9030656815 
5.58010006 -21.52608871 4.217147827 0.9134417176 
9.908298492 -21.51163483 4.491424084 0.9080790281 
11.09282494 -21.5099659 4.589650631 0.9061659575 
13.63520718 -21.50253296 4.828497887 0.9015313983 
14.03710651 -18.30759239 4.374943733 0.9103526473 
15.37402534 -18.30368042 4.533108234 0.907266736 
20.96468925 -15.92677689 4.992918015 0.8983547091 
20.7959156 -14.38593197 4.795414448 0.9021719098 
25.9358902 -16.28512192 5.807697773 0.8827773333 
28.68194008 -16.27710342 6.254113197 0.8743573427 
44.29459763 -17.82998466 9.055055618 0.8233300447 
66.62023163 41.00867081 14.83560276 0.7272405028 
54.39487076 48.65691376 13.84026623 0.7429482341 
30.25024986 32.33989334 8.397778511 0.8350302577 
25.24654198 32.3272934 7.778591156 0.8462042212 
22.95869064 32.25939178 7.508832932 0.8511191607 
21.55174828 36.8224411 8.091166496 0.8405448794 
22.24561501 42.20977783 9.048335075 0.8234490156 
21.4626503 45.52634048 9.544961929 0.8147161007 
21.50672722 51.43564224 10.57263756 0.7969381213 
-13.81199455 99.49030304 19.04834175 0.6643549204 
-22.59719849 97.85697174 19.04603004 0.6643881798 
-31.2015152 95.44980621 19.04373169 0.6644207835 
-3.957844734 9.233848572 1.905222893 0.9599236846 
-33.65484238 -13.89643002 6.90500164 0.8622244 
-30.59792709 -14.25882339 6.401729107 0.8715906739 
-24.58215332 -14.24118614 5.38757658 0.8907753825 
-17.42424965 -13.48336411 4.178144932 0.9142068624 
-14.44790745 -13.39432621 3.736208439 0.922921896 
-13.29259968 -13.47124481 3.589009285 0.9258431196 
-10.34143257 -15.09239674 3.469571352 0.9282201529 
-8.48506546 -16.81907272 3.572487831 0.9261715412 
-5.195759296 -17.4597168 3.45457077 0.9285191298 
-4.374636173 -21.5538578 4.170828342 0.9143505692 
-3.907092094 -24.88331032 4.776703835 0.9025344253 
-2.779284716 -24.88000488 4.747609138 0.9030983448 
-0.553493619 -24.87349129 4.71819067 0.9036688209 
0.5534399152 -24.87025833 4.717579842 0.9036807418 
4.369738579 -21.52962875 4.166140079 0.9144425988 
6.405138969 -21.52366257 4.258660316 0.912627995 
7.461354733 -21.52056503 4.319506168 0.911436677 
9.677419662 -21.51218224 4.47337532 0.9084308743 
12.07915211 -21.50708389 4.677867889 0.9044515491 
13.36886978 -21.50331497 4.80176115 0.9020489454 
12.54750252 -18.31194878 4.209712505 0.9135876298 
16.51707268 -18.30033684 4.675001621 0.9045071602 
18.05319023 -18.29584885 4.874379158 0.9006438851 
19.77288246 -18.3309803 5.113240719 0.8960371614 
16.4867115 -12.75786114 3.953336 0.9186298251 
28.09936714 -16.27880287 6.158425331 0.8761552572 
30.81376648 -16.06482887 6.590032101 0.8680745959 
37.93637466 -17.67857361 7.937096596 0.8433298469 
42.75133514 -17.65249443 8.771345139 0.8283602595 
17.81749535 7.731037617 3.68329215 0.9239710569 
17.82754898 8.697257042 3.761701584 0.9224170446 
66.46898651 36.17271805 14.35091877 0.7348477244 
60.74656296 48.76040268 14.77216721 0.7282319665 
54.81977463 48.16560364 13.83873844 0.7429723144 
33.61027527 32.29053116 8.838825226 0.8271610737 
30.7965126 32.34211731 8.469183922 0.8337510824 
25.71364594 32.32812119 7.833551407 0.8452064395 
23.39487267 32.26066971 7.557290554 0.8502342105 
21.63142586 32.80647278 7.452129364 0.8521558046 
21.55355644 36.08496475 7.970954418 0.8427169323 
22.6206131 42.01052475 9.048422813 0.8234474659 
21.64190674 50.49171448 10.41778946 0.7995918393 
21.47769547 56.98469162 11.54870319 0.7804123163 
-21.72569466 98.05541992 19.04625893 0.6643847823 
-24.47429466 91.06900024 17.88319206 0.6811830401 
-30.35123634 95.724823 19.04396248 0.6644175649 
-42.81430435 90.81732178 19.04058075 0.6644659042 
-34.54519272 -13.90553188 7.062014103 0.8593230247 
-31.32772827 -14.26096153 6.527608871 0.8692384958 
-27.57410622 -14.06516075 5.870164871 0.8815941811 
-19.38332558 -13.40878391 4.469683647 0.9085028768 
-13.53206253 -13.47195244 3.621144295 0.9252045751 
-9.070935249 -15.81953049 3.458221912 0.9284462929 
-7.742792606 -16.81016159 3.509801626 0.9274188876 
-5.011372089 -12.29149342 2.51726079 0.9473926425 
-6.229098797 -17.46274948 3.516027212 0.9272948503 
-5.365515232 -17.46021461 3.463979959 0.9283315539 
-5.096208572 -19.65940475 3.851448774 0.9206414223 
-4.574763298 -21.55407715 4.178586483 0.914198339 
-4.134426117 -24.88397408 4.783703327 0.9023987651 
-1.885515094 -24.87739754 4.731292725 0.9034146667 
5.173327446 -21.5272789 4.198676109 0.9138040543 
6.197336197 -21.5242672 4.247701168 0.9128428102 
7.247663498 -21.52119637 4.306515217 0.9116909504 
9.448610306 -21.51327133 4.455938816 0.9087710381 
11.82899666 -21.50781631 4.654938698 0.9048967957 
14.82778549 -18.30527878 4.467422009 0.9085469842 
17.7355442 -18.296772 4.832383156 0.9014562368 
19.42436218 -18.33200073 5.065104961 0.8969636559 
14.84576416 -12.81144238 3.718748808 0.9232680202 
21.57865524 -15.50242615 5.038746357 0.8974713087 
37.14855957 -17.71553612 7.804943085 0.8457258344 
47.43803787 -17.63883781 9.597946167 0.8137899041 
28.05284309 13.37794018 5.893927574 0.8811446428 
66.47123718 35.41085052 14.28278255 0.7359232306 
66.45976257 39.29621506 14.6417942 0.730273068 
66.49717712 47.77256393 15.52749634 0.7165184021 
61.26102448 48.28325653 14.79221535 0.7279188633 
55.81717682 48.16851807 13.98175049 0.7406947613 
26.18738556 32.32896423 7.889918804 0.844184339 
21.84119606 32.49163055 7.424476624 0.8526619077 
15.53917217 25.49750519 5.662574291 0.8855320215 
22.91996956 41.67370605 9.019521713 0.8239597082 
-16.46237946 99.0824585 19.04764557 0.6643649936 
-29.49840546 95.99230194 19.04418945 0.6644143462 
-33.73726273 94.57945251 19.04304886 0.6644305587 
-37.90891647 92.97956085 19.0419178 0.6644465923 
-46.41002655 -18.20319748 9.454018593 0.8163083792 
-23.12844276 -14.23692322 5.150463581 0.8953214288 
-18.08278275 -13.48529243 4.277817249 0.9122528434 
-15.06570721 -13.47644997 3.833322048 0.9209997654 
-11.51662827 -13.46605396 3.360264301 0.930400908 
-10.88178921 -15.29005814 3.558979988 0.9264401793 
-9.216623306 -15.74712372 3.460190296 0.928407073 
-5.091513634 -12.17695045 2.502984762 0.9476830959 
-6.405026913 -17.46326065 3.527468204 0.9270671606 
-4.362473011 -24.88463783 4.791105747 0.9022554159 
-2.108405828 -24.87804604 4.734797478 0.9033466578 
-0.9967065454 -24.87479019 4.721055031 0.9036132693 
2.33036375 -24.86506271 4.736092567 0.9033216834 
4.586276531 -24.8584671 4.793736935 0.9022044539 
4.971228123 -21.52787018 4.189997673 0.9139744043 
7.035275936 -21.52182007 4.293941021 0.911937058 
10.37606621 -21.51112747 4.529164791 0.9073435664 
13.27795124 -18.30980873 4.289208412 0.9120298028 
14.56050968 -18.30605888 4.435809135 0.9091638327 
17.42329216 -18.29768944 4.791484356 0.9022480845 
14.61505127 -12.84103489 3.689434767 0.9238491654 
20.73890305 -15.18078136 4.874017715 0.9006508589 
24.46705818 -16.28940964 5.574213505 0.8872133493 
29.51772118 -16.06363297 6.372986317 0.8721287847 
36.65305328 -17.88132858 7.733963013 0.8470155001 
27.55475807 12.84071159 5.765043736 0.8835861087 
66.47346497 34.65611267 14.2164259 0.7369723916 
66.5002594 46.88331985 15.43019485 0.7180167437 
34.83432007 32.29411316 9.008114815 0.8241602778 
26.66810036 32.32981873 7.947737217 0.8431370854 
22.12908554 32.29532242 7.424333096 0.8526645303 
21.49038506 42.59821701 9.048155785 0.8234521151 
-4.13205719 9.185274124 1.910041928 0.9598237276 
-53.61907959 -15.18013191 10.5680027 0.7970173955 
-23.32784653 -14.07496071 5.166769505 0.8950080276 
-21.37648964 -14.23180103 4.870102882 0.9007264972 
-16.79550743 -13.48152351 4.084279537 0.9160509706 
-15.24743652 -13.39666462 3.849071026 0.9206883311 
-11.72625923 -13.46665955 3.386326313 0.9298804998 
-10.88641357 -13.68682575 3.316504955 0.9312753677 
-10.16946507 -15.42312908 3.50343442 0.9275456071 
-9.332075119 -15.62377453 3.451195717 0.9285863638 
-8.916706085 -16.55993652 3.56675458 0.9262856245 
-7.862670898 -16.30049324 3.432061195 0.9289678931 
-5.216786861 -12.17100048 2.511206865 0.9475157857 
-6.582116604 -17.46377945 3.539264441 0.9268323779 
-5.099162579 -18.32193375 3.606638193 0.9254927635 
-4.977541447 -21.55529213 4.19533062 0.913869679 
-3.454294443 -24.8819828 4.763890266 0.9027827382 
-2.331623554 -24.87869644 4.738689423 0.9032713175 
-0.1106909141 -24.8721962 4.716825008 0.9036953449 
2.10738039 -24.86571312 4.7324543 0.9033921957 
3.226335287 -24.86244583 4.754459858 0.9029654264 
4.769968033 -21.52846146 4.181684494 0.9141374826 
10.14122295 -21.51138115 4.510035992 0.9077162147 
11.33593941 -21.50925827 4.610848904 0.9057537317 
12.58699894 -21.50559998 4.72552824 0.9035265446 
14.29700375 -18.30683136 4.404989719 0.9097655416 
15.65322971 -18.30286598 4.567224026 0.9066024423 
17.11626625 -18.29858398 4.751644611 0.9030201435 
18.74654579 -18.33397865 4.972661495 0.8987454176 
14.49097157 -12.96233368 3.687089205 0.9238957167 
20.46138954 -16.72564507 5.011740208 0.8979918361 
26.45335579 -16.28360748 5.890884876 0.8812021613 
39.83385849 -17.70678139 8.266823769 0.8373811245 
45.52349472 -17.85546303 9.273421288 0.8194794059 
17.81517029 7.171178818 3.641923189 0.9247919917 
27.88759613 12.69496441 5.81081152 0.8827183843 
66.46442413 37.71881866 14.49260139 0.7326158285 
66.87263489 41.98921967 14.97447681 0.725076139 
63.43439484 48.19076538 15.10743141 0.7230091691 
57.87545776 48.17453003 14.28027439 0.7359629869 
54.37269592 49.51529312 13.94620228 0.7412602901 
27.15590668 32.33068466 8.007048607 0.8420642018 
24.73848534 32.26459503 7.710233688 0.8474471569 
22.52804947 32.25813293 7.4615798 0.8519830108 
21.54987717 37.58258438 8.215723991 0.8383002281 
21.86883163 42.40570068 9.048244476 0.8234505653 
21.45948601 46.59026337 9.727591515 0.8115280271 
21.50351334 52.74199677 10.8013916 0.7930338979 
-9.203107834 89.60675812 17.08246422 0.6929937601 
-23.4670372 97.65085602 19.04579735 0.6643912792 
-27.78596878 96.50443268 19.04464722 0.6644077301 
-32.04944611 95.16724396 19.04350281 0.664423883 
-4.03348875 9.183739662 1.90218389 0.9599856734 
-53.07649231 -14.5176115 10.43518925 0.79929322 
-29.89570045 -14.2567625 6.281107426 0.8738507032 
-26.64050293 -14.19202137 5.724293709 0.884359479 
-23.95503807 -14.16413498 5.277553558 0.8928818703 
-21.79636765 -14.23302746 4.936711788 0.8994394541 
-17.106287 -13.48243618 4.130514622 0.9151422381 
-14.19166756 -13.39356899 3.700623035 0.9236272573 
-10.25585175 -15.25695801 3.486281157 0.9278872609 
-7.671476841 -17.46696663 3.617847919 0.9252700806 
-6.760456562 -17.46430206 3.551426411 0.9265904427 
-5.880568504 -17.46172333 3.494192362 0.9277296662 
-5.026894569 -17.45922279 3.445485115 0.9287002683 
-5.091808796 -21.18817329 4.132537842 0.9151025414 
-3.68037343 -24.88264656 4.770096779 0.9026623964 
-2.555246592 -24.87935066 4.742952347 0.9031885862 
-1.440641999 -24.87609291 4.725420952 0.9035285711 
-0.3320629895 -24.87284088 4.717319965 0.9036857486 
0.7749047875 -24.86960793 4.718575478 0.9036613703 
1.884714365 -24.86636162 4.729200363 0.9034553766 
4.130446911 -24.85979462 4.779057026 0.9024888277 
9.908278465 -21.51163483 4.491421223 0.9080790281 
11.09285831 -21.50996017 4.589654446 0.9061659575 
12.33179951 -21.50634193 4.701390266 0.9039948583 
15.37401581 -18.30368042 4.533107758 0.907266736 
20.12817574 -18.32993698 5.162722588 0.8950858116 
20.96458244 -15.92666912 4.992889404 0.8983552456 
25.93591499 -16.28512192 5.807701111 0.8827772141 
31.75515747 -16.1978569 6.760258675 0.8649078608 
29.04519653 12.91113281 6.027832031 0.8786152005 
17.71181297 8.836815834 3.753727436 0.9225749373 
66.62026215 41.00873947 14.8356514 0.727240324 
58.93833923 48.17763138 14.43614197 0.7335044146 
33.04656601 32.3196907 8.765948296 0.8284568191 
30.25020981 32.33989334 8.397770882 0.8350303769 
27.6510582 32.33156586 8.067889214 0.8409650326 
25.2465229 32.3272934 7.778589725 0.8462042809 
21.4626503 45.52648163 9.544987679 0.8147156835 
-8.398000717 89.6091156 17.06799316 0.6932091713 
-13.81219482 99.49027252 19.04834175 0.6643549204 
-22.59736061 97.85693359 19.04603004 0.6643881798 
-31.20161247 95.44978333 19.04373169 0.6644207239 
-33.82049561 89.73239136 18.18545341 0.6767766476 
-3.957849741 9.233844757 1.905160666 0.9599236846 
-43.56243896 90.31136322 19.01496124 0.664830327 
-30.59792709 -14.25882339 6.401729107 0.8715906739 
-15.90322685 -13.47890568 3.953418493 0.9186281562 
-13.29253674 -13.47124958 3.58899951 0.9258432388 
-12.15549564 -13.46791935 3.440504789 0.92879951 
-10.3414278 -15.0924263 3.469574451 0.9282200336 
-9.230856895 -14.84751415 3.31549859 0.9312955141 
-6.939987659 -17.46482849 3.563950062 0.9263412952 
-5.094079494 -20.39679718 3.986872435 0.9179686904 
-3.907116652 -24.88331032 4.776704788 0.9025344253 
-2.77931881 -24.8800087 4.747609138 0.9030983448 
-0.5534448028 -24.87349129 4.718190193 0.9036688209 
0.553493619 -24.87025833 4.717579842 0.9036807418 
1.662336349 -24.86701584 4.726318836 0.9035111666 
3.903537512 -24.8604641 4.77231884 0.9026193619 
4.369758129 -21.52962303 4.166140556 0.9144425988 
6.405148983 -21.52366257 4.25866127 0.912627995 
7.461354733 -21.52056503 4.319506168 0.911436677 
8.550363541 -21.51738739 4.390934944 0.9100400805 
10.85189629 -21.51060486 4.568998337 0.9065678716 
13.36884499 -21.50331497 4.80176115 0.902049005 
12.54745865 -18.31194878 4.209709167 0.9135876894 
13.78065681 -18.30834007 4.345637321 0.9109255672 
15.09885979 -18.30448723 4.499838829 0.9079148769 
16.51714516 -18.30033684 4.675011635 0.9045069814 
19.7729454 -18.3309803 5.113249779 0.8960370421 
19.22135544 -16.29120636 4.778282166 0.9025038481 
16.48676872 -12.75787544 3.953346968 0.9186296463 
21.15810204 -14.91659641 4.909348011 0.8999679089 
28.09940529 -16.27880287 6.158432007 0.876155138 
30.81376648 -16.06482887 6.590032101 0.8680745959 
42.75133514 -17.65249443 8.771345139 0.8283602595 
17.81748199 7.731008053 3.683287382 0.9239711761 
17.82757568 8.697249413 3.761704683 0.922416985 
66.46898651 36.17262268 14.35090828 0.7348478436 
66.44515228 44.23692322 15.13786602 0.7225370407 
65.9302597 48.26088715 15.49482727 0.7170211077 
54.81953812 48.16559982 13.83870411 0.7429729104 
33.61021805 32.29053497 8.838816643 0.8271612525 
30.79644966 32.34211349 8.469177246 0.8337512612 
22.6206131 42.01052475 9.048422813 0.8234474659 
21.46570015 44.50160217 9.369800568 0.8177855611 
-8.482897758 100.092926 19.0497303 0.6643352509 
-24.47429466 91.06900024 17.88319206 0.6811830401 
-30.35114861 95.72483826 19.04396248 0.6644175649 
-34.57715607 94.27429199 19.04282188 0.6644339561 
-38.73426056 92.63739777 19.04169464 0.6644499898 
-42.8142662 90.81734467 19.04058075 0.6644659042 
-34.54523087 -13.90554619 7.062033653 0.8593229055 
-27.57410622 -14.06523895 5.870172024 0.8815940619 
-24.84309196 -14.09860802 5.417052269 0.8902118802 
-22.38690948 -14.05677223 5.012993813 0.897967577 
-17.74958038 -13.48431587 4.227218151 0.913244307 
-16.19417191 -13.47976017 3.9957757 0.9177932739 
-14.79761219 -13.47566414 3.795479059 0.9217482805 
-13.5320282 -13.47195244 3.621139526 0.9252046943 
-11.31018734 -13.46544361 3.33486557 0.9309083819 
-10.88494396 -14.19643497 3.392504692 0.9297571778 
-10.88094902 -15.58054638 3.603911638 0.9255469441 
-9.773112297 -15.41205025 3.460851908 0.92839396 
-9.07092762 -15.81947231 3.458209753 0.9284465313 
-8.135961533 -15.77629375 3.366246223 0.9302815199 
-5.011389256 -12.29144287 2.51725316 0.9473928213 
-6.229057312 -17.46274948 3.51602459 0.92729491 
-4.134401798 -24.88397408 4.783703327 0.9023988247 
-3.003747463 -24.88066292 4.752644539 0.9030007124 
0.3320434391 -24.87090302 4.716954231 0.9036928415 
1.440163493 -24.86766624 4.723820686 0.9035596251 
7.247633934 -21.52119637 4.306513786 0.9116909504 
8.329616547 -21.51803589 4.375765324 0.9103365541 
10.61299992 -21.51086807 4.548820019 0.9069607258 
14.82782459 -18.30528259 4.467426777 0.9085469246 
17.7355442 -18.296772 4.832383156 0.9014562368 
19.42436218 -18.33200073 5.065104961 0.8969636559 
21.57863998 -15.50245571 5.038746357 0.8974713087 
24.94335175 -16.28801155 5.649478436 0.8857809901 
47.43830872 -17.63883781 9.597995758 0.81378901 
17.77320671 7.524611473 3.660150766 0.9244302511 
28.05280876 13.37800121 5.893927097 0.8811447024 
66.45976257 39.29632568 14.64180374 0.7302728891 
66.44766235 43.39033508 15.04989719 0.72390306 
61.26102448 48.28325653 14.79221535 0.7279188633 
55.81717682 48.16851807 13.98175049 0.7406947613 
34.21656036 32.29230499 8.92232132 0.8256796598 
31.35226059 32.34437943 8.542510033 0.832439661 
26.18742371 32.32896423 7.889924049 0.8441842794 
23.83687019 32.26195908 7.60699892 0.8493273258 
21.84123421 32.49160385 7.424482346 0.8526619077 
15.53921509 25.49751091 5.662586689 0.8855319023 
22.91998482 41.67396927 9.019379616 0.823958993 
-8.478717804 111.8688278 21.2757206 0.6333342791 
-12.03918171 99.72277069 19.04880524 0.6643484235 
-16.46228218 99.08249664 19.04764557 0.664364934 
-29.49859047 95.99226379 19.04418945 0.6644142866 
-53.08469772 -15.54056644 10.48952866 0.7983612418 
-25.29810905 -14.06060982 5.488758564 0.8888424635 
-23.12844276 -14.23692322 5.150463581 0.8953214288 
-16.48374557 -13.47422314 4.037466526 0.9169721007 
-13.77584934 -13.47266102 3.654147148 0.9245492816 
-12.52359581 -13.38868141 3.476673603 0.9280786514 
-11.51668644 -13.46604919 3.360273361 0.9304007292 
-10.88568592 -13.93881321 3.353953123 0.9305270314 
-10.88178444 -15.29013634 3.558990479 0.9264399409 
-10.08220482 -15.59102535 3.521044254 0.9271950126 
-9.216593742 -15.74715328 3.460193396 0.928407073 
-8.44390583 -16.02188873 3.434541464 0.9289184809 
