# .PCD v0.7 - Point Cloud Data file format
VERSION 0.7
FIELDS x y z intensities
SIZE 4 4 4 4
TYPE F F F F
COUNT 1 1 1 1
WIDTH 923
HEIGHT 1
VIEWPOINT 0 0 0 1 0 0 0
POINTS 923
DATA ascii
-6.483577728 9.462219238 -1.850954294 0.9545882344 
-8.40042305 7.78780508 -1.848467946 0.9546478391 
-9.054692268 7.006755352 -1.847516537 0.9546706676 
-9.354929924 6.5952878 -1.847026348 0.9546824098 
-9.708584785 6.217153072 -1.86035049 0.9543630481 
-11.22711849 5.231906414 -1.998752713 0.9510523081 
-11.44845676 4.727187157 -1.998704672 0.9510535002 
-11.64717293 4.213163853 -1.99866271 0.9510544538 
-11.97514248 3.161196232 -1.998597026 0.9510560036 
-12.20845509 2.084296942 -1.998556376 0.9510570168 
-12.28902817 1.539106369 -1.998545527 0.9510572553 
-12.38457775 -0.1102392524 -1.998551011 0.9510571361 
-12.36750698 -0.6610497832 -1.998565435 0.9510567784 
-12.32599258 -1.210556626 -1.998586178 0.951056242 
-12.2601099 -1.757685542 -1.998613238 0.9510555863 
-12.16998863 -2.301359892 -1.998646498 0.9510548115 
-12.05580807 -2.840507746 -1.998685837 0.9510538578 
-11.9177866 -3.374047756 -1.998731375 0.9510527849 
-11.75619221 -3.900954485 -1.998782754 0.9510515928 
-11.57135868 -4.420175552 -1.998840094 0.9510502219 
-11.13343811 -5.431484222 -1.99897182 0.9510471225 
-10.31269264 -6.865842342 -1.999210477 0.9510413408 
-9.662514687 -7.75599575 -1.999394894 0.9510369897 
-9.308393478 -8.178554535 -1.999494314 0.9510346055 
-8.545558929 -8.974460602 -1.99970603 0.9510295391 
-4.037312031 -6.123032093 -1.183513284 0.9707206488 
-3.286127806 -6.102934361 -1.118506312 0.9723063707 
-2.616262197 -6.103852272 -1.071630359 0.9734514356 
-1.704401851 -6.124091625 -1.025789738 0.9745725393 
-1.41619873 -6.13291502 -1.015697002 0.974819541 
-1.131469727 -6.132875919 -1.006349325 0.9750483632 
-0.5813232064 -6.202922344 -1.005336881 0.9750731587 
-0.3083886504 -6.295454025 -1.017100573 0.9747852087 
-0.05521972477 -12.40614986 -2.001972675 0.9509754181 
0.4967114031 -12.397192 -2.002115011 0.9509720802 
2.142853975 -12.22336674 -2.002536774 0.9509619474 
2.684658051 -12.11676979 -2.00267458 0.9509586692 
3.221218109 -11.98618412 -2.002810478 0.9509553909 
3.751469612 -11.83181572 -2.002944231 0.9509521723 
4.788835526 -11.45305157 -2.003204107 0.9509459734 
5.293901443 -11.22939682 -2.003329754 0.9509429932 
6.271816254 -10.71569347 -2.003572226 0.9509372115 
6.742670536 -10.42670345 -2.003688812 0.9509344101 
3.18376708 -3.11369133 -0.7186103463 0.9821183681 
3.504689932 -2.864819288 -0.7304461002 0.9818265438 
3.822436333 -2.85059309 -0.7694533467 0.9808654189 
4.17331028 -2.832375526 -0.8138890862 0.9797716141 
11.75671101 -4.017648697 -2.004870892 0.9509062171 
12.18737507 -2.417153358 -2.004953623 0.9509041905 
12.42291927 -0.2211328149 -2.004975796 0.9509037137 
12.39325142 0.883862257 -2.004948378 0.9509043097 
12.26532173 1.981813908 -2.004895687 0.9509056211 
12.16479683 2.525414944 -2.004859924 0.9509064555 
11.891675 3.596457481 -2.004770279 0.9509086013 
11.71960926 4.121767521 -2.004716396 0.950909853 
11.52431107 4.638872147 -2.004656792 0.9509112835 
10.80317402 6.130871296 -2.004443884 0.9509164095 
9.18196106 8.361679077 -2.003989935 0.9509272575 
8.401543617 9.143678665 -2.003773928 0.9509323835 
7.986027718 9.507822037 -2.003659725 0.9509351254 
7.554726601 9.853075027 -2.003541946 0.9509379864 
7.108525276 10.17876244 -2.003420591 0.9509408474 
6.648295879 10.48425484 -2.003295898 0.950943768 
5.689416409 11.03222847 -2.00303793 0.9509499669 
5.192686558 11.27365971 -2.002904892 0.950953126 
4.685737133 11.49270248 -2.002769709 0.9509564042 
3.645181894 11.86205673 -2.002493858 0.9509629607 
3.113694906 12.01163101 -2.002353668 0.9509662986 
1.486939669 12.31656837 -2.001927376 0.950976491 
0.9375121593 12.36963272 -2.001784086 0.9509798884 
-0.7170580626 12.38170338 -2.001355886 0.9509901404 
-1.267038584 12.33667946 -2.001214504 0.9509935379 
-1.814436555 12.26725578 -2.001074076 0.9509968758 
-3.171415329 11.01484585 -1.849648833 0.9546195865 
-3.660472393 10.86944962 -1.850767493 0.9545927048 
-4.605148315 10.48528576 -1.84798491 0.9546594024 
-8.331186295 7.862665653 -1.848560691 0.9546456337 
-8.670503616 7.482394695 -1.848092437 0.9546568394 
-9.582337379 6.257270336 -1.846759319 0.9546887875 
-10.46627426 6.188496113 -1.962064028 0.9519287944 
-10.93221569 5.823876858 -1.998818159 0.9510507584 
-11.40600681 4.828884125 -1.998713851 0.9510532022 
-11.78956985 3.79587388 -1.998633385 0.9510551691 
-11.94654369 3.267602444 -1.99860239 0.9510560036 
-12.07994556 2.732929707 -1.998577714 0.9510564804 
-12.27485943 1.648432612 -1.998547196 0.9510571957 
-12.37275219 0.5509325862 -1.998541832 0.9510573745 
-12.37287903 -0.5509374738 -1.998561978 0.9510568976 
-12.27522945 -1.648486257 -1.998607278 0.9510557652 
-11.94727993 -3.267817259 -1.998721719 0.9510530829 
-11.79036427 -3.796188831 -1.998772025 0.9510518909 
-11.6101656 -4.317031384 -1.998828292 0.9510504603 
-10.06213856 -7.228813171 -1.999281883 0.9510396719 
-9.731071472 -7.669606686 -1.999375582 0.9510374069 
-9.011796951 -8.505004883 -1.999576926 0.9510326385 
-8.625009537 -8.897939682 -1.999684095 0.9510300756 
-8.221108437 -9.273300171 -1.999795437 0.9510274529 
-7.800915241 -9.630394936 -1.999910712 0.9510246515 
-7.178559303 -9.715805054 -1.949335694 0.9522330761 
-4.122136116 -6.132206917 -1.192331195 0.9705057144 
-3.724162579 -6.110773563 -1.154776573 0.9714213014 
-3.00974369 -6.100341797 -1.097689152 0.9728147388 
-2.68038559 -6.102929592 -1.075613379 0.9733541012 
-2.364042997 -6.107079983 -1.056744337 0.9738153815 
-2.059296846 -6.114912033 -1.041200519 0.9741954803 
-1.762851477 -6.12267828 -1.028138876 0.9745150805 
-1.473012686 -6.129558086 -1.017273664 0.9747809768 
-1.18777585 -6.131630898 -1.007840037 0.9750118852 
-0.9087694883 -6.144091606 -1.002245545 0.9751488566 
-0.6355664134 -6.188288212 -1.003842473 0.975109756 
-0.3628564477 -6.265563965 -1.012752771 0.974891603 
0.9377172589 -12.37237549 -2.002228498 0.9509693384 
2.033942938 -12.24178219 -2.002509117 0.9509626031 
2.57666254 -12.14003849 -2.002647161 0.9509592652 
3.645998478 -11.86456299 -2.002917767 0.9509528279 
4.686691761 -11.49504852 -2.003178596 0.950946629 
6.649548054 -10.48619366 -2.003665686 0.9509348869 
3.080534697 -3.667551279 -0.7728926539 0.9807807207 
3.123256683 -3.399138212 -0.7448989749 0.9814703465 
3.170656681 -3.156584501 -0.7219657898 0.9820356369 
3.2380054 -2.948735237 -0.7067039609 0.9824120402 
3.757336378 -2.854438305 -0.7614331841 0.9810629487 
4.099750996 -2.836052179 -0.8044319749 0.9800043106 
11.52525139 -4.639262676 -2.004822016 0.9509073496 
11.72045898 -4.122075081 -2.004863262 0.9509063959 
11.89243412 -3.596691847 -2.004898548 0.9509055018 
12.39344501 -0.8838866949 -2.004979849 0.9509035945 
12.4228754 0.2211303711 -2.00496769 0.9509038925 
12.4006443 0.7735180259 -2.004952192 0.9509042501 
12.2825098 1.872619629 -2.004902124 0.9509054422 
12.18684101 2.417097092 -2.004867554 0.9509062767 
12.0670042 2.9567554 -2.004827023 0.9509072304 
11.75587845 4.017355919 -2.00472784 0.9509096146 
11.35160637 5.045993328 -2.004604816 0.9509125352 
11.11550522 5.545763969 -2.00453496 0.9509142637 
10.5777874 6.511250019 -2.004378557 0.9509179592 
10.27722645 6.975041389 -2.004292727 0.9509200454 
9.956344604 7.424973011 -2.00420332 0.9509221315 
8.878188133 8.682793617 -2.003905535 0.9509292245 
6.741394997 10.42481804 -2.003320932 0.950943172 
6.270589352 10.7137022 -2.003194094 0.9509462118 
5.787415504 10.98131371 -2.003064156 0.9509493709 
4.7878685 11.45071983 -2.002797127 0.950955689 
4.273468971 11.65156364 -2.002660275 0.9509589672 
3.750678539 11.829319 -2.002521753 0.9509622455 
2.684083223 12.11414528 -2.002240658 0.9509690404 
2.142396212 12.22069454 -2.00209856 0.9509723783 
1.596540451 12.30301476 -2.001955748 0.9509758353 
1.047602534 12.36097431 -2.001812935 0.9509792328 
-0.05517578125 12.40339565 -2.001526833 0.9509860277 
-0.6068273783 12.38778305 -2.001384497 0.9509894252 
-2.577429056 11.1614666 -1.848496914 0.9546471238 
-3.072916746 11.0412941 -1.849423766 0.9546248913 
-3.563192129 10.90026569 -1.850544691 0.9545980692 
-7.527237415 8.644436836 -1.849654317 0.9546194077 
-8.604025841 7.559622765 -1.848186851 0.9546545744 
-8.929495811 7.167553425 -1.847710013 0.9546659589 
-9.237060547 6.761464596 -1.84722352 0.9546776414 
-10.26926517 6.195969105 -1.935387015 0.9525666237 
-11.13234425 5.430952072 -1.998773456 0.9510517716 
-11.36262226 4.930239201 -1.998723149 0.9510530233 
-11.7553587 3.900673628 -1.998640418 0.9510549903 
-11.91705513 3.373837709 -1.998608232 0.9510557055 
-12.16946602 2.301264524 -1.998562455 0.951056838 
-12.2597065 1.757636666 -1.998548985 0.9510571957 
-12.32571507 1.210532188 -1.998541951 0.9510573149 
-12.36736202 0.6610448956 -1.998541236 0.9510573149 
-12.38456154 0.1101953089 -1.998546839 0.9510571957 
-12.28937244 -1.539201617 -1.998601675 0.9510558844 
-12.20892715 -2.084389687 -1.998632431 0.9510551691 
-11.97583103 -3.161381721 -1.99871242 0.9510532618 
-11.64805603 -4.213481426 -1.99881649 0.951050818 
-10.98472023 -5.726904392 -1.999015808 0.95104599 
-10.71949673 -6.210122108 -1.999093294 0.9510442019 
-10.43308544 -6.681098461 -1.999176025 0.9510421157 
-10.1259985 -7.138896465 -1.999263763 0.9510400891 
-9.452311516 -8.011376381 -1.999454021 0.9510356188 
-9.087016106 -8.424404144 -1.999555945 0.9510331154 
-8.703735352 -8.820754051 -1.999662399 0.9510305524 
-8.30320549 -9.199699402 -1.999772906 0.9510279298 
-7.886198521 -9.560507774 -1.999887347 0.951025188 
-7.30035162 -9.698905945 -1.958898425 0.9520044327 
-3.797436476 -6.108041763 -1.160599709 0.9712792635 
-3.428354502 -6.104245663 -1.129750848 0.9720318913 
-3.077890635 -6.100991249 -1.102692246 0.9726925492 
-2.745009661 -6.101957798 -1.079704881 0.9732540846 
-2.119501829 -6.113212585 -1.044082642 0.9741249681 
-1.821591735 -6.121220589 -1.030576348 0.9744554162 
-1.244428635 -6.131262302 -1.009560585 0.9749697447 
0.8276098371 -12.38006115 -2.002200127 0.9509699345 
1.377580523 -12.33186054 -2.00234127 0.9509665966 
1.924916983 -12.25923347 -2.002481222 0.9509632587 
3.007304668 -12.04128361 -2.002756357 0.9509567022 
5.093073845 -11.3215456 -2.003279924 0.9509441853 
6.079941273 -10.82539082 -2.003524542 0.9509382844 
6.555871487 -10.54483891 -2.003642559 0.950935483 
3.073088408 -3.725497961 -0.7793103456 0.9806226492 
3.113212824 -3.449311495 -0.7497925162 0.9813497066 
3.224482298 -2.989357948 -0.7095318437 0.9823422432 
5.308251858 -2.767438889 -0.9660012722 0.9760366678 
11.68325138 -4.226213455 -2.004855633 0.9509065747 
11.85991955 -3.702341318 -2.004891872 0.9509056807 
12.14236832 -2.633661985 -2.004945993 0.950904429 
12.32857132 -1.544062495 -2.004974842 0.9509037137 
12.3850832 -0.9941674471 -2.00497961 0.9509035945 
12.41702366 -0.4421948195 -2.004977942 0.9509036541 
12.42436028 0.1105419919 -2.004970074 0.9509038329 
12.40706253 0.663154304 -2.004955769 0.9509041309 
12.29872036 1.763220191 -2.004908323 0.950905323 
12.20791721 2.30847168 -2.004874945 0.9509060979 
11.95389652 3.384328604 -2.004790068 0.9509081244 
11.16449165 5.44669199 -2.004549265 0.9509138465 
10.33900356 6.883347034 -2.004310369 0.9509195685 
10.02209949 7.336159706 -2.004221201 0.9509217143 
8.95522213 8.603520393 -2.003926992 0.9509287477 
8.563118935 8.992910385 -2.003818512 0.9509313703 
8.154213905 9.364370346 -2.003705978 0.9509339929 
7.288780212 10.05085945 -2.003469467 0.9509396553 
3.855877638 11.79561615 -2.002549648 0.9509616494 
2.79184556 12.08995247 -2.00226903 0.9509683251 
2.251068115 12.20132256 -2.002126932 0.9509717226 
1.157546401 12.3513422 -2.001841307 0.9509785175 
0.6069799662 12.38972187 -2.001698256 0.9509819746 
0.05518432334 12.40357399 -2.001555204 0.9509853721 
-1.047308922 12.35763359 -2.001270771 0.950992167 
-2.141200542 12.21392536 -2.000990629 0.9509989023 
-2.486624718 11.22276306 -1.854911566 0.9544934034 
-3.465651274 10.93020725 -1.850321412 0.9546034336 
-3.943754911 10.75263023 -1.848151088 0.9546554089 
-4.417921543 10.5658474 -1.848031759 0.9546583295 
-5.796214581 9.90321064 -1.851653457 0.9545714855 
-6.229614258 9.633322716 -1.851225734 0.9545817375 
-7.45042944 8.711608887 -1.849761367 0.954616785 
-8.536830902 7.636300087 -1.848281026 0.9546523094 
-8.865828514 7.247092247 -1.847806215 0.9546636939 
-9.176995277 6.843779087 -1.84732163 0.9546753168 
-9.469833374 6.427021503 -1.846827865 0.9546871781 
-10.07672977 6.202826977 -1.909434915 0.9531875849 
-10.82699585 6.017550945 -1.998841763 0.9510501623 
-11.31836033 5.03116703 -1.998732686 0.9510527849 
-11.72024345 4.005122185 -1.998647571 0.9510547519 
-11.88658047 3.479797363 -1.998614192 0.9510555863 
-12.02945423 2.94749999 -1.998586893 0.951056242 
-12.14851665 2.409497023 -1.998565912 0.9510567784 
-12.24359989 1.866633296 -1.99855125 0.9510571361 
-12.36098385 0.7710473537 -1.998540878 0.9510573745 
-12.30255222 -1.429750919 -1.998596311 0.9510560632 
-12.22693729 -1.975668907 -1.998625755 0.9510553479 
-12.12718964 -2.517614603 -1.998661399 0.9510544538 
-11.68502331 -4.10966301 -1.998805046 0.9510510564 
-11.27422714 -5.132270336 -1.998929977 0.9510480165 
-10.77423477 -6.114448071 -1.999077201 0.9510446191 
-10.49204826 -6.587914944 -1.999158859 0.9510425329 
-10.18901634 -7.048461914 -1.999245763 0.9510405064 
-9.865876198 -7.495017052 -1.999337554 0.9510383606 
-9.523132324 -7.926894188 -1.999434114 0.951036036 
-9.1615839 -8.343058586 -1.999535203 0.9510335922 
-4.297058105 -6.153007507 -1.211055517 0.9700495601 
-3.875400305 -6.111505985 -1.167764187 0.9711046219 
-2.81010747 -6.100934982 -1.083907485 0.9731514454 
-1.588225007 -6.126784325 -1.02134347 0.9746813774 
-1.301457524 -6.131865025 -1.011525035 0.9749216437 
-0.7432788014 -6.156752586 -1.000715256 0.975186348 
-0.4723681509 -6.232092381 -1.00854218 0.9749946594 
-0.1996752918 -6.408503056 -1.034628034 0.9743562937 
0.1656713784 -12.40552235 -2.002029896 0.9509740472 
1.815690875 -12.27570248 -2.002453327 0.9509639144 
3.961547852 -11.76347351 -2.00299716 0.9509509802 
4.481249809 -11.57633972 -2.003127337 0.9509478807 
4.992035866 -11.36629105 -2.00325489 0.9509447813 
3.065949678 -3.785014629 -0.7860172391 0.9804575443 
3.152251005 -3.251972675 -0.7308369279 0.9818168879 
3.210800648 -3.03022933 -0.7124250531 0.9822708964 
3.327563286 -2.871562481 -0.7092562914 0.9823490381 
3.956774712 -2.842585325 -0.7861822844 0.9804534912 
4.31959486 -2.820688486 -0.832493782 0.9793140292 
5.207014084 -2.773910999 -0.9520359635 0.9763789773 
11.44073677 -4.843652248 -2.004803658 0.9509078264 
11.645154 -4.329982758 -2.004847527 0.9509067535 
11.82643032 -3.807802677 -2.004884958 0.9509058595 
11.98432064 -3.277954102 -2.00491643 0.9509050846 
12.37574196 -1.104316354 -2.004979134 0.9509035945 
12.41261673 -0.5526562333 -2.004978895 0.9509035945 
12.42487049 -2.441406195e-06 -2.004972219 0.9509037733 
12.41248798 0.552746594 -2.004959106 0.9509040713 
12.37549019 1.104287028 -2.004939795 0.9509046078 
12.22801495 2.199775457 -2.004882097 0.9509059787 
11.98362541 3.27775383 -2.004799843 0.950907886 
11.8256464 3.807538986 -2.004749537 0.9509090781 
10.96324444 5.840400219 -2.004490376 0.9509153366 
9.40216732 8.113848686 -2.004050493 0.950925827 
9.031508446 8.523590088 -2.003947973 0.9509282112 
8.64289856 8.916469574 -2.003840685 0.9509308338 
8.237300873 9.291549683 -2.003728628 0.9509334564 
7.815324306 9.648259163 -2.003612995 0.9509361982 
7.378000259 9.98573494 -2.003493786 0.9509390593 
4.991041183 11.36400604 -2.002851009 0.9509543777 
4.480327129 11.57396221 -2.002715111 0.9509576559 
3.960711479 11.76101875 -2.002577305 0.9509609938 
3.433443546 11.92471123 -2.002438068 0.9509643316 
1.267409682 12.34072113 -2.001870155 0.9509779215 
0.7171960473 12.38400364 -2.001726866 0.9509812593 
0.1655383259 12.40276051 -2.001583815 0.9509847164 
-0.9373370409 12.36663342 -2.001299143 0.9509915113 
-1.486357331 12.31182957 -2.001158237 0.9509949088 
-2.032473087 12.23267269 -2.001018286 0.9509981871 
-2.468374491 11.62983418 -1.91848433 0.9529710412 
-2.875221491 11.09152794 -1.848972559 0.9546357393 
-4.323707104 10.60490799 -1.848055363 0.9546577334 
-4.801440239 10.42426777 -1.852000237 0.9545631409 
-6.567213058 9.403662682 -1.850861311 0.9545904994 
-6.977232456 9.099815369 -1.850378633 0.9546020627 
-7.373045444 8.778045654 -1.849867105 0.9546142817 
-8.119524002 8.083491325 -1.848836303 0.9546390176 
-8.468987465 7.71233511 -1.848374724 0.954650104 
-9.412732124 6.511449814 -1.846927285 0.9546847939 
-10.77303886 6.113767147 -1.998854041 0.9510498643 
-11.03404808 5.628281116 -1.998795271 0.9510512352 
-11.27316666 5.131792068 -1.998742461 0.9510525465 
-11.68414402 4.109350681 -1.998654842 0.9510546327 
-12.0027914 3.054421425 -1.9985919 0.9510561228 
-12.12662697 2.517490149 -1.998569608 0.9510566592 
-12.35363483 0.8809912205 -1.998540759 0.9510573745 
-12.38062096 0.3306298852 -1.998543859 0.9510572553 
-12.3831234 -0.2204736322 -1.998553276 0.9510570765 
-12.36116219 -0.7710546851 -1.998569012 0.9510566592 
-12.24401951 -1.866701603 -1.998619318 0.9510554671 
-12.03010273 -2.94766593 -1.998694539 0.951053679 
-11.88733768 -3.480019569 -1.99874115 0.9510525465 
-11.53163052 -4.52302742 -1.998852134 0.9510499239 
-11.31939793 -5.031620979 -1.998916388 0.9510484338 
-10.82813072 -6.018300533 -1.999061584 0.9510449171 
-9.932074547 -7.406874657 -1.999318838 0.9510387778 
-9.593178749 -7.841769695 -1.999414444 0.9510365129 
-9.23535347 -8.26113224 -1.99951458 0.9510341287 
-8.465463638 -9.050229073 -1.999728203 0.9510290027 
-4.422832012 -6.214575291 -1.230870843 0.9695670605 
-3.954401731 -6.114995003 -1.175110936 0.9709254503 
-3.574450493 -6.107182503 -1.141890407 0.9717356563 
-3.216078997 -6.102284908 -1.113098621 0.972438395 
-2.875786066 -6.100107193 -1.088263035 0.9730449915 
-1.939829111 -6.118158817 -1.0357095 0.9743298292 
-1.646181583 -6.125461102 -1.023524046 0.9746279716 
-1.358703613 -6.132414341 -1.013569951 0.9748715758 
-0.5269311666 -6.217514515 -1.006903052 0.975034833 
-0.2544824183 -6.351530552 -1.025753856 0.9745734334 
0.6071093678 -12.39247036 -2.002143621 0.950971365 
2.792443752 -12.09257317 -2.002701998 0.9509579539 
3.327770948 -11.95719719 -2.00283742 0.9509547949 
5.393757343 -11.18193531 -2.003354549 0.9509423971 
6.367023945 -10.65956783 -2.003595591 0.9509366751 
3.057871103 -3.84446764 -0.7926830649 0.9802934527 
3.095971584 -3.555449247 -0.7607629299 0.9810794592 
3.142771006 -3.300498009 -0.7354243398 0.9817038178 
3.888871908 -2.846645355 -0.7776958346 0.9806624055 
4.245658875 -2.82661128 -0.8230593801 0.9795460701 
11.16556358 -5.447218895 -2.004743338 0.9509092569 
11.3971386 -4.945224285 -2.004794359 0.9509080052 
12.29911137 -1.763281226 -2.004971027 0.9509037733 
12.36542702 -1.214379907 -2.004978418 0.9509035945 
12.4072094 -0.6631737947 -2.00497961 0.9509035945 
12.38485336 0.994140625 -2.004944324 0.9509044886 
12.32823467 1.544013619 -2.004919767 0.950905025 
12.24715328 2.090910673 -2.004889011 0.9509057403 
12.14180374 2.633532763 -2.004852057 0.9509066343 
11.48246765 4.741286278 -2.004644156 0.9509116411 
11.01486015 5.742675781 -2.004505396 0.9509149194 
10.74811459 6.226686954 -2.004427671 0.9509167671 
10.46003437 6.698410511 -2.00434494 0.9509187341 
7.901026249 9.578381538 -2.003636599 0.9509357214 
7.017602444 10.2414732 -2.003396034 0.9509414434 
6.554629803 10.54288673 -2.003270626 0.9509443641 
6.078799725 10.82329369 -2.003142357 0.9509475231 
5.092016697 11.31930065 -2.002877951 0.9509537816 
4.58318615 11.53380871 -2.002742529 0.9509570003 
4.065261364 11.72546387 -2.0026052 0.9509603381 
1.924451828 12.2565546 -2.002041578 0.9509737492 
1.377285123 12.32912827 -2.001898527 0.9509772062 
0.8273669481 12.37731552 -2.001755476 0.9509806037 
-0.2759619057 12.40009785 -2.001469612 0.9509873986 
-1.923482656 12.25044441 -2.001046181 0.9509975314 
-2.45558095 12.09858036 -1.992126822 0.9512105584 
-5.156819344 9.181711197 -1.699322581 0.9582296014 
-6.483617783 9.462192535 -1.850954294 0.9545882344 
-7.295066833 8.843793869 -1.849971533 0.9546117783 
-7.679002285 8.508097649 -1.849437356 0.9546245933 
-8.047678947 8.155816078 -1.848927259 0.9546368122 
-8.400387764 7.787847519 -1.848467946 0.9546478391 
-9.054665565 7.006794453 -1.847516537 0.9546706676 
-10.66805172 6.180312157 -1.989497781 0.9512733221 
-11.22711849 5.231906414 -1.998752713 0.9510523081 
-11.82284546 3.690761566 -1.998626709 0.9510553479 
-12.3453083 0.9909765124 -1.998540878 0.9510573149 
-12.37717152 0.4407763481 -1.998542786 0.9510573149 
-12.38457966 -0.1101904288 -1.998551011 0.9510571361 
-12.2601099 -1.757685542 -1.998613238 0.9510555863 
-11.3636446 -4.93069315 -1.998903155 0.9510487318 
-9.997488022 -7.318159103 -1.999300241 0.9510391951 
-9.308393478 -8.178554535 -1.999494314 0.9510346055 
-8.545558929 -8.974460602 -1.99970603 0.9510295391 
-8.138376236 -9.346191406 -1.999818206 0.9510268569 
-4.037312031 -6.123032093 -1.183513284 0.9707206488 
-3.286127806 -6.102934361 -1.118506312 0.9723063707 
-2.616262197 -6.103852272 -1.071630359 0.9734514356 
-2.302055597 -6.107885838 -1.053296089 0.9738996625 
-1.999440908 -6.116557598 -1.038411021 0.9742637277 
-1.704374909 -6.124091625 -1.025788665 0.9745725989 
-1.131469727 -6.132875919 -1.006349325 0.9750483632 
-0.8535742164 -6.148368835 -1.001664042 0.9751631021 
-0.5813232064 -6.202922344 -1.005336881 0.9750731587 
-0.05521972477 -12.40614986 -2.001972675 0.9509754181 
0.496650368 -12.39719677 -2.002115011 0.9509720802 
1.596938491 -12.30572701 -2.002397537 0.9509652853 
2.142853975 -12.22336674 -2.002536774 0.9509619474 
3.751516104 -11.83180428 -2.002944231 0.9509521723 
4.788884163 -11.45302677 -2.003204107 0.9509459734 
5.293901443 -11.22939682 -2.003329754 0.9509429932 
6.271713734 -10.71572685 -2.003571987 0.9509373307 
6.742670536 -10.42670345 -2.003688812 0.9509344101 
3.504719257 -2.864819288 -0.7304491997 0.9818264842 
3.822436333 -2.85059309 -0.7694533467 0.9808654189 
4.173342228 -2.832375526 -0.8138932586 0.9797714949 
5.033862114 -2.797780752 -0.9293342233 0.9769356847 
11.35262871 -5.046401024 -2.004784584 0.9509083033 
11.56612778 -4.536552429 -2.004830837 0.9509071708 
11.75673103 -4.017597675 -2.004870892 0.9509062171 
12.06766129 -2.956865072 -2.004932404 0.9509046674 
12.18736267 -2.417204618 -2.004953623 0.9509041905 
12.28291702 -1.872636676 -2.004968882 0.9509038925 
12.42291927 -0.2211865187 -2.004975796 0.9509037137 
12.39324188 0.8839184642 -2.004948378 0.9509043694 
12.26531219 1.981865168 -2.004895687 0.9509056211 
12.16479683 2.525414944 -2.004859924 0.9509064555 
11.52431107 4.638872147 -2.004656792 0.9509112835 
11.30615425 5.146799088 -2.004591227 0.9509128928 
10.80317402 6.130871296 -2.004443884 0.9509164095 
10.21466064 7.066186428 -2.004274845 0.950920403 
9.889801979 7.513186932 -2.0041852 0.9509226084 
9.54531002 7.945346355 -2.004090309 0.9509248734 
9.181998253 8.361639023 -2.003989935 0.9509272575 
8.800523758 8.761378288 -2.003884077 0.9509295821 
8.401507378 9.143716812 -2.003773928 0.9509323835 
6.648248196 10.484272 -2.003295898 0.9509438276 
5.689368725 11.0322504 -2.00303793 0.9509499669 
5.192686558 11.27365971 -2.002904892 0.950953126 
4.1695714 11.6889658 -2.002632618 0.9509596229 
3.645181894 11.86205673 -2.002493858 0.9509629607 
3.113746166 12.01161957 -2.002353668 0.9509662986 
2.033550978 12.23909855 -2.002070189 0.9509730935 
1.486939669 12.31656837 -2.001927376 0.950976491 
0.9375659227 12.36963081 -2.001784086 0.9509798884 
0.3863146901 12.39820671 -2.001641035 0.9509833455 
-0.7170580626 12.38170338 -2.001355886 0.9509901404 
-1.26709342 12.33667564 -2.001214504 0.9509935379 
-1.814436555 12.26725578 -2.001074076 0.9509968758 
-2.358223915 12.17354107 -2.000935078 0.951000154 
-2.676664352 11.13822269 -1.848519683 0.9546465874 
-3.660472393 10.86944962 -1.850767493 0.9545927048 
-4.605102062 10.48530483 -1.84798491 0.9546594024 
-5.078546524 10.29341507 -1.852189541 0.9545586705 
-5.620764256 9.222824097 -1.742875576 0.9571823478 
-6.399408817 9.520028114 -1.851045966 0.9545860291 
-6.920684814 8.54382515 -1.774260044 0.9564282894 
-7.975187778 8.227487564 -1.84901762 0.9546346664 
-8.670534134 7.482355595 -1.848092318 0.9546568394 
-8.992436409 7.08745575 -1.847613454 0.9546682835 
-9.296375275 6.678617954 -1.847125053 0.9546800256 
-11.18017387 5.331615925 -1.998762965 0.9510520697 
-11.7895546 3.795920372 -1.998633385 0.9510551691 
-11.94654369 3.267602444 -1.99860239 0.9510560036 
-12.18945312 2.192846537 -1.998559237 0.9510568976 
-12.33600235 1.100771427 -1.998541355 0.9510573149 
-11.69322872 -0.5206811428 -1.998737335 0.9536133409 
-11.65858936 -1.040327072 -1.998755813 0.9536129832 
-10.78029919 -4.564011097 -1.999047399 0.9536063671 
-10.33267212 -5.504457951 -1.999180436 0.9536033869 
-10.07795429 -5.95887661 -1.999254584 0.9536016583 
-9.803297043 -6.401542664 -1.999333739 0.9535998702 
-8.865209579 -7.650410175 -1.999599218 0.9535938501 
-8.516525269 -8.037582397 -1.999696493 0.9535916448 
-8.150969505 -8.408905983 -1.99979794 0.9535893202 
-7.769255161 -8.763623238 -1.999903083 0.953586936 
-7.37211895 -9.101049423 -2.000011921 0.9535844922 
-4.660293102 -6.307485104 -1.339179039 0.9686775208 
-4.103749752 -6.104867935 -1.256119847 0.9705913663 
-2.358801126 -6.093510628 -1.115781307 0.9738336205 
-2.054118633 -6.099496841 -1.099040151 0.9742211103 
-1.758271456 -6.106750488 -1.085164428 0.9745423794 
-1.184448242 -6.114443302 -1.063524246 0.9750436544 
0.8861278892 -11.69155693 -2.002199888 0.9535349011 
1.405427217 -11.64133263 -2.002332926 0.9535319209 
1.922016501 -11.56805897 -2.002465248 0.9535288811 
3.940773726 -11.04780483 -2.002975702 0.953517437 
4.428652287 -10.86222363 -2.003098011 0.953514576 
5.836032391 -10.17791939 -2.003449917 0.9535065889 
6.718283653 -9.619982719 -2.00366807 0.9535016418 
3.035519838 -3.613959789 -0.8059362769 0.981030345 
3.075898409 -3.347592592 -0.7763105035 0.981721282 
3.127309561 -3.113427639 -0.7535513639 0.9822523594 
3.196450233 -2.910886049 -0.7382488847 0.9826096296 
3.425585747 -2.851396322 -0.761090517 0.9820764065 
3.735537052 -2.83786869 -0.8010857701 0.9811434746 
5.384655476 -2.746633291 -1.032206059 0.9757695794 
10.68426037 -4.86367178 -2.004608393 0.9534803033 
11.23719978 -3.398535013 -2.004725456 0.9534776807 
11.37740421 -2.895339251 -2.004752874 0.9534770846 
11.49506283 -2.386386633 -2.004774094 0.9534766078 
11.66181374 -1.355280757 -2.004798889 0.9534760714 
11.67315865 1.251413584 -2.004755497 0.953477025 
11.40219212 2.793830395 -2.004657984 0.9534792304 
11.26638126 3.298207998 -2.004613876 0.9534801841 
11.10823441 3.796015501 -2.004564047 0.9534813166 
10.50320053 5.24025631 -2.004381895 0.9534854889 
10.25933361 5.702089787 -2.004310608 0.9534870982 
9.995139122 6.152595043 -2.004234314 0.9534888268 
9.711161613 6.590851784 -2.004153013 0.9534906745 
9.086035728 7.427238464 -2.003978252 0.953494966 
8.74635601 7.823719501 -2.003885269 0.9534966946 
8.015570641 8.569263458 -2.003684521 0.9535012841 
6.802560806 9.55830574 -2.00335288 0.9535087943 
4.524356365 10.82044697 -2.002740383 0.9535226822 
4.03827858 11.01028824 -2.00261116 0.9535256028 
3.544270039 11.17829227 -2.002480268 0.953528583 
3.043313026 11.32414913 -2.002347946 0.9535315633 
2.536386728 11.44754887 -2.00221467 0.9535346031 
2.024503231 11.54826832 -2.002080441 0.953537643 
1.508687735 11.62611389 -2.001945496 0.9535406828 
0.4693334997 11.71262074 -2.001675129 0.9535467625 
-0.5734655857 11.70639992 -2.001405478 0.9535529017 
-1.093569279 11.66851997 -2.001271725 0.9535559416 
-1.611439824 11.60754871 -2.001138687 0.9535589814 
-2.126057625 11.52362442 -2.00100708 0.953561902 
-2.902289391 10.42823982 -1.848426342 0.9570257068 
-3.817150831 10.12774849 -1.848195195 0.957030952 
-4.263655186 9.947317123 -1.848083019 0.957033515 
-5.122767925 9.513914108 -1.845157385 0.9571000338 
-5.553164005 9.297106743 -1.849235058 0.9570073485 
-5.960081577 9.039130211 -1.848878145 0.9570154548 
-6.35581398 8.764422417 -1.848743439 0.9570184946 
-7.805370808 7.49887085 -1.848311782 0.9570282698 
-8.129328728 7.142582893 -1.847883105 0.9570380449 
-8.436957359 6.772231102 -1.847432613 0.9570482969 
-10.02349186 6.047709942 -1.999049067 0.9536063075 
-10.52075386 5.132605076 -1.99893713 0.9536088705 
-10.93481445 4.177021503 -1.998847604 0.9536108971 
-11.26240921 3.188505888 -1.998780966 0.9536123872 
-11.39295483 2.684318781 -1.998756409 0.9536129832 
-11.58627319 1.661069274 -1.998725057 0.9536136389 
-11.64864922 1.144018531 -1.998718381 0.9536138177 
-11.68801022 0.6247045994 -1.998717666 0.9536138177 
-11.70426369 0.1041699201 -1.998722911 0.9536136985 
-11.69736576 -0.4165966809 -1.998734236 0.9536134601 
-10.82042122 -4.467865944 -1.999035239 0.9536066651 
-10.13050842 -5.868910789 -1.999239326 0.953602016 
-9.859811783 -6.31400156 -1.999317408 0.9536001682 
-9.569561958 -6.746623516 -1.999400496 0.9535983801 
-9.260390282 -7.165944576 -1.999488235 0.9535963535 
-8.587638855 -7.961400986 -1.999676824 0.953592062 
-7.846860409 -8.694037437 -1.999881744 0.9535874724 
-7.452739239 -9.034985542 -1.999989867 0.9535850286 
-7.043842793 -9.358085632 -2.000101566 0.9535824656 
-3.79000473 -6.096081257 -1.225761652 0.9712917805 
-3.42612052 -6.100261211 -1.19474268 0.9720079899 
-2.741437912 -6.094025612 -1.141077399 0.9732483625 
-2.421416044 -6.093610764 -1.119700432 0.9737429023 
-2.114218712 -6.098002911 -1.102117181 0.9741498232 
-1.816855431 -6.105327129 -1.087742567 0.9744826555 
-1.526469707 -6.112033367 -1.075760126 0.9747601748 
-0.6856347322 -6.137773514 -1.054618239 0.9752500653 
-0.4152026176 -6.211259842 -1.063015461 0.9750554562 
-0.1438916028 -6.466217995 -1.104457855 0.9740956426 
0.2608300745 -11.72124481 -2.002038717 0.953538537 
0.7820336819 -11.69881535 -2.002173185 0.9535355568 
1.301752925 -11.65322208 -2.002306461 0.953532517 
1.818969727 -11.58455563 -2.002438784 0.9535294771 
2.84176755 -11.37852001 -2.00269866 0.9535235763 
4.331762791 -10.90107632 -2.003073454 0.9535151124 
5.284128189 -10.47417927 -2.003312349 0.9535096884 
5.745168209 -10.22934818 -2.003427267 0.9535070658 
2.975092649 -3.952558517 -0.8447787166 0.980125308 
3.067114115 -3.398249388 -0.7816956043 0.9815956354 
3.114326 -3.156183958 -0.7571619153 0.9821680784 
3.182944298 -2.950827599 -0.7411641479 0.9825415611 
3.363815784 -2.851035118 -0.7529743314 0.98226583 
3.672346115 -2.841760159 -0.7929268479 0.9813337326 
10.64049053 -4.958544731 -2.004598856 0.9534806013 
10.85079098 -4.480405331 -2.004644632 0.9534795284 
11.20647717 -3.49839592 -2.004719257 0.9534777999 
11.35117149 -2.996474504 -2.004747629 0.9534771442 
11.47335911 -2.488593578 -2.004770279 0.9534766674 
11.73288345 -0.417856425 -2.004800558 0.9534759521 
11.72346401 0.6266064048 -2.004779577 0.953476429 
11.62111568 1.666059494 -2.004734755 0.9534774423 
11.53530979 2.181328058 -2.004703283 0.9534782171 
11.42665291 2.692260742 -2.00466609 0.953478992 
11.29533863 3.197824717 -2.004623175 0.9534800053 
11.14163017 3.697028637 -2.004574537 0.9534811378 
10.96585178 4.188869476 -2.004520416 0.9534823298 
10.76833439 4.672392368 -2.004460812 0.9534837008 
10.54949188 5.146613598 -2.004395485 0.9534851313 
10.30974102 5.610602856 -2.00432539 0.9534867406 
10.04957485 6.06344223 -2.00425005 0.9534884691 
8.815718651 7.745641708 -2.003904343 0.9534962773 
8.091596603 8.497681618 -2.003705502 0.9535008073 
7.705172062 8.848739624 -2.003599167 0.9535031915 
7.303510666 9.182235718 -2.003489256 0.9535056949 
6.015337944 10.07087612 -2.003139734 0.9535136223 
5.561048508 10.32785702 -2.003017426 0.9535164237 
4.136150837 10.97405338 -2.002637148 0.9535250068 
3.643663168 11.14646435 -2.002506495 0.9535279274 
2.127233744 11.52995586 -2.002107143 0.9535369873 
1.093892813 11.6718092 -2.001837492 0.9535431862 
0.05216308311 11.72126484 -2.001567125 0.9535492659 
-0.4692651331 11.71119595 -2.00143218 0.9535523057 
-0.9896911383 11.67793751 -2.001298428 0.9535553455 
-2.462738514 11.11517048 -1.944079876 0.9548527598 
-2.809379101 10.45378399 -1.848449945 0.9570251703 
-3.72693038 10.16144657 -1.848217845 0.9570304155 
-4.175008297 9.984985352 -1.848105311 0.9570329785 
-6.277553558 8.820628166 -1.848740935 0.9570185542 
-7.738615513 7.568322659 -1.848381758 0.95702672 
-8.67092514 6.466376781 -1.847065568 0.9570566416 
-9.159049988 6.216152191 -1.890212655 0.9560759068 
-9.969338417 6.136721134 -1.999061346 0.9536060095 
-10.2321558 5.686989784 -1.999001741 0.9536073804 
-10.89724255 4.274184704 -1.998855591 0.9536107183 
-11.07638073 3.785131693 -1.99881804 0.9536116123 
-11.48118496 2.277116537 -1.998740911 0.9536133409 
-11.57104301 1.764121056 -1.998727083 0.9536136389 
-11.63801956 1.247634292 -1.998719096 0.9536138177 
-11.70285606 0.2083300799 -1.99872148 0.9536137581 
-11.70060444 -0.3124584854 -1.998731494 0.9536135197 
-11.34402275 -2.886847973 -1.99887085 0.9536103606 
-11.04308701 -3.88385725 -1.998966932 0.9536081553 
-10.65481186 -4.850273132 -1.999085069 0.9536055326 
-10.4288559 -5.319609165 -1.999152184 0.9536039829 
-9.915528297 -6.225942135 -1.999301434 0.9536005855 
-9.629146576 -6.661142349 -1.99938345 0.9535987377 
-8.29917717 -8.262319565 -1.999756932 0.9535902739 
-7.923825741 -8.623771667 -1.999860525 0.9535879493 
-7.532765865 -8.968200684 -1.999968052 0.9535855055 
-4.28367424 -6.1338377 -1.277567387 0.9700967669 
-3.496850491 -6.098437309 -1.200433612 0.9718765616 
-2.807087421 -6.094391823 -1.145779371 0.9731396437 
-2.484472513 -6.093710899 -1.123737693 0.9736495018 
-1.875720143 -6.103888988 -1.090417027 0.9744207263 
-1.016000986 -6.11504364 -1.058531642 0.9751593471 
-0.7397729158 -6.127651215 -1.053968191 0.9752650857 
-0.1986303627 -6.374904633 -1.089119673 0.974450767 
1.715769053 -11.60012627 -2.002412558 0.9535301328 
2.23024416 -11.51307106 -2.002543688 0.9535271525 
2.740356445 -11.40321541 -2.002673149 0.9535241723 
3.245102406 -11.27073193 -2.002800703 0.9535213113 
4.234450817 -10.93905735 -2.003049374 0.9535157681 
5.653828144 -10.2799511 -2.003404379 0.9535076022 
6.105876446 -10.01883316 -2.003516674 0.9535050392 
2.960414886 -4.006772518 -0.8507006168 0.9799873233 
3.020888567 -3.729357719 -0.8195477128 0.9807130694 
3.169265032 -2.991030216 -0.7441485524 0.9824718833 
3.30344224 -2.85076642 -0.7451093197 0.9824494123 
3.609987736 -2.845231771 -0.7848982215 0.9815209508 
4.70164299 -2.779982805 -0.9327071309 0.9780794382 
10.5959034 -5.053007603 -2.004589081 0.9534807801 
10.81044197 -4.576774597 -2.004636049 0.9534797072 
11.17485809 -3.597980976 -2.00471282 0.9534779787 
11.55473804 -2.078676701 -2.004784107 0.9534763694 
11.63583183 -1.562631845 -2.004796028 0.9534760714 
11.69386196 -1.043476582 -2.00480175 0.9534759521 
11.72870827 -0.5222533941 -2.004801512 0.9534759521 
11.74028778 -4.882812391e-06 -2.004795074 0.953476131 
11.63551235 1.56258297 -2.004740238 0.9534773231 
11.55430603 2.078596115 -2.004709959 0.9534780383 
11.45020962 2.590468645 -2.004673958 0.9534788132 
11.32339096 3.097197294 -2.004632235 0.9534798265 
11.17415524 3.597751379 -2.004584789 0.9534808397 
11.00276375 4.091142654 -2.004531622 0.9534820318 
10.80957031 4.576398849 -2.004472971 0.9534834027 
10.59494591 5.05255127 -2.004409075 0.9534848928 
10.35934258 5.518671989 -2.004339933 0.9534864426 
9.531511307 6.847565651 -2.00410223 0.9534918666 
9.21706295 7.264477253 -2.004013777 0.9534938335 
7.385019302 9.116978645 -2.003511429 0.953505218 
6.971815109 9.43593502 -2.003398895 0.9535076618 
6.104798317 10.01706409 -2.003163815 0.9535130858 
5.189691067 10.5187254 -2.002918005 0.9535186291 
4.716337681 10.73848534 -2.002791643 0.9535214901 
4.233709812 10.93696308 -2.002663136 0.9535244107 
2.229781389 11.51072121 -2.002134085 0.9535363913 
1.715419888 11.59774113 -2.001999378 0.9535394311 
1.197735548 11.6617775 -2.001864433 0.9535425305 
0.1564819366 11.72049904 -2.001594067 0.9535486102 
-0.8857397437 11.68644524 -2.00132513 0.9535547495 
-2.716296434 10.47850323 -1.84847343 0.9570246339 
-3.636398315 10.19433308 -1.848240733 0.9570299387 
-4.527522564 9.829591751 -1.848016977 0.9570350051 
-5.79885006 9.14468956 -1.8490628 0.9570112228 
-7.325331688 7.972410679 -1.8488096 0.9570170045 
-7.671276569 7.63723135 -1.848462582 0.9570249319 
-8.315909386 6.922001839 -1.847613931 0.9570441842 
-8.994494438 6.222089767 -1.867603421 0.9565896392 
-9.859243393 6.190602779 -1.987954617 0.9538577795 
-10.18118668 5.777861118 -1.999013186 0.953607142 
-10.42784023 5.319106102 -1.998957753 0.9536083937 
-10.65386581 4.849838734 -1.998907924 0.9536095262 
-11.0423069 3.88356185 -1.998825073 0.9536113739 
-11.20394135 3.388461828 -1.99879241 0.9536121488 
-11.3434248 2.886679649 -1.998765349 0.9536128044 
-11.46048927 2.379201651 -1.998744488 0.9536132216 
-11.55489254 1.867031217 -1.998729348 0.9536135793 
-11.67503834 0.8326464891 -1.998717189 0.9536138177 
-11.68213367 -0.7287279963 -1.998744011 0.9536132812 
-11.63827705 -1.247683048 -1.998764753 0.9536128044 
-11.57141495 -1.764186978 -1.998791456 0.9536121488 
-11.23429394 -3.288813353 -1.998906612 0.9536095858 
-10.69748497 -4.755236626 -1.999072194 0.9536057711 
-10.47572041 -5.226564884 -1.999138236 0.9536042809 
-9.386293411 -6.999860764 -1.999452472 0.953597188 
-8.727814674 -7.807136059 -1.999637604 0.9535929561 
-8.000167847 -8.55283165 -1.999839425 0.9535884261 
-7.20912075 -9.231035233 -2.000056505 0.9535834789 
-4.378561974 -6.152346134 -1.2894876 0.9698220491 
-2.873474121 -6.095168114 -1.150687337 0.9730261564 
-2.547985792 -6.093796253 -1.127889752 0.9735534191 
-2.235456467 -6.094965458 -1.108585835 0.9740001559 
-1.071975112 -6.114829063 -1.060104966 0.975122869 
-0.2531787157 -6.318498611 -1.079825759 0.9746659994 
1.09410882 -11.67424297 -2.002253294 0.953533709 
2.12766099 -11.5323143 -2.002517462 0.9535277486 
3.644387007 -11.14865208 -2.002901316 0.9535190463 
4.137087345 -10.97618103 -2.003024817 0.9535160661 
5.096816063 -10.56632519 -2.003265381 0.9535106421 
6.016403675 -10.07266617 -2.003494501 0.9535055757 
6.458864689 -9.795588493 -2.003604174 0.9535031319 
2.953183413 -4.072321892 -0.859005034 0.9797940254 
3.013290882 -3.788420439 -0.8266011477 0.9805487394 
3.09526372 -3.250590801 -0.7664722204 0.9819508195 
3.155419827 -3.031501293 -0.747202456 0.9824005961 
3.546723604 -2.846901894 -0.7766221166 0.9817140102 
3.865832329 -2.829770327 -0.8180949688 0.9807469845 
4.218070984 -2.808254242 -0.865316689 0.9796470404 
4.601999283 -2.776633263 -0.9178053141 0.9784258604 
5.092255592 -2.771223068 -0.9899886847 0.9767490029 
10.55045414 -5.147079945 -2.004579067 0.9534810185 
10.76923561 -4.672780514 -2.004626989 0.9534798861 
10.96666241 -4.189184666 -2.004669666 0.953478992 
11.42719936 -2.69239974 -2.004762173 0.9534768462 
11.62145996 -1.666132808 -2.004793882 0.953476131 
11.68411636 -1.147495151 -2.004801035 0.9534759521 
11.72359562 -0.6266112924 -2.004801989 0.9534759521 
11.70248795 0.9393407702 -2.00476861 0.953476727 
11.57238293 1.975678682 -2.004716635 0.9534779191 
11.47285175 2.488464355 -2.004681587 0.953478694 
11.20578575 3.498183489 -2.004594564 0.9534806013 
10.84992409 4.480051041 -2.00448513 0.9534831047 
10.63956547 4.958100319 -2.004422188 0.9534845352 
10.40812206 5.426291466 -2.004354 0.9534860849 
10.15607166 5.883698463 -2.004280806 0.9534877539 
9.592150688 6.762551308 -2.004119158 0.9534913898 
9.281425476 7.182229042 -2.00403142 0.9534934163 
8.952348709 7.587653637 -2.003941536 0.9534954429 
8.605548859 7.978000164 -2.003846645 0.9534975886 
7.861619473 8.710385323 -2.003642321 0.9535022378 
7.465956688 9.05098629 -2.003533602 0.9535046816 
7.055549145 9.373614311 -2.003421545 0.9535072446 
6.631324291 9.677631378 -2.00330615 0.9535096288 
6.193768024 9.962454796 -2.003187895 0.9535125494 
5.744121075 10.2274971 -2.003066778 0.9535152912 
5.283156395 10.47225761 -2.002943039 0.953518033 
4.811777115 10.69622135 -2.002816916 0.9535209537 
4.330942154 10.89897823 -2.002688885 0.9535238147 
3.344665527 11.23930645 -2.002427578 0.9535297751 
2.841212034 11.37621593 -2.002294779 0.9535327554 
1.818588853 11.58215714 -2.002026558 0.9535388947 
-0.2607568204 11.71799278 -2.001486063 0.9535511136 
-0.7817053199 11.6940136 -2.001351833 0.9535541534 
-2.622965574 10.50240231 -1.848497272 0.9570240974 
-3.08736515 10.37466526 -1.848379493 0.95702672 
-3.545579672 10.2264204 -1.848263621 0.9570294023 
-4.874272823 9.661780357 -1.847929955 0.957036972 
-5.717512131 9.196379662 -1.849151134 0.9570091963 
-7.603326321 7.705523491 -1.84853971 0.9570231438 
-8.555319786 6.620331764 -1.847249866 0.9570524693 
-8.848329544 6.238124847 -1.848709345 0.9570192695 
-9.677541733 6.197275162 -1.962360978 0.9544380903 
-10.12943363 5.868280888 -1.999024868 0.9536068439 
-10.38015366 5.41172123 -1.998968482 0.9536081553 
-10.81953335 4.467504978 -1.998872042 0.9536103606 
-11.17337418 3.488071203 -1.99879849 0.9536119699 
-11.31731701 2.987519503 -1.998770356 0.9536126256 
-11.70428181 -0.10416504 -1.998726726 0.9536136389 
-11.58662796 -1.661135197 -1.998785615 0.953612268 
-11.26307011 -3.188701153 -1.998897314 0.9536097646 
-11.11033821 -3.686650276 -1.998945832 0.9536086917 
-10.93565083 -4.1773386 -1.999000072 0.95360744 
-10.52173901 -5.133088112 -1.999124765 0.9536046386 
-9.746006012 -6.48858881 -1.999350071 0.9535995126 
-9.448134422 -6.916000843 -1.999434948 0.9535975456 
-9.131537437 -7.329760551 -1.999524474 0.9535955787 
-8.444746017 -8.113134384 -1.999716401 0.9535912275 
-8.075902939 -8.481196404 -1.999818563 0.9535888433 
-4.020072937 -6.096894264 -1.247066379 0.9708001614 
-3.2839818 -6.098942757 -1.182847619 0.9722827673 
-2.61198473 -6.093876839 -1.132165194 0.973454535 
-2.2966187 -6.093430042 -1.111979365 0.973921597 
-1.699956059 -6.108163834 -1.082683563 0.9745998383 
-1.12811029 -6.114592075 -1.061762929 0.9750844836 
-0.3068090677 -6.262988091 -1.070762873 0.974875927 
-0.03104492091 -6.97506094 -1.191088438 0.9720924497 
2.536896944 -11.44988251 -2.002621651 0.9535253644 
5.002463341 -10.61113739 -2.003241777 0.9535112977 
3.003693819 -3.846120596 -0.8333258629 0.9803920388 
3.042653799 -3.5576756 -0.799392283 0.9811829329 
3.1413939 -3.072263002 -0.7503265738 0.9823276401 
3.209802151 -2.871201038 -0.7353999019 0.9826761484 
3.484748363 -2.848520517 -0.7685719728 0.9819018245 
4.520852089 -2.782853842 -0.9065257311 0.9786881804 
10.92890072 -4.286596775 -2.00466156 0.9534791708 
11.26704597 -3.298403263 -2.004731417 0.9534775019 
11.4027586 -2.793977022 -2.004757404 0.9534769654 
11.51586914 -2.283998966 -2.00477767 0.9534764886 
11.60615253 -1.769484878 -2.004791975 0.9534761906 
11.67342949 -1.251450181 -2.004800081 0.9534760118 
11.717556 -0.7309154868 -2.004802227 0.9534759521 
11.73844719 -0.2089477479 -2.004798412 0.9534760118 
11.73606682 0.3134179711 -2.004788399 0.9534762502 
11.71041679 0.8351684213 -2.004772663 0.9534766078 
11.37683296 2.89517808 -2.004649639 0.9534794092 
11.07394791 3.89471674 -2.004553556 0.953481555 
10.88942337 4.383342266 -2.00449729 0.9534828663 
10.68333244 4.863251686 -2.004435301 0.9534842372 
10.20810032 5.793127537 -2.004295826 0.9534873962 
9.939911842 6.241254807 -2.004218578 0.9534891844 
9.652040482 6.676958084 -2.004136324 0.9534910321 
9.345067978 7.09939909 -2.004049301 0.9534929991 
8.315817833 8.27889061 -2.003767014 0.9534994364 
7.938993931 8.640163422 -2.00366354 0.9535015225 
7.546336651 8.984288216 -2.003555775 0.9535040855 
6.282304764 9.907053947 -2.003211737 0.9535118937 
4.427791595 10.86014652 -2.002714634 0.9535232782 
3.444603205 11.20925045 -2.002453804 0.9535291791 
2.942374229 11.35063076 -2.002321482 0.9535321593 
2.434383392 11.46951294 -2.002187729 0.9535351992 
1.405134201 11.63893032 -2.001918554 0.9535412788 
0.8859362602 11.6891222 -2.001783133 0.9535443783 
0.3650671244 11.71616936 -2.001647949 0.9535474181 
-0.6776183844 11.7006712 -2.001378536 0.9535535574 
-1.714651465 11.59260464 -2.001112223 0.9535595179 
-2.228491783 11.50409889 -2.000980854 0.9535624981 
-2.994945526 10.40186214 -1.848402858 0.9570262432 
-4.788151264 9.704883575 -1.847951651 0.9570364952 
-5.080913544 9.238265991 -1.800395608 0.9581186175 
-5.620749474 9.222848892 -1.844339967 0.9571186304 
-6.039971828 8.985269547 -1.848781705 0.9570176601 
-6.433553219 8.70748806 -1.848739624 0.9570186138 
-7.182773113 8.102071762 -1.848935246 0.9570141435 
-7.534754276 7.773190975 -1.848613262 0.9570214748 
-7.871470928 7.428808212 -1.848236203 0.9570299983 
-8.192173004 7.069609165 -1.847793818 0.9570400715 
-8.496473312 6.696545124 -1.847341418 0.9570503831 
-8.784137726 6.31068325 -1.846964836 0.9570590258 
-9.500425339 6.203744888 -1.937563419 0.9550006986 
-10.07685852 5.958217621 -1.999037027 0.9536066055 
-10.33163166 5.50390625 -1.99897933 0.9536079168 
-10.97150326 4.07952404 -1.998839855 0.9536110759 
-11.14192963 3.587377787 -1.998804688 0.9536118507 
-11.41638184 2.582807541 -1.998752117 0.9536130428 
-11.51985931 2.072390079 -1.998734713 0.9536134601 
-11.60058689 1.557885766 -1.998723269 0.9536136985 
-11.69310856 0.5206689239 -1.998718262 0.9536138177 
-11.70473576 0 -1.998724818 0.9536136389 
-11.69323063 -0.5206689239 -1.998737335 0.9536133409 
-11.65858936 -1.040322185 -1.998755813 0.9536129832 
-11.41691017 -2.582958937 -1.998846412 0.9536108971 
-11.29095459 -3.088334799 -1.998888373 0.9536099434 
-10.78029728 -4.564008713 -1.999047399 0.9536063671 
-10.33267593 -5.504457951 -1.999180436 0.9536033273 
-10.07795429 -5.958891392 -1.999254584 0.9536016583 
-9.19633007 -7.248147011 -1.999506235 0.9535959363 
-8.865204811 -7.650407314 -1.999599218 0.9535938501 
-8.516525269 -8.037582397 -1.999696493 0.9535916448 
-8.150971413 -8.408905983 -1.99979794 0.9535893202 
-7.372126102 -9.101044655 -2.000011921 0.9535844922 
-4.660275936 -6.307470798 -1.339176178 0.9686775804 
-3.71769762 -6.100192547 -1.219887614 0.971427381 
-3.007829428 -6.096427917 -1.160848975 0.9727911949 
-2.676459789 -6.09395504 -1.136558652 0.9733529091 
-2.358806133 -6.093510628 -1.115781426 0.9738335609 
-2.054123402 -6.099496841 -1.099040508 0.9742210507 
-1.758264065 -6.106750488 -1.085164428 0.9745423794 
-1.184443355 -6.114440918 -1.063524365 0.9750436544 
-0.6318823099 -6.152397156 -1.056122303 0.9752151966 
-0.08807373047 -6.596962929 -1.12661159 0.973582983 
0.365134269 -11.71861267 -2.002065659 0.953537941 
0.8861425519 -11.69155025 -2.002199888 0.9535349011 
1.40544188 -11.64132786 -2.002333164 0.9535319209 
1.922026277 -11.56805897 -2.002465248 0.9535288811 
3.445283175 -11.21147442 -2.002851248 0.9535201788 
4.428706169 -10.86223125 -2.003098011 0.9535145164 
6.283369064 -9.908776283 -2.003560543 0.9535040855 
6.718286037 -9.619979858 -2.00366807 0.9535016418 
3.196452618 -2.910883665 -0.7382481098 0.9826096296 
4.072978497 -2.817548752 -0.8457073569 0.9801036716 
4.442548752 -2.789470196 -0.8957663774 0.9789384007 
11.07471657 -3.894963264 -2.004692078 0.9534784555 
11.23720169 -3.398530245 -2.004725456 0.9534776807 
11.49506569 -2.386386633 -2.004774094 0.9534766078 
11.58993149 -1.872695327 -2.004789591 0.9534762502 
11.66181087 -1.355285645 -2.004798889 0.9534760714 
11.71059513 -0.8351855278 -2.004802465 0.9534758925 
11.7173996 0.7309179306 -2.004776239 0.9534765482 
11.6731739 1.251413584 -2.004755497 0.9534769654 
11.40219212 2.793830395 -2.004657984 0.9534792304 
10.72625732 4.768017292 -2.004447937 0.9534839988 
10.25932598 5.702099323 -2.004310608 0.9534870982 
9.995136261 6.152597427 -2.004234314 0.9534888268 
9.711161613 6.590851784 -2.004153013 0.9534906745 
8.746356964 7.823713303 -2.003885269 0.9534966946 
8.389250755 8.204649925 -2.003787279 0.9534989595 
8.015561104 8.569270134 -2.003684521 0.9535012841 
7.221474648 9.246767044 -2.003466845 0.9535061121 
6.802560806 9.55830574 -2.00335288 0.9535087943 
5.001511097 10.60916615 -2.002867699 0.9535197616 
4.524356365 10.82045174 -2.002740383 0.9535226822 
