# .PCD v0.7 - Point Cloud Data file format
VERSION 0.7
FIELDS x y z intensities
SIZE 4 4 4 4
TYPE F F F F
COUNT 1 1 1 1
WIDTH 923
HEIGHT 1
VIEWPOINT 0 0 0 1 0 0 0
POINTS 923
DATA ascii
1.154579997 -3.236774921 -0.5545448065 0.9861725569 
1.237922311 -3.036269426 -0.5291123986 0.9868024588 
1.360056162 -2.952785492 -0.5245982409 0.9869143367 
1.518513203 -2.94451642 -0.5346134901 0.9866662025 
1.686276793 -2.940827608 -0.5470330715 0.9863585234 
1.862094641 -2.936496496 -0.5610951185 0.9860103726 
2.047221661 -2.931432962 -0.5769749284 0.98561728 
9.178227425 -8.358251572 -2.003171682 0.9509467483 
9.885170937 -7.509699345 -2.003261566 0.9509449005 
10.79741669 -6.127577782 -2.003375769 0.9509419203 
11.05949211 -5.641294003 -2.003407478 0.9509411454 
11.29964542 -5.143823147 -2.003436327 0.9509404898 
11.51743603 -4.636108398 -2.003461599 0.9509398341 
11.88414478 -3.594184399 -2.003502607 0.9509388804 
12.03235054 -3.062006712 -2.003518105 0.9509385228 
12.25701141 -1.980480909 -2.003538609 0.950938046 
12.38457775 -0.8832519054 -2.003545284 0.9509378076 
12.41401577 0.2210009694 -2.00353837 0.950938046 
12.34511948 1.323452115 -2.003517389 0.9509385228 
12.17841244 2.415395498 -2.003483057 0.9509393573 
12.05878639 2.954714298 -2.003460884 0.9509398937 
11.91525364 3.488163948 -2.003435135 0.9509404898 
11.74813461 4.014687538 -2.003406286 0.9509411454 
11.55773163 4.533259392 -2.003374338 0.9509419203 
11.34442806 5.042802811 -2.003339291 0.9509428144 
11.10866165 5.542350769 -2.003301144 0.9509437084 
10.85089779 6.030905724 -2.003259897 0.9509446621 
9.610769272 7.856073856 -2.003071308 0.950949192 
8.873986244 8.678720474 -2.00296092 0.9509518147 
8.478883743 9.064601898 -2.002901316 0.9509532452 
7.196300983 10.11151218 -2.002710104 0.9509577751 
6.739130497 10.42127132 -2.002642632 0.950959444 
6.268668175 10.71037006 -2.00257349 0.9509610534 
5.785825253 10.97823334 -2.002502918 0.9509627223 
4.272661209 11.64937115 -2.002283096 0.9509680271 
3.75008893 11.82745838 -2.002207994 0.9509698153 
3.220131874 11.98211193 -2.002131701 0.9509716034 
2.142263174 12.21994686 -2.001977921 0.9509752989 
1.596486807 12.30267715 -2.001900434 0.9509771466 
-1.705538273 12.28513622 -2.001436949 0.9509881735 
-2.2502563 12.19664764 -2.00136137 0.9509900212 
-2.790472984 12.08400631 -2.001286745 0.950991869 
-3.325125694 11.94748783 -2.001213074 0.9509935379 
-4.040566444 10.72042656 -1.848725677 0.9546416998 
-4.977059364 10.31817818 -1.84859848 0.95464468 
-5.43093729 10.08622265 -1.848537087 0.9546461701 
-5.874047756 9.834324837 -1.848477602 0.9546476603 
-7.523207664 8.63979435 -1.848662376 0.9546431899 
-7.898087978 8.294485092 -1.84819448 0.9546543956 
-8.265368462 7.940833569 -1.849565029 0.9546214938 
-8.934937477 7.171918869 -1.848835349 0.9546390176 
-9.242964745 6.765776157 -1.848403454 0.9546493888 
-9.53260231 6.346494198 -1.847985625 0.954659462 
-10.27878857 6.201711178 -1.937182784 0.9525237083 
-11.76394176 3.903517962 -2.000098228 0.9510201216 
-12.06413555 2.842463255 -2.000067472 0.9510208964 
-12.17859364 2.303002834 -2.000056982 0.9510210752 
-12.26892662 1.758945227 -2.000050068 0.9510213137 
-12.33499241 1.211435556 -2.00004673 0.9510214329 
-12.39387417 0.1103222668 -2.000050068 0.9510213137 
-12.35473251 -0.9917284846 -2.000067472 0.9510208964 
-12.11312008 -2.627380371 -2.000118732 0.9510197043 
-11.98438931 -3.163642406 -2.000142574 0.9510191679 
-11.83197021 -3.69367671 -2.000169516 0.9510184526 
-11.45722675 -4.730815411 -2.000233173 0.9510169029 
-11.23564053 -5.235878944 -2.000269651 0.9510160685 
-10.72626305 -6.214042664 -2.000351667 0.9510140419 
-10.13197708 -7.143119812 -2.000444889 0.9510118365 
-9.804445267 -7.586940765 -2.000495672 0.9510106444 
-6.003303051 -6.08401823 -1.37924552 0.9659616351 
-5.503923416 -6.098176003 -1.32558465 0.9672640562 
-5.02594471 -6.093002796 -1.274547815 0.9685043097 
-4.583674431 -6.089648247 -1.229933381 0.9695898294 
-4.17810297 -6.097582817 -1.192779899 0.9704948068 
-3.794870615 -6.103918552 -1.159816146 0.9712983966 
-2.772580624 -6.163251877 -1.09055078 0.9729891419 
-2.491181612 -6.269189358 -1.088589787 0.9730370641 
-2.285851955 -6.593024731 -1.126030445 0.9721226692 
-0.2759814262 -12.4027071 -2.00189209 0.9509773254 
0.2760302722 -12.40318775 -2.001969814 0.9509754777 
0.8275316954 -12.37911129 -2.002046824 0.95097363 
1.377431631 -12.33052254 -2.002123117 0.9509717822 
1.924648404 -12.25750256 -2.002198935 0.9509699941 
1.136909127 -3.279155254 -0.5600504875 0.9860362411 
1.220151305 -3.070566416 -0.5331765413 0.9867017865 
1.332805157 -2.962724447 -0.5242362618 0.986923337 
1.652111769 -2.941613674 -0.5444225669 0.9864231944 
1.826223135 -2.937414408 -0.5581431389 0.9860834479 
2.008007765 -2.930512667 -0.5732520819 0.9857094288 
2.637702465 -2.92247057 -0.6352697611 0.9841756821 
10.14641094 -7.15328598 -2.003294706 0.9509438276 
10.45477009 -6.69498539 -2.00333333 0.9509429336 
10.74243641 -6.223415375 -2.003368855 0.9509420395 
11.00881577 -5.739477634 -2.003401518 0.9509412646 
11.47568607 -4.738437176 -2.003456831 0.9509399533 
11.67522907 -4.223317623 -2.003479481 0.9509394765 
11.8516674 -3.699819326 -2.003499031 0.95093894 
12.00461197 -3.168979406 -2.003515005 0.9509385824 
12.13376904 -2.631855488 -2.00352788 0.9509382844 
12.40815163 -0.4418823123 -2.003544331 0.9509378672 
12.41550064 0.1105151325 -2.003539801 0.9509379864 
12.39823914 0.6626879573 -2.003531694 0.9509382248 
12.19946003 2.306931019 -2.00348711 0.9509392381 
11.78343201 3.90998292 -2.003412485 0.9509410262 
11.15759945 5.443268776 -2.003309011 0.9509435296 
10.62920666 6.413144588 -2.003225088 0.9509454966 
10.33316422 6.879462719 -2.003178596 0.950946629 
8.95091629 8.599455833 -2.002972364 0.9509515166 
6.831650257 10.36095524 -2.002656221 0.9509590864 
6.363780499 10.65422821 -2.002587318 0.9509607553 
5.883334637 10.92638206 -2.002516985 0.9509624243 
5.391268253 11.17688656 -2.002445221 0.9509640932 
4.888560772 11.40522289 -2.002372265 0.9509658813 
2.791568518 12.08874893 -2.002070665 0.9509730935 
2.250915527 12.20050526 -2.001993418 0.9509749413 
1.705898404 12.28808403 -2.001915932 0.9509767294 
1.157540202 12.35131168 -2.001838207 0.9509786367 
0.05518676713 12.40437031 -2.001682758 0.9509822726 
-1.047446251 12.35921764 -2.001528502 0.9509860277 
-1.596131563 12.29993534 -2.001452208 0.9509878159 
-2.682818651 12.10846901 -2.001301527 0.9509914517 
-3.218674183 11.97665215 -2.001227617 0.9509933591 
-4.419416904 10.56953621 -1.84867394 0.9546428919 
-5.340964794 10.13422298 -1.848549247 0.9546459317 
-6.221682072 9.62104702 -1.848866343 0.9546382427 
-8.188147545 8.007946968 -1.84815681 0.9546552896 
-8.54150486 7.640470028 -1.849292278 0.9546281099 
-8.871155739 7.251501083 -1.848922729 0.9546369314 
-9.182829857 6.848117352 -1.848495126 0.9546471834 
-10.08630848 6.20871067 -1.911247015 0.9531441927 
-10.83436298 6.021704197 -2.000206232 0.9510175586 
-11.72874451 4.008083344 -2.000102282 0.951020062 
-12.03837776 2.949685097 -2.000069857 0.9510208368 
-12.15761089 2.411242723 -2.000058889 0.9510211349 
-12.25279236 1.868037105 -2.00005126 0.9510213137 
-12.3924017 0.2205810547 -2.000049353 0.9510213137 
-12.38998508 -0.3308935463 -2.000055313 0.9510211945 
-12.31167412 -1.430810571 -2.000077963 0.951020658 
-12.01206112 -3.056840658 -2.000137329 0.9510192275 
-11.86434174 -3.588205576 -2.000163794 0.9510185719 
-11.49883175 -4.628625393 -2.000226259 0.9510171413 
-11.28176212 -5.135639668 -2.000262022 0.9510162473 
-11.04233456 -5.632573128 -2.000301123 0.9510152936 
-10.78106785 -6.11833477 -2.000343084 0.9510142803 
-10.1950779 -7.052651405 -2.000435114 0.9510121346 
-9.871505737 -7.499367714 -2.00048542 0.9510109425 
-4.669272423 -6.08979702 -1.238308311 0.9693859816 
-3.87040019 -6.103566647 -1.166249871 0.9711415172 
-3.498522758 -6.101335526 -1.134931564 0.9719054699 
-3.149743557 -6.107614517 -1.108913064 0.972540617 
-2.831345081 -6.147045612 -1.09209919 0.972951293 
-2.53960681 -6.228901386 -1.085476041 0.9731131196 
-2.320368528 -6.505009651 -1.114480972 0.9724046588 
-2.575270891 -12.13348103 -2.001565933 0.950985074 
-1.486777306 -12.31530285 -2.001721144 0.9509813786 
-0.9375048876 -12.36973381 -2.001798868 0.9509795308 
0.1656201184 -12.40505791 -2.001954079 0.9509758353 
0.7172997594 -12.38589287 -2.002031326 0.9509739876 
1.815446734 -12.27406025 -2.002183914 0.9509703517 
2.35973382 -12.18159866 -2.002259016 0.9509685636 
0.9814843535 -4.084191799 -0.6778193712 0.9831247926 
1.453410625 -2.945832491 -0.5300697088 0.9867787361 
2.167895555 -2.934143066 -0.5886917114 0.985327363 
2.813359261 -2.902392626 -0.6522696018 0.9837556481 
9.74990654 -7.684450626 -2.003244638 0.9509450197 
10.68657684 -6.318762302 -2.003362179 0.9509422183 
11.20624256 -5.344108582 -2.003425121 0.9509407282 
11.43303967 -4.8403368 -2.003451824 0.9509400725 
11.63717747 -4.327016354 -2.003475189 0.9509395361 
11.97592258 -3.275659084 -2.003512144 0.950938642 
12.21980667 -2.198305607 -2.003535509 0.9509381056 
12.36689663 -1.103532672 -2.003545284 0.9509378076 
12.40372562 -0.5523095727 -2.003544807 0.9509378672 
12.41599846 -2.441406195e-06 -2.003540754 0.9509379864 
12.40366459 0.5522997975 -2.003533363 0.9509381056 
12.36675549 1.10350585 -2.003522635 0.950938344 
12.30533695 1.652521968 -2.003508568 0.9509387016 
12.21953106 2.198251963 -2.003490925 0.9509391785 
12.1095314 2.739621639 -2.003470182 0.9509396553 
11.81778526 3.805007219 -2.003418207 0.950940907 
10.68589306 6.318346977 -2.00323391 0.9509452581 
10.3939991 6.787284851 -2.003188133 0.9509464502 
9.749164581 7.68385458 -2.003091574 0.9509487152 
9.397454262 8.109716415 -2.00303936 0.9509499669 
8.233736038 9.287540436 -2.002864599 0.9509541392 
7.812189579 9.644318581 -2.002801418 0.9509556293 
6.923658371 10.29981327 -2.002669811 0.9509587288 
6.458398342 10.59723949 -2.002601385 0.9509603977 
5.490528584 11.12855434 -2.002459764 0.9509637952 
4.989874363 11.36136341 -2.002386808 0.9509655237 
4.47937727 11.57165718 -2.002313137 0.9509673119 
2.89903307 12.0635376 -2.002085924 0.9509726763 
2.359444618 12.18008518 -2.002008677 0.950974524 
-0.3863085806 12.39809036 -2.001621008 0.9509837627 
-0.9374011159 12.3681488 -2.00154376 0.9509856701 
-1.486591816 12.31372452 -2.001467466 0.9509875178 
-2.032806396 12.23495579 -2.001391411 0.950989306 
-2.574951649 12.13195133 -2.001316547 0.9509910941 
-3.112012863 12.00495338 -2.001242399 0.9509928226 
-4.792681217 10.4052515 -1.848623276 0.9546441436 
-5.698166847 9.937448502 -1.848501205 0.9546470046 
-6.134386063 9.67382431 -1.848442316 0.9546484351 
-6.401184082 9.165912628 -1.804067969 0.9557127357 
-6.973979473 9.095645905 -1.849524617 0.9546225071 
-7.369285583 8.773563385 -1.848922491 0.9546369314 
-7.749302864 8.433821678 -1.848213911 0.9546539187 
-8.116580963 8.080561638 -1.848165989 0.9546550512 
-8.473463058 7.716477871 -1.849358201 0.9546265006 
-8.806651115 7.330524921 -1.84900403 0.9546349049 
-9.121957779 6.929926395 -1.848586202 0.954644978 
-9.41885376 6.515673637 -1.848126173 0.9546560049 
-9.89894104 6.215497971 -1.886148691 0.9537450671 
-11.281147 5.135354042 -2.000153065 0.9510188699 
-11.69265556 4.112285137 -2.000106096 0.9510199428 
-11.86389732 3.588051796 -2.0000875 0.9510204196 
-12.13568592 2.519370079 -2.000060797 0.9510210156 
-12.39243031 -0.2205981463 -2.000053883 0.9510211945 
-12.32390499 -1.321162105 -2.000075102 0.9510207176 
-12.15791512 -2.411364794 -2.000110149 0.9510198832 
-12.03874683 -2.949836254 -2.000132561 0.9510193467 
-11.89576149 -3.482490063 -2.00015831 0.9510187507 
-11.32696533 -5.035048485 -2.000254869 0.9510164261 
-10.83506298 -6.022097111 -2.000334263 0.9510144591 
-10.25739193 -6.961591721 -2.000425339 0.951012373 
-9.937817574 -7.4111619 -2.000475168 0.9510111809 
-9.598554611 -7.846100807 -2.000527382 0.9510099292 
-9.240287781 -8.265546799 -2.00058198 0.9510086179 
-6.221491337 -6.084572792 -1.40426147 0.9653550982 
-5.70314455 -6.097099304 -1.347206354 0.9667389989 
-2.597223997 -6.211565018 -1.086438537 0.9730895758 
-2.358212948 -6.429653168 -1.105122685 0.972633183 
-3.219064951 -11.97817135 -2.001473188 0.950987339 
-2.683151722 -12.10998726 -2.001550436 0.9509854317 
-2.141867638 -12.21782684 -2.001627922 0.9509836435 
-1.596330523 -12.30148125 -2.001705647 0.9509817958 
-1.047548771 -12.36080265 -2.001783371 0.9509798884 
-0.4967065454 -12.39564419 -2.001861095 0.9509780407 
0.05519286916 -12.40594482 -2.00193882 0.9509762526 
1.157741666 -12.35289288 -2.0020926 0.9509724975 
2.251245022 -12.20203304 -2.002243996 0.9509689212 
2.791913986 -12.09025383 -2.002318382 0.950967133 
1.021936059 -3.671911478 -0.615046978 0.9846755266 
1.100353956 -3.366127968 -0.5714683533 0.9857535362 
1.278352022 -2.98244381 -0.5236157179 0.9869386554 
1.421247482 -2.946450233 -0.5278838873 0.9868329167 
1.755566359 -2.939177275 -0.5524511337 0.9862243533 
1.934531212 -2.933930635 -0.5670950413 0.9858618379 
2.127140999 -2.933247089 -0.5846912861 0.9854263663 
2.33653307 -2.93758297 -0.6056924462 0.9849068522 
2.766276836 -2.905119658 -0.6473233104 0.9838778377 
3.011957884 -2.893698692 -0.6739941239 0.9832192063 
9.325636864 -8.193634987 -2.003190756 0.950946331 
10.01740932 -7.332673073 -2.003278255 0.9509442449 
10.33388424 -6.879943848 -2.003318071 0.9509432912 
10.9048481 -5.934453011 -2.003388882 0.9509416223 
11.38947487 -4.941896915 -2.003446817 0.9509401917 
12.0849781 -2.847382784 -2.003523111 0.9509384036 
12.29033375 -1.762023926 -2.003540993 0.9509379864 
12.35657978 -1.213564396 -2.003544807 0.9509378672 
12.41551495 -0.1105224565 -2.003541708 0.9509379268 
12.40809536 0.4419238269 -2.003535271 0.9509381056 
12.376091 0.993437469 -2.003525257 0.950938344 
12.23863029 2.089450598 -2.00349474 0.9509390593 
12.13344669 2.631777287 -2.003474474 0.9509395361 
12.00422096 3.168872118 -2.003450871 0.9509401321 
11.85122013 3.699672699 -2.003423929 0.9509407878 
11.67473888 4.223132133 -2.003393888 0.950941503 
10.45405769 6.694530964 -2.00319767 0.9509461522 
9.817231178 7.596816063 -2.003101587 0.9509484172 
9.469266891 8.025793076 -2.003050089 0.9509498477 
9.102692604 8.438855171 -2.002995253 0.9509509802 
8.316102982 9.213981628 -2.002876759 0.9509537816 
7.897741318 9.574493408 -2.002814293 0.9509553313 
7.015082836 10.2378664 -2.002683163 0.9509584308 
6.552462101 10.53942966 -2.002615213 0.9509600997 
5.589415073 11.079319 -2.00247407 0.9509634376 
4.582238674 11.53140926 -2.002327919 0.9509669542 
3.006324291 12.03734112 -2.002101183 0.9509723186 
2.467786789 12.1586895 -2.002024412 0.9509741664 
0.827370584 12.37753105 -2.001791716 0.9509797692 
0.2759472728 12.40160275 -2.001713991 0.950981617 
-0.2759875357 12.40112972 -2.001636505 0.9509834051 
-3.005054951 12.03227425 -2.001257181 0.950992465 
-3.537191629 11.88624573 -2.001183987 0.9509942532 
-5.609509945 9.987835884 -1.848513126 0.9546467662 
-6.308986187 9.207416534 -1.801110387 0.9557836652 
-7.291436672 8.839379311 -1.849048376 0.9546338916 
-8.044413567 8.152497292 -1.848175406 0.9546548128 
-8.404769897 7.79183197 -1.849423528 0.9546249509 
-9.717627525 6.222931862 -1.862082362 0.9543215632 
-10.99115467 5.730258465 -2.000187397 0.9510180354 
-11.4566412 4.73057127 -2.000132799 0.9510193467 
-11.98399639 3.163535118 -2.00007534 0.9510207176 
-12.21761608 2.085861683 -2.000053883 0.9510211945 
-12.37677097 -0.6615527272 -2.000060797 0.9510210156 
-11.92626095 -3.376455069 -2.000153065 0.9510188699 
-11.76441669 -3.903691292 -2.000181198 0.9510182142 
-11.37129211 -4.934006214 -2.000247478 0.9510166049 
-11.14076424 -5.435063362 -2.000285149 0.9510157108 
-10.88818741 -5.925385475 -2.000325918 0.9510146976 
-9.667934418 -7.760344028 -2.000516653 0.9510101676 
-6.333535194 -6.084850788 -1.417274475 0.9650397301 
-5.308232307 -6.096078873 -1.304381728 0.9677790999 
-4.844489574 -6.09068346 -1.255825162 0.9689597487 
-4.417536736 -6.091623306 -1.214258552 0.9699715376 
-4.023054123 -6.101416111 -1.179333568 0.9708225131 
-3.646264553 -6.10458231 -1.147426486 0.9716005921 
-3.286552668 -6.103720665 -1.118650317 0.9723028541 
-2.399838924 -6.367253304 -1.098026276 0.9728065133 
-2.24078846 -6.854863167 -1.163753986 0.9712023735 
-3.325529814 -11.94894505 -2.00145793 0.9509877563 
-2.790766478 -12.08553886 -2.001534939 0.9509858489 
-2.250483274 -12.19818592 -2.001612425 0.9509840012 
-1.157502413 -12.35088348 -2.001767874 0.9509803057 
-0.6069653034 -12.39062691 -2.001845598 0.9509784579 
2.684162617 -12.11452579 -2.0023036 0.9509675503 
1.008156657 -3.751349926 -0.6268252134 0.9843843579 
1.081440449 -3.41077137 -0.5773915052 0.9856069684 
1.171867609 -3.195095062 -0.549169302 0.986305654 
1.255390644 -3.002399921 -0.525136888 0.9869009852 
1.389338374 -2.947048187 -0.5257545114 0.9868856668 
1.72076416 -2.940014601 -0.5497094393 0.986292243 
1.898342252 -2.935549259 -0.5641207695 0.9859354496 
2.510351419 -2.935271025 -0.6232566833 0.9844725728 
9.611517906 -7.856691837 -2.003227711 0.950945437 
9.951701164 -7.421515942 -2.003270149 0.9509444237 
10.272192 -6.971621037 -2.003310442 0.95094347 
10.57234383 -6.507907391 -2.003347874 0.9509425759 
11.34500694 -5.04307127 -2.003441572 0.950940311 
11.7485981 -4.014873028 -2.003487825 0.9509392381 
11.91569042 -3.488271475 -2.003505945 0.9509387612 
12.05916023 -2.954782724 -2.003520727 0.9509384036 
12.17872334 -2.415439367 -2.003532171 0.9509381652 
12.34529781 -1.323457003 -2.003544331 0.9509378076 
12.41404247 -0.2209790051 -2.003542662 0.9509379268 
12.4115448 0.3314599395 -2.003536701 0.950938046 
12.38446236 0.8832397461 -2.003527403 0.9509382844 
11.88371563 3.594050169 -2.003429651 0.950940609 
11.51690197 4.635893345 -2.003367662 0.9509420991 
11.0588398 5.640985966 -2.003293037 0.9509438872 
10.79674816 6.1272192 -2.003251553 0.9509448409 
10.20895958 7.06224823 -2.003159523 0.9509471059 
9.540406227 7.941264629 -2.003060818 0.9509494305 
8.796351433 8.757294655 -2.002949238 0.9509521127 
8.397833824 9.139636993 -2.002889156 0.9509535432 
7.982713223 9.503863335 -2.002826929 0.9509550333 
7.5517869 9.849241257 -2.002762794 0.950956583 
6.646061897 10.4807539 -2.002628803 0.9509598017 
6.173066139 10.76565742 -2.002559423 0.9509613514 
5.687855244 11.02920628 -2.002488613 0.9509630799 
5.191415787 11.27090168 -2.002416134 0.9509648085 
4.684734821 11.49024868 -2.002342701 0.9509665966 
4.168773174 11.68685722 -2.002268076 0.9509683251 
2.575883627 12.13634491 -2.002039671 0.9509738088 
2.033387423 12.23844337 -2.001962423 0.9509756565 
1.486904263 12.31630135 -2.001884937 0.9509775043 
-0.1655944735 12.40318298 -2.001651764 0.9509831071 
-0.7171398997 12.38306618 -2.001574755 0.9509848952 
-1.814755797 12.26937675 -2.00142169 0.9509885907 
-2.897851467 12.05862522 -2.001271963 0.950992167 
-3.682373047 10.93448257 -1.861842036 0.9543273449 
-4.135819435 10.6839695 -1.848712564 0.9546419382 
-4.606807232 10.48904228 -1.848648667 0.9546435475 
-5.068666458 10.27338123 -1.848586082 0.9546450377 
-5.961313248 9.781589508 -1.8484658 0.9546478987 
-6.255898952 9.306441307 -1.809522033 0.9555818439 
-6.811535358 9.219056129 -1.849671483 0.9546189904 
-7.212945461 8.904531479 -1.849171758 0.954630971 
-8.997991562 7.09181881 -1.848754287 0.9546409845 
-9.302329063 6.682944298 -1.848311424 0.9546515942 
-11.61765003 4.319746017 -2.000114441 0.9510198236 
-11.95539379 3.270034075 -2.000077963 0.951020658 
-12.08894062 2.734960794 -2.000065088 0.951020956 
-12.19858265 2.194487333 -2.000055552 0.9510211945 
-12.28408909 1.649667978 -2.000049353 0.9510213137 
-12.34528637 1.101591825 -2.000046492 0.9510214329 
-12.38214684 -0.5513525009 -2.000058889 0.9510211349 
-12.28430653 -1.649702072 -2.0000844 0.9510204792 
-12.19885921 -2.194535971 -2.000102043 0.9510201216 
-11.95581055 -3.270156145 -2.000147581 0.9510189891 
-11.79865456 -3.798859835 -2.000175238 0.9510183334 
-11.61816883 -4.320007324 -2.000206232 0.9510175586 
-11.41469574 -4.832622051 -2.000240326 0.9510167837 
-10.67055511 -6.309287071 -2.000360489 0.9510139227 
-10.37958431 -6.7778759 -2.000406265 0.9510127306 
-6.466489315 -6.102841854 -1.434813499 0.9646148086 
-5.405314922 -6.0971241 -1.314846873 0.9675248265 
-4.499296665 -6.089567661 -1.221783519 0.9697883129 
-4.100161076 -6.099516392 -1.185973883 0.9706606269 
-3.720190287 -6.104259968 -1.15354538 0.9714513421 
-3.356716156 -6.10330534 -1.124002934 0.9721722007 
-3.017104387 -6.115265846 -1.100373268 0.9727491736 
-2.713974476 -6.179409027 -1.089091659 0.9730247855 
-2.445705414 -6.318039417 -1.093248606 0.9729232192 
-2.898207903 -12.06011677 -2.00151968 0.9509862661 
-2.358974457 -12.17757511 -2.001596928 0.9509843588 
-1.815060973 -12.27092743 -2.001674652 0.950982511 
-0.1656152308 -12.40476513 -2.001907587 0.9509769678 
0.937641561 -12.3713522 -2.002062082 0.9509732723 
1.487094641 -12.31786823 -2.002138376 0.9509714246 
1.062294841 -3.456838369 -0.5835658312 0.9854542017 
1.237924814 -3.036262035 -0.529111445 0.9868025184 
1.360061049 -2.952785492 -0.5245983601 0.9869143367 
1.686276793 -2.940827608 -0.5470330715 0.9863585234 
1.862094641 -2.936496496 -0.5610951185 0.9860103726 
2.251052141 -2.93588376 -0.5969862342 0.9851221442 
2.680703163 -2.917500019 -0.6393487453 0.9840748906 
2.91252923 -2.899604321 -0.6631898284 0.9834859967 
9.178210258 -8.358276367 -2.003171682 0.9509467483 
10.2097168 -7.062714577 -2.003302574 0.9509436488 
10.51398659 -6.601686954 -2.003340721 0.9509427547 
10.79742622 -6.127555847 -2.003375769 0.9509419203 
11.29966068 -5.14379406 -2.003436327 0.9509404302 
11.51743603 -4.636108398 -2.003461599 0.9509398341 
11.71239471 -4.119233131 -2.003483772 0.9509392977 
11.88414478 -3.594184399 -2.003502607 0.9509388804 
12.03235054 -3.062006712 -2.003518105 0.9509385228 
12.15672302 -2.523742676 -2.003530025 0.9509382248 
12.33300781 -1.433288574 -2.003543615 0.9509379268 
12.39184284 0.7729662657 -2.003529549 0.9509382248 
12.34512424 1.323425293 -2.003517389 0.9509385228 
12.17841816 2.415427208 -2.003483057 0.9509393573 
11.9152441 3.488188505 -2.003435135 0.9509405494 
11.74812698 4.014709473 -2.003406286 0.9509411454 
11.55773163 4.533259392 -2.003374338 0.9509419203 
10.85089779 6.030905724 -2.003259897 0.9509446621 
10.57165051 6.507468224 -2.00321579 0.950945735 
9.950966835 7.420964241 -2.003121138 0.950948 
7.196315765 10.1115284 -2.002710104 0.9509576559 
5.291521072 11.22434044 -2.002430916 0.9509645104 
3.220131874 11.98211193 -2.002131701 0.9509716034 
-0.05517944321 12.40426636 -2.0016675 0.9509826899 
-0.606893301 12.38905144 -2.001590014 0.9509845376 
-1.15740478 12.34930897 -2.001513243 0.9509863853 
-1.705538273 12.28513622 -2.001436949 0.9509881735 
-2.2502563 12.19664764 -2.00136137 0.9509900212 
-4.040566444 10.72042656 -1.848725677 0.9546416998 
-4.513288021 10.52971077 -1.848661304 0.9546431899 
-4.977059364 10.31817818 -1.84859848 0.95464468 
-5.43093729 10.08622265 -1.848537087 0.9546461701 
-6.729379654 9.279558182 -1.849718571 0.9546178579 
-7.523207664 8.63979435 -1.848662376 0.9546431899 
-7.898087978 8.294485092 -1.84819448 0.9546543956 
-8.265404701 7.940788269 -1.849565029 0.9546215534 
-9.242964745 6.765776157 -1.848403454 0.9546493888 
-10.27878857 6.201711178 -1.937182784 0.9525237083 
-11.14011669 5.434738636 -2.000169516 0.9510184526 
-11.37069702 4.933747292 -2.000142574 0.9510191083 
-11.92583942 3.376327991 -2.000081062 0.9510205388 
-12.06413555 2.842463255 -2.000067472 0.9510208964 
-12.17859364 2.303002834 -2.000056982 0.9510210752 
-12.26892662 1.758945227 -2.000050068 0.9510213137 
-12.39387417 0.1102685556 -2.000050068 0.9510213137 
-12.2984724 -1.540341735 -2.000081062 0.9510205984 
-12.11312008 -2.627380371 -2.000118732 0.9510197043 
-11.45722675 -4.730815411 -2.000233173 0.9510169029 
-11.23564053 -5.235878944 -2.000269651 0.9510160685 
-10.99182224 -5.730615139 -2.000309229 0.9510151148 
-10.13197708 -7.143119812 -2.000444889 0.9510118365 
-5.503923416 -6.098176003 -1.32558465 0.9672640562 
-5.02594471 -6.093002796 -1.274547815 0.9685043097 
-3.794870615 -6.103918552 -1.159816146 0.9712983966 
-3.427905083 -6.103442192 -1.129603267 0.9720355272 
-2.772580624 -6.163251877 -1.09055078 0.9729891419 
-2.491181612 -6.269189358 -1.088589787 0.9730370641 
-2.285851955 -6.593024731 -1.126030445 0.9721226692 
-3.537617207 -11.88769722 -2.001427174 0.9509884119 
-0.8273242116 -12.37769222 -2.001814604 0.9509791732 
-0.2759814262 -12.4027071 -2.00189209 0.9509773254 
0.2760302722 -12.40318775 -2.001969814 0.9509754777 
1.377431631 -12.33052254 -2.002123117 0.9509717822 
2.468090773 -12.16021252 -2.002274036 0.9509682059 
0.9870385528 -3.952131271 -0.6573339701 0.9836305976 
1.047868609 -3.521232843 -0.5928384066 0.9852247834 
1.136909127 -3.279155254 -0.5600504875 0.9860362411 
1.220151305 -3.070566416 -0.5331765413 0.9867017865 
1.332805157 -2.962724447 -0.5242362618 0.986923337 
1.485820293 -2.945185423 -0.5323116779 0.9867232442 
1.652111769 -2.941613674 -0.5444225669 0.9864231944 
2.20917964 -2.935019493 -0.5927876234 0.9852260351 
2.424311399 -2.938986778 -0.6147851348 0.9846820235 
2.637702465 -2.92247057 -0.6352697611 0.9841756821 
9.470070839 -8.026434898 -2.003209352 0.9509459138 
10.45473576 -6.695034027 -2.00333333 0.9509429336 
10.74243641 -6.223415375 -2.003368855 0.9509420395 
11.25339127 -5.24415493 -2.003430843 0.950940609 
11.47570324 -4.738388538 -2.003456831 0.9509399533 
11.67522907 -4.223317623 -2.003479481 0.9509394765 
11.85168648 -3.699772835 -2.003499031 0.95093894 
12.00461197 -3.168979406 -2.003515005 0.9509385824 
12.13378143 -2.631796837 -2.00352788 0.9509382844 
12.39823914 0.6626879573 -2.003531694 0.9509382248 
12.35641861 1.213486314 -2.00352025 0.9509384632 
12.2901125 1.761982441 -2.003505468 0.9509388208 
12.19947243 2.306877375 -2.00348711 0.9509392381 
11.78343201 3.90998292 -2.003412485 0.9509410262 
11.59763145 4.430258751 -2.003381014 0.9509418011 
10.90420151 5.934096336 -2.00326848 0.9509444833 
10.33316422 6.879462719 -2.003178596 0.950946629 
10.01657677 7.332175255 -2.003130674 0.9509479403 
9.680364609 7.770252705 -2.00308156 0.9509489536 
9.324850082 8.193006516 -2.003028631 0.9509502053 
8.950957298 8.599417686 -2.002972364 0.9509515166 
8.150727272 9.360372543 -2.002852201 0.9509544373 
7.725935936 9.7134161 -2.002788544 0.9509560466 
5.883334637 10.92638206 -2.002516985 0.9509624243 
4.888560772 11.40522289 -2.002372265 0.9509658813 
4.376171589 11.61099434 -2.002298117 0.9509676099 
3.855246544 11.79369831 -2.002223015 0.9509694576 
3.326630831 11.95307922 -2.002146959 0.9509712458 
1.70594728 12.28806782 -2.001915932 0.950976789 
-0.4965929985 12.39406109 -2.001605511 0.95098418 
-1.047446251 12.35921764 -2.001528502 0.9509860277 
-1.596185327 12.29991913 -2.001452208 0.9509878159 
-2.141616821 12.21628666 -2.00137639 0.950989604 
-2.682869911 12.10846138 -2.001301527 0.9509914517 
-3.218674183 11.97665215 -2.001227617 0.9509933591 
-3.664659977 11.55785847 -1.956570745 0.9520601034 
-3.945006609 10.75604725 -1.84873867 0.9546413422 
-4.419459343 10.56951904 -1.84867394 0.9546428919 
-4.885051727 10.36213112 -1.848610759 0.954644382 
-5.341018677 10.13420868 -1.848549247 0.9546458721 
-6.221682072 9.62104702 -1.848866343 0.9546382427 
-6.646669865 9.33930397 -1.849761486 0.9546168447 
-7.05423069 9.032653809 -1.849409699 0.9546252489 
-7.446530819 8.707036972 -1.848793864 0.9546400309 
-7.824027061 8.364476204 -1.848204136 0.9546541572 
-9.182829857 6.848117352 -1.848495126 0.9546471834 
-9.476016998 6.431210995 -1.848032832 0.9546582699 
-10.08630848 6.20871067 -1.911247015 0.9531441927 
-10.83438969 6.021659851 -2.000206232 0.9510175586 
-11.09133148 5.533700943 -2.000175476 0.9510183334 
-11.53896904 4.525898457 -2.000123262 0.9510195851 
-12.32371902 1.321184039 -2.000047207 0.9510214329 
-12.37029552 0.771625936 -2.000046492 0.9510214329 
-12.39239979 0.2206347585 -2.000049353 0.9510213137 
-12.38998508 -0.3308935463 -2.000055313 0.9510211945 
-12.36305141 -0.881767571 -2.000065088 0.951020956 
-12.31167412 -1.430810571 -2.000077963 0.951020658 
-12.13599873 -2.519443274 -2.000114441 0.9510198236 
-12.01204777 -3.056889534 -2.000137329 0.9510192275 
-11.0423584 -5.63252449 -2.000301123 0.9510152936 
-10.49848938 -6.591967583 -2.000387669 0.9510132074 
-10.1950779 -7.052651405 -2.000435114 0.9510121346 
-9.871538162 -7.499326229 -2.00048542 0.9510109425 
-9.166433334 -8.347475052 -2.000593424 0.9510083199 
-5.604155064 -6.099247932 -1.336601377 0.966996491 
-5.118674278 -6.094079494 -1.284254432 0.9682683349 
-4.669230938 -6.089794636 -1.238303185 0.9693861008 
-4.256989479 -6.095629692 -1.199761987 0.9703246355 
-3.870366096 -6.103569031 -1.166246891 0.9711415768 
-2.575270891 -12.13348103 -2.001565933 0.950985074 
-1.486777306 -12.31530285 -2.001721144 0.9509813786 
-0.9375756383 -12.36972141 -2.001798868 0.9509795308 
0.1656689346 -12.40506363 -2.001954079 0.9509758353 
0.7172997594 -12.38589287 -2.002031326 0.9509739876 
1.267661095 -12.34218693 -2.002107859 0.9509721994 
2.359787464 -12.18160152 -2.002259016 0.9509685636 
0.9814843535 -4.084191799 -0.6778193712 0.9831247926 
1.118832946 -3.322277784 -0.5656913519 0.9858965278 
1.453410625 -2.945832491 -0.5300697088 0.9867787361 
1.970746994 -2.931762695 -0.5700427294 0.9857888818 
2.167895555 -2.934143066 -0.5886917114 0.985327363 
2.380109787 -2.938322783 -0.6101881266 0.9847956896 
2.594719172 -2.926811457 -0.6311678886 0.9842770696 
3.061269522 -2.889106274 -0.679246664 0.9830895662 
9.398241997 -8.110339165 -2.003200054 0.9509460926 
9.74990654 -7.684450626 -2.003244638 0.9509450197 
10.68660164 -6.318710804 -2.003362179 0.9509422183 
10.95726013 -5.837226391 -2.003395081 0.9509413838 
11.2062664 -5.344052792 -2.003425121 0.9509407282 
11.43302727 -4.840380669 -2.003451824 0.9509400725 
11.63717747 -4.327016354 -2.003475189 0.9509395361 
11.8182373 -3.805156231 -2.003495455 0.9509390593 
12.10985088 -2.739750862 -2.003525734 0.950938344 
12.21980667 -2.198305607 -2.003535509 0.9509381056 
12.41599846 -2.441406195e-06 -2.003540754 0.9509379864 
12.40366173 0.5523559451 -2.003533363 0.9509381056 
12.36675549 1.10350585 -2.003522635 0.950938344 
12.30533218 1.652573228 -2.003508568 0.9509387016 
12.21953106 2.198251963 -2.003490925 0.9509391785 
11.63665771 4.326816082 -2.003387451 0.9509416819 
10.95660591 5.836862564 -2.003276825 0.9509443045 
10.3939991 6.787284851 -2.003188133 0.9509464502 
10.08159161 7.242714882 -2.003139973 0.9509475231 
9.749164581 7.68385458 -2.003091574 0.9509487152 
9.397420883 8.10975647 -2.00303936 0.9509499669 
9.027153015 8.519487381 -2.002983809 0.9509512782 
8.638951302 8.912402153 -2.002925396 0.9509526491 
7.812155724 9.644349098 -2.002801418 0.9509556293 
6.458398342 10.59723949 -2.002601385 0.9509603977 
5.490576267 11.12852859 -2.002459764 0.9509637952 
4.989874363 11.36136341 -2.002386808 0.9509655237 
4.479431152 11.57163715 -2.002313137 0.9509673119 
3.960051298 11.75902653 -2.002238035 0.9509690404 
3.432957649 11.92309093 -2.002162218 0.9509708285 
1.815222144 12.27250671 -2.001931429 0.9509763718 
1.267393827 12.34062672 -2.001853704 0.9509782791 
-0.3863085806 12.39809036 -2.001621008 0.9509837627 
-0.9374548197 12.36814404 -2.00154376 0.9509856701 
-2.032855272 12.23494625 -2.001391411 0.950989306 
-3.642767906 11.85421276 -2.001169443 0.9509946108 
-4.325191975 10.60853291 -1.848686814 0.9546425939 
-5.698166847 9.937448502 -1.848501205 0.9546470046 
-6.134426117 9.673797607 -1.848442316 0.9546484351 
-6.401184082 9.165912628 -1.804067969 0.9557127357 
-6.974017143 9.09561348 -1.849524498 0.9546225071 
-7.749335766 8.433790207 -1.848213911 0.9546539187 
-8.116580963 8.080561638 -1.848165989 0.9546550512 
-8.806651115 7.330524921 -1.84900403 0.9546349049 
-9.121984482 6.929887772 -1.848586082 0.954644978 
-9.41885376 6.515673637 -1.848126173 0.9546560049 
-9.89894104 6.215497971 -1.886148691 0.9537450671 
-11.69263649 4.112338543 -2.000106096 0.9510199428 
-12.13568592 2.519370079 -2.000060797 0.9510210156 
-12.31148624 1.430781245 -2.000047684 0.9510213733 
-12.36293888 0.8816503882 -2.000046253 0.9510214329 
-12.38994026 0.3308789134 -2.000048399 0.9510213733 
-12.37039566 -0.7716405988 -2.000062704 0.9510210156 
-12.15791512 -2.411364794 -2.000110149 0.9510198832 
-11.89576149 -3.482490063 -2.00015831 0.9510187507 
-11.72926235 -4.008210182 -2.000187397 0.9510180354 
-11.09198189 -5.534033298 -2.000293016 0.951015532 
-10.83504295 -6.022143364 -2.000334263 0.9510144591 
-10.55667114 -6.498256683 -2.000378609 0.9510135055 
-9.937817574 -7.4111619 -2.000475168 0.9510111809 
-9.240287781 -8.265546799 -2.00058198 0.9510086179 
-4.336764812 -6.093642235 -1.206917286 0.9701503515 
-3.946774721 -6.103200436 -1.172845006 0.9709807038 
-3.569997549 -6.099577427 -1.140468478 0.9717703462 
-3.217302084 -6.104609013 -1.11352253 0.9724280834 
-2.890175819 -6.130622387 -1.093706131 0.9729120135 
-2.358212948 -6.429653168 -1.105122685 0.972633183 
-3.219064951 -11.97817135 -2.001473188 0.950987339 
-2.683105469 -12.10999489 -2.001550436 0.9509854913 
-1.596279263 -12.30149174 -2.001705647 0.9509817958 
-1.047548771 -12.36080265 -2.001783371 0.9509798884 
0.6070703268 -12.39168644 -2.002015829 0.9509743452 
1.706159592 -12.28962421 -2.002168894 0.9509707093 
1.100353956 -3.366127968 -0.5714683533 0.9857535362 
1.188422799 -3.153161526 -0.5437576175 0.9864397049 
1.278352022 -2.98244381 -0.5236157179 0.9869386554 
1.421262145 -2.946450233 -0.5278849602 0.9868329167 
1.584721684 -2.943115234 -0.5393943787 0.9865477681 
1.934531212 -2.933930635 -0.5670950413 0.9858618379 
2.33653307 -2.93758297 -0.6056924462 0.9849068522 
3.011982441 -2.893693686 -0.6739962697 0.9832191467 
10.01737785 -7.332714558 -2.003278255 0.9509442449 
10.62986088 -6.413613319 -2.003355026 0.9509423971 
11.1581955 -5.443623066 -2.003419399 0.9509408474 
11.38947487 -4.941896915 -2.003446817 0.9509401917 
11.94628906 -3.382070303 -2.003509283 0.9509387016 
12.0849781 -2.847382784 -2.003523111 0.9509384036 
12.29033375 -1.762023926 -2.003540993 0.9509379864 
12.35658646 -1.213513136 -2.003544807 0.9509378076 
12.41551495 -0.1104687452 -2.003541708 0.9509379268 
12.40810013 0.4418725371 -2.003535271 0.9509381056 
12.376091 0.993437469 -2.003525257 0.950938344 
12.31957531 1.542924762 -2.003511667 0.950938642 
12.00422096 3.168872118 -2.003450871 0.9509401321 
11.8512373 3.699621439 -2.003423929 0.9509407282 
11.25279713 5.243869305 -2.00332427 0.950943172 
10.74175072 6.223002911 -2.003242731 0.9509450793 
9.8171978 7.596860409 -2.003101587 0.9509484172 
9.102653503 8.43889904 -2.002995253 0.9509509206 
8.718028069 8.83515358 -2.002937317 0.9509524107 
7.463778019 9.916010857 -2.002749681 0.950956881 
7.015111923 10.23783398 -2.002683401 0.9509584308 
5.090796947 11.31660271 -2.00240159 0.9509651661 
4.582238674 11.53140926 -2.002327919 0.9509669542 
4.064547062 11.72341537 -2.002253294 0.9509686828 
3.538944006 11.89214325 -2.002177477 0.9509705305 
3.006271839 12.03735447 -2.002101183 0.9509723186 
2.467786789 12.1586895 -2.002024412 0.9509741664 
1.924357891 12.25596809 -2.001946926 0.9509760141 
1.377255797 12.32894993 -2.001869202 0.9509778619 
0.827370584 12.37753105 -2.001791716 0.9509797692 
-0.2759875357 12.40112972 -2.001636505 0.9509834051 
-2.46692872 12.15447521 -2.001331329 0.9509907365 
-3.00500536 12.03228474 -2.001257181 0.950992465 
-3.753055334 10.82468319 -1.848764896 0.9546407461 
-4.230660915 10.64665794 -1.848699808 0.9546423554 
-6.048072338 9.728112221 -1.848454118 0.9546481371 
-6.309020042 9.207377434 -1.801108479 0.9557837248 
-7.67499876 8.503657341 -1.848472953 0.9546477199 
-8.044413567 8.152497292 -1.848175406 0.9546548128 
-8.404736519 7.791871071 -1.849423647 0.9546249509 
-8.741448402 7.408920765 -1.849084139 0.9546329975 
-11.45666027 4.730522156 -2.000132799 0.9510193467 
-11.98399639 3.163535118 -2.00007534 0.9510207176 
-12.11279011 2.627241135 -2.000062704 0.9510210156 
-12.21761608 2.085861683 -2.000053883 0.9510211945 
-12.29827404 1.540256262 -2.000048399 0.9510213733 
-12.37677097 -0.6615527272 -2.000060797 0.9510210156 
-12.33516979 -1.211406231 -2.000072479 0.9510207772 
-12.2691412 -1.758989215 -2.0000875 0.9510204196 
-12.17885971 -2.303100586 -2.000106096 0.9510200024 
-12.06450558 -2.842558622 -2.000127792 0.9510194063 
-11.92624855 -3.376506329 -2.000153065 0.9510188699 
-11.76441669 -3.903691292 -2.000181198 0.9510182142 
-11.57928944 -4.423266411 -2.000212908 0.9510174394 
-11.1407423 -5.435102463 -2.000285149 0.9510157108 
-10.61403275 -6.404057503 -2.00036931 0.9510136247 
-10.0033083 -7.322421551 -2.000464916 0.9510114193 
-9.313405991 -8.182966232 -2.000571012 0.9510088563 
-6.3335886 -6.084850788 -1.417281151 0.9650395513 
-5.308278561 -6.096081257 -1.304386616 0.9677789807 
-4.844489574 -6.09068346 -1.255825162 0.9689597487 
-4.417500019 -6.09162569 -1.214255095 0.9699716568 
-4.023054123 -6.101416111 -1.179333568 0.9708225131 
-3.646230459 -6.104577541 -1.147423625 0.9716006517 
-2.952038527 -6.120082855 -1.096468687 0.9728445411 
-2.655544281 -6.195507526 -1.087721348 0.9730582237 
-3.325480938 -11.94896221 -2.00145793 0.9509876966 
-2.790815353 -12.08552265 -2.001534939 0.9509858489 
-1.705786109 -12.2866888 -2.001689911 0.9509821534 
-1.157502413 -12.35088348 -2.001767874 0.9509803057 
-0.0551879853 -12.40585423 -2.001923084 0.9509765506 
0.496686995 -12.39652061 -2.00200057 0.9509747028 
2.142526865 -12.22149849 -2.002229214 0.9509692192 
1.008156657 -3.751349926 -0.6268252134 0.9843843579 
1.081450224 -3.410754204 -0.5773882866 0.985607028 
1.171867609 -3.195095062 -0.549169302 0.986305654 
1.255393028 -3.002387524 -0.5251348615 0.9869010448 
1.551479459 -2.943835497 -0.5369737148 0.9866076708 
1.720749497 -2.940016985 -0.5497082472 0.9862923026 
2.086914062 -2.93234849 -0.5807853341 0.9855229855 
2.723244667 -2.911355019 -0.6432888508 0.9839775562 
9.611550331 -7.856650352 -2.003227711 0.950945437 
10.85158157 -6.031218052 -2.003382206 0.9509418011 
11.10928726 -5.542668343 -2.003413439 0.9509410262 
11.34502888 -5.043027401 -2.003441572 0.950940311 
11.55825901 -4.533473969 -2.003466368 0.9509397149 
11.74861526 -4.014823914 -2.003487825 0.9509392381 
11.91567612 -3.488315344 -2.003505945 0.9509387612 
12.05916023 -2.954782724 -2.003520727 0.9509384036 
12.17871571 -2.415490627 -2.003531933 0.9509381652 
12.27416515 -1.87129879 -2.003539801 0.9509379864 
12.41404057 -0.2210327089 -2.003542662 0.9509379268 
12.38446045 0.8832885623 -2.003527403 0.9509382844 
12.25675488 1.980488181 -2.003498316 0.9509389997 
11.51690197 4.635893345 -2.003367662 0.9509420991 
11.29904747 5.143568993 -2.0033319 0.9509429932 
11.0588665 5.640937328 -2.003293037 0.9509438872 
10.20895958 7.06224823 -2.003159523 0.9509471059 
9.884500504 7.509169579 -2.003111362 0.9509482384 
9.540406227 7.941264629 -2.003060818 0.9509494305 
9.177495003 8.357539177 -2.003006458 0.9509506822 
8.796351433 8.757294655 -2.002949238 0.9509521127 
8.397796631 9.13967514 -2.002889156 0.9509535432 
7.982713223 9.503863335 -2.002826929 0.9509550333 
7.551756382 9.849280357 -2.002762794 0.9509565234 
6.646022797 10.48078442 -2.002628803 0.9509598017 
3.644634962 11.8602829 -2.002192736 0.9509701133 
2.03343749 12.23843575 -2.001962423 0.9509756565 
1.486904263 12.31630135 -2.001884937 0.9509775043 
0.386328131 12.39874935 -2.001729488 0.9509812593 
-0.1656445265 12.40318298 -2.001651764 0.9509831071 
-1.267279029 12.3384285 -2.001497984 0.950986743 
-2.358714581 12.17604351 -2.00134635 0.9509903789 
-2.897851467 12.05862522 -2.001271963 0.950992167 
-4.606753349 10.48905849 -1.848648667 0.9546435475 
-5.068666458 10.27338123 -1.848586082 0.9546450377 
-5.520424843 10.03743649 -1.848525047 0.9546464682 
-7.212906361 8.904560089 -1.849171758 0.954630971 
-7.971599102 8.223780632 -1.848184943 0.954654634 
-8.335384369 7.866617203 -1.849488139 0.9546233416 
-8.675539017 7.486674786 -1.849158287 0.954631269 
-8.997991562 7.09181881 -1.848754287 0.9546409845 
-9.588670731 6.261401176 -1.847978592 0.9546595812 
-11.18801975 5.335351467 -2.000164032 0.9510186315 
-11.41410637 4.832373142 -2.000137568 0.9510192275 
-11.61765003 4.319746017 -2.000114441 0.9510198236 
-11.79817677 3.798688889 -2.000094652 0.9510203004 
-12.08893013 2.735014677 -2.000065088 0.951020956 
-12.19858265 2.194487333 -2.000055552 0.9510211945 
-12.38206863 0.5512866378 -2.000047207 0.9510214329 
-11.60902882 -1.55902338 -2.000178099 0.9535807371 
-10.78719425 -4.566933632 -2.00032568 0.9535773993 
-10.57354832 -5.042358398 -2.000360727 0.9535765648 
-8.869768143 -7.654260159 -2.000627756 0.9535707831 
-5.897206783 -6.083825588 -1.446849585 0.9662021995 
-3.714753389 -6.095361233 -1.218920231 0.9714496732 
-3.011474609 -6.103820801 -1.162257075 0.9727586508 
-2.711081505 -6.17279768 -1.151263833 0.973012805 
-2.247023821 -6.672307014 -1.202251554 0.9718345404 
-2.22919178 -11.50767803 -2.001604795 0.9535483718 
-0.1564965844 -11.72227764 -2.001899004 0.9535417557 
0.3651244938 -11.71806335 -2.001972198 0.9535400867 
0.8860595226 -11.69066143 -2.002044678 0.9535383582 
1.405278325 -11.64007759 -2.002116919 0.9535368085 
1.037263155 -3.37541008 -0.6029924154 0.9857729673 
1.511948228 -2.931801796 -0.5632922053 0.9867033958 
1.853652358 -2.923188448 -0.5910696387 0.9860522747 
2.035459042 -2.914599657 -0.607057333 0.9856777191 
2.668268919 -2.903967142 -0.6734318137 0.9841242433 
2.893364191 -2.880517483 -0.6971801519 0.983569026 
9.015914917 -7.504684925 -2.003140211 0.9535135627 
9.647622108 -6.673913479 -2.003219604 0.9535118341 
10.20296574 -5.790224552 -2.003288746 0.9535102248 
10.67753124 -4.860612869 -2.003345966 0.9535089135 
10.88330746 -4.380874157 -2.003370047 0.9535083771 
11.72821522 -0.3132128716 -2.003447294 0.9535066485 
11.73050499 0.2088134736 -2.003442526 0.9535067677 
11.70955753 0.7304247618 -2.003434181 0.9535069466 
11.66541004 1.250581026 -2.003422737 0.953507185 
11.50790215 2.282409668 -2.003390074 0.9535079598 
11.39485073 2.792036057 -2.003369331 0.9535084367 
11.10131836 3.793652296 -2.003317833 0.9535096288 
10.71986771 4.765163422 -2.003254414 0.9535110593 
10.49709892 5.237216473 -2.003218412 0.9535118341 
9.9896698 6.149225712 -2.003137827 0.9535136819 
9.706029892 6.587375164 -2.003093719 0.9535146356 
9.403168678 7.012445927 -2.003046751 0.9535157084 
8.74226284 7.820063114 -2.002949476 0.9535179138 
8.012188911 8.565655708 -2.002840996 0.9535204172 
7.218676567 9.243331909 -2.002722502 0.9535232186 
6.8002038 9.555002213 -2.002660275 0.9535244703 
5.923669338 10.12093449 -2.00253129 0.953527391 
5.467401028 10.3740778 -2.002464533 0.9535289407 
5.00032568 10.60665703 -2.002396584 0.9535304904 
4.037558556 11.00834465 -2.002257109 0.9535335898 
3.042950392 11.32282448 -2.002113819 0.9535368681 
2.53616333 11.44655895 -2.00204134 0.953538537 
1.508651137 11.62582588 -2.001895189 0.9535418153 
-0.5735253692 11.70755672 -2.001601934 0.9535484314 
-1.6117028 11.60939407 -2.001457214 0.9535517693 
-3.142229557 11.29039764 -2.001245737 0.9535565376 
-4.265086174 9.9506464 -1.848702312 0.9570194483 
-4.70335722 9.750760078 -1.848642826 0.9570207596 
-5.551040649 9.293557167 -1.848528266 0.9570233822 
-5.958782673 9.037146568 -1.848471761 0.9570246339 
-6.354696751 8.762871742 -1.84841609 0.9570259452 
-7.80496788 7.498482704 -1.848216057 0.9570304751 
-8.130617142 7.143693924 -1.848174095 0.9570314288 
-8.740668297 6.398119926 -1.849717617 0.9569963217 
-10.02986908 6.051547527 -2.000319004 0.9535775185 
-10.28897572 5.599304199 -2.000287533 0.9535782337 
-10.52771378 5.135995865 -2.000258684 0.9535788894 
-10.74563217 4.662536621 -2.000233173 0.9535794854 
-11.1172657 3.688945293 -2.00019145 0.9535804391 
-11.27027225 3.190727472 -2.000175238 0.9535807967 
-11.50912666 2.176386595 -2.000152349 0.9535813332 
-11.59451008 1.662250996 -2.000145912 0.9535814524 
-11.65695763 1.144831538 -2.000142574 0.953581512 
-11.69633865 0.62515378 -2.000142574 0.9535815716 
-11.71259594 0.104240723 -2.000145912 0.9535814524 
-11.70567799 -0.4168920815 -2.000152349 0.9535812736 
-11.67560196 -0.9371923804 -2.000162125 0.9535810947 
-11.62242508 -1.455654263 -2.000175238 0.9535807967 
-11.54625702 -1.971235275 -2.000191212 0.9535804391 
-11.1815424 -3.490620136 -2.000258684 0.9535788894 
-11.01535606 -3.984616518 -2.000287294 0.9535782337 
-10.82737446 -4.470734596 -2.000318766 0.9535775185 
-9.86550045 -6.317646503 -2.000473499 0.9535740018 
-8.937495232 -7.575063229 -2.000617266 0.9535707831 
-6.603527546 -6.121977329 -1.537665725 0.9641192555 
-5.022231102 -6.088476658 -1.347747803 0.9684802294 
-4.579543591 -6.084145546 -1.300362229 0.9695714116 
-4.174636364 -6.092512131 -1.261170745 0.9704748392 
-3.7893188 -6.094977856 -1.225539565 0.9712969065 
-3.076103449 -6.097441196 -1.166208029 0.9726673365 
-2.769609213 -6.156655312 -1.152803302 0.972977221 
-2.482385159 -6.247045994 -1.147895455 0.9730907083 
-2.275214911 -6.562358379 -1.186043143 0.9722089767 
-2.840092659 -11.37180138 -2.001516819 0.9535503983 
-1.818259239 -11.58006573 -2.001663446 0.9535470605 
-0.260810554 -11.72034359 -2.001884222 0.9535420537 
0.2608202994 -11.72076416 -2.001957417 0.9535403848 
1.301623464 -11.65203381 -2.002102613 0.9535371661 
2.332268 -11.49106407 -2.002244949 0.9535338879 
0.9459106326 -3.78745842 -0.6666181684 0.9842836261 
1.106342793 -3.190988779 -0.5767204165 0.9863885641 
1.195212364 -3.007809877 -0.5526838303 0.986952126 
1.479428649 -2.93252182 -0.5608785748 0.9867599607 
1.644851089 -2.928676605 -0.5735836625 0.9864621162 
2.62507081 -2.908481359 -0.6690347195 0.9842271209 
2.843862295 -2.882084846 -0.6914057732 0.9837040305 
3.091267109 -2.865842104 -0.7198182344 0.9830400944 
9.87918663 -6.326406002 -2.003248692 0.9535111785 
10.4027071 -5.42347908 -2.003313065 0.9535096884 
10.63382053 -4.955424786 -2.00334096 0.9535090923 
10.84385681 -4.477546215 -2.003365517 0.9535085559 
11.03242874 -3.990778685 -2.003386974 0.9535080194 
11.46569824 -2.486936092 -2.003432512 0.9535069466 
11.56501675 -1.974428654 -2.003441334 0.9535068274 
11.64144516 -1.458022475 -2.003446817 0.9535066485 
11.69478703 -0.9387304187 -2.003448963 0.9535065889 
11.71560001 0.6261889338 -2.003436089 0.9535069466 
11.52778339 2.179904699 -2.003394127 0.9535078406 
11.4192791 2.690524817 -2.003373623 0.9535083175 
10.76189423 4.669594765 -2.003261328 0.9535108805 
9.764308929 6.500766277 -2.003102779 0.9535144567 
9.465241432 6.928515434 -2.003056288 0.9535155296 
8.811555862 7.74198246 -2.002959728 0.953517735 
7.300757885 9.178781509 -2.002734661 0.9535228014 
6.884988785 9.494169235 -2.002672911 0.9535242319 
6.013554573 10.0678854 -2.002544403 0.9535270929 
5.094576359 10.56180859 -2.002410173 0.9535301328 
4.135390759 10.97204685 -2.002271175 0.9535333514 
2.637948036 11.42362118 -2.002055883 0.9535381794 
1.612066627 11.61201859 -2.001909971 0.9535415173 
1.093887925 11.67181206 -2.001836538 0.9535431266 
0.05215942115 11.72197437 -2.001689672 0.953546524 
-1.508338571 11.6233654 -2.001471758 0.9535514116 
-2.023819447 11.54434299 -2.001399994 0.9535530806 
-2.535261154 11.44248962 -2.001329184 0.9535546303 
-3.541989088 11.17109108 -2.001190901 0.9535577893 
-4.176382542 9.988276482 -1.848714352 0.9570191503 
-4.616416931 9.792292595 -1.848654628 0.9570205212 
-5.047289371 9.576943398 -1.848596454 0.9570218325 
-5.468155384 9.342648506 -1.848539591 0.9570230842 
-5.878156662 9.089875221 -1.848483086 0.9570243955 
-7.035080433 8.225886345 -1.8483181 0.9570281506 
-7.39385128 7.904588223 -1.848269582 0.9570292234 
-8.381457329 6.851210594 -1.848555923 0.9570227265 
-8.676117897 6.470239162 -1.848170996 0.9570314884 
-9.168715477 6.222704887 -1.892204046 0.9560305476 
-9.975645065 6.140595436 -2.00032568 0.9535773993 
-10.23876476 5.690663815 -2.000293493 0.9535781145 
-10.70372009 4.757993221 -2.00023818 0.9535794258 
-10.90466499 4.277097225 -2.000215054 0.9535799026 
-11.57926655 1.765375972 -2.000146866 0.9535814524 
