# .PCD v0.7 - Point Cloud Data file format
VERSION 0.7
FIELDS x y z intensities
SIZE 4 4 4 4
TYPE F F F F
COUNT 1 1 1 1
WIDTH 943
HEIGHT 1
VIEWPOINT 0 0 0 1 0 0 0
POINTS 943
DATA ascii
39.38059998 104.4857788 19.06740379 0.6356495023 
32.60186005 99.73316193 17.9177227 0.6532589197 
25.12382317 108.7975388 19.06740379 0.6356495023 
10.41899872 111.1735306 19.06740379 0.6356495023 
-47.49688721 100.7501831 19.02028084 0.6363617182 
-50.65657425 96.11724091 18.5531292 0.6434654593 
-50.00951385 22.22989655 9.345410347 0.8008517027 
-26.56148338 -0.7098827958 4.537316322 0.8977870941 
-65.83419037 -16.75384331 11.60029888 0.7590682507 
-60.68573761 -18.35349083 10.82637882 0.773157537 
-60.24921417 -21.18983841 10.90603447 0.7716953754 
-54.22073746 -24.68244553 10.17304325 0.7852547765 
-54.3013916 -27.69823647 10.40924549 0.78085953 
-59.64875412 -33.85110855 11.71167183 0.7570619583 
-58.05942917 -36.45527649 11.70670891 0.7571512461 
-55.33919144 -38.28195572 11.49056149 0.7610502839 
-18.09984779 -13.75028801 3.88150382 0.911888063 
-10.11649418 -15.95371532 3.22584033 0.926207304 
-7.249848366 -14.05821228 2.701029062 0.937830627 
-6.555707932 -14.23289013 2.67586112 0.9383917451 
-5.732656002 -16.07088852 2.913666964 0.9331037402 
-4.005537033 -13.03470707 2.328557253 0.9461684823 
-3.383271456 -13.05135727 2.302339792 0.9467580914 
-0.9940771461 -13.11526871 2.246011734 0.9480262399 
-0.4091406167 -13.13090324 2.243347168 0.9480862617 
3.789941311 -13.16287613 2.339032888 0.9459329247 
4.465961933 -13.26130295 2.389490128 0.9447994232 
6.530439377 -13.23617172 2.520360708 0.9418656826 
9.845092773 -13.32483864 2.829074144 0.9349813461 
10.88095188 -13.4328804 2.951949358 0.9322552681 
11.86072731 -13.37874508 3.053095102 0.9300171733 
24.58505249 -14.53650856 4.877147198 0.890566051 
27.01261711 -14.3903265 5.226441383 0.8832045197 
34.46056747 -14.58953094 6.390209198 0.8591140509 
113.7933044 31.12469101 20.14532852 0.6195739508 
81.53843689 30.31813431 14.85503006 0.7025721669 
70.44554138 37.5281868 13.62990665 0.7233268023 
28.88307953 20.74986267 6.072946072 0.8656153679 
40.30954361 104.130928 19.06740379 0.6356495023 
30.89499474 107.3014832 19.06740379 0.6356495023 
24.01518059 99.93260193 17.55052948 0.65898031 
14.79822731 100.0490799 17.27041435 0.6633808017 
5.201835632 89.82199097 15.36388683 0.6941276789 
-47.43907547 102.9933929 19.36331749 0.6311953664 
-49.55272675 96.08771515 18.46151733 0.6448678374 
-57.04175186 39.45978928 11.84408569 0.7546835542 
-57.12125397 20.08968163 10.33982372 0.782148838 
-26.55680656 -0.4726269543 4.535615921 0.8978233337 
-60.23299026 -20.58324623 10.8694849 0.7723659277 
-55.90766907 -21.92852974 10.25501347 0.783726871 
-55.13489532 -30.64413452 10.77144051 0.7741675377 
-59.82708359 -36.82710266 11.99657917 0.7519536614 
-55.70189667 -37.80462265 11.49558353 0.7609595656 
-8.18618679 -13.98663521 2.767396212 0.9363527894 
-5.892773151 -16.06661606 2.922280312 0.9329127669 
-3.506596565 -13.0480566 2.30717063 0.9466494322 
-2.876865149 -12.98455524 2.271036863 0.9474626184 
-2.293124914 -13.08052254 2.267718077 0.9475373626 
-1.699433565 -13.09640121 2.255115747 0.9478211403 
-0.525996089 -13.12777805 2.243524313 0.9480823278 
0.05846679583 -13.14341259 2.244416952 0.9480621815 
2.421704054 -13.12626934 2.279297829 0.9472767115 
3.053603411 -13.22352028 2.317499161 0.9464171529 
3.684892416 -13.24041462 2.346886635 0.9457564354 
5.00357914 -13.2756834 2.422651768 0.9440551996 
5.698242188 -13.29425716 2.469902039 0.9429957867 
6.422001839 -13.31362247 2.524128437 0.941781342 
7.977143288 -13.35520935 2.656414032 0.9388254881 
8.820824623 -13.37778282 2.736308575 0.9370447397 
11.7164011 -13.45522881 3.046642303 0.9301598668 
17.97807503 -18.88037491 4.451880455 0.8996115923 
18.02001381 -17.31233788 4.267130852 0.9035698175 
18.0586853 -15.86672306 4.104932785 0.9070592523 
17.61463165 -14.13895988 3.857049465 0.9124181271 
18.5202713 -13.55683517 3.919307709 0.9110692143 
26.41348839 -14.37430191 5.135064125 0.885124445 
30.09885979 -14.68398857 5.718772411 0.8729317188 
74.05337524 30.57780266 13.68111897 0.7224470973 
68.88500214 32.10086441 12.97747135 0.734628737 
69.40110779 53.70482635 14.98500061 0.7004053593 
39.98805618 88.89157867 16.64439201 0.6733224392 
31.84841728 107.0223618 19.06740379 0.6356495023 
27.05569839 108.3332825 19.06740379 0.6356495023 
12.39638138 110.9704437 19.06740379 0.6356495023 
-46.79321671 104.016777 19.47667503 0.6294973493 
-6.045624733 9.7241745 1.955274105 0.9545987844 
-56.80043411 40.04468155 11.86748505 0.7542639971 
-49.94620514 23.27523804 9.40953064 0.7996323705 
-56.95772934 20.60342216 10.34299755 0.7820898294 
-61.4654808 -17.4018116 10.90851021 0.7716500163 
-60.96856689 -20.23065948 10.96930599 0.7705358863 
-54.95304108 -23.84413528 10.22917175 0.7842081785 
-54.30911636 -26.49518967 10.31871033 0.7825413346 
-55.11753464 -29.99515152 10.71543694 0.7751985192 
-56.40055847 -45.27178192 12.34994984 0.745665729 
-8.271918297 -13.84898376 2.754613638 0.9366372228 
-7.876157284 -14.62744141 2.836889029 0.9348077178 
-7.062011719 -14.64075661 2.77573061 0.9361673594 
-2.412680626 -13.07731915 2.270795345 0.947468102 
-1.817729473 -13.09323692 2.257269144 0.9477726817 
0.5271191001 -13.15595627 2.248338223 0.9479738474 
1.711376905 -13.18762684 2.27082777 0.9474673271 
2.929194212 -13.22019005 2.312257528 0.9465350509 
4.867807388 -13.27205086 2.413990021 0.9442495108 
6.274609089 -13.30967712 2.512686968 0.9420374632 
7.025160789 -13.32975101 2.572987556 0.9406885505 
9.534369469 -13.39687443 2.807882071 0.935452342 
10.45574188 -13.38816357 2.900771379 0.9333897829 
11.50243664 -13.44950676 3.022031069 0.9307039976 
18.42028618 -13.73700142 3.923858643 0.9109707475 
76.37547302 30.74338722 14.0589838 0.7159890532 
29.95189857 20.71979713 6.219175339 0.8626128435 
40.53474045 99.42073822 18.33410835 0.6468232274 
32.79933167 106.7347717 19.06740379 0.6356495023 
14.87114239 89.50335693 15.49330044 0.6919961572 
8.439184189 111.3413239 19.06740379 0.6356495023 
-46.64011002 106.1947861 19.80581665 0.6245914698 
-47.51661682 96.30867004 18.33859062 0.6467542648 
-53.32378387 96.95519257 18.89505577 0.6382581592 
-5.961513519 9.781913757 1.956141829 0.9545791149 
-56.33733749 40.47333527 11.84549999 0.7546581626 
-61.52991486 -19.81083488 10.43088341 0.7695826292 
-54.93737793 -23.25862694 9.626873016 0.7852767706 
-54.37417221 -28.96646881 9.941623688 0.7790952921 
-61.4487648 -36.33333588 11.51950645 0.7488319278 
-55.6272583 -43.84292221 11.42933941 0.7505292892 
-7.186762333 -14.56653309 2.621087074 0.9363065958 
-6.930268288 -15.77932549 2.781035185 0.9325538874 
-6.216049671 -16.05797768 2.77860713 0.9326106906 
-4.359438419 -12.9448967 2.204161406 0.9461598396 
-3.138007641 -13.0579195 2.167115927 0.9470402598 
-0.1743115187 -13.0568409 2.107139587 0.9484675527 
0.4073193371 -13.072402 2.110486269 0.9483878613 
1.581982374 -13.10381794 2.129886389 0.9479259849 
2.193242073 -13.20051193 2.159337044 0.9472252727 
4.732954025 -13.26844215 2.27323699 0.9445202351 
7.652934551 -13.34653282 2.482638359 0.9395671487 
11.24452114 -13.38724613 2.821201801 0.9316138029 
17.96025276 -19.54676247 4.28353405 0.8980277777 
19.76150131 -13.67037773 3.877515793 0.9072296619 
21.86105728 -13.7265377 4.165426731 0.9006949067 
24.15407944 -13.70753098 4.481595993 0.8935728669 
69.26382446 30.78894997 12.2314539 0.7355646491 
68.88396454 34.36763 12.42230606 0.7320482135 
70.05848694 43.12510681 13.27534008 0.7165355086 
30.50591469 20.70401573 5.949344158 0.8612412214 
69.34793091 51.71643448 13.95967579 0.7043284774 
27.95091248 88.15483856 14.92326736 0.6874921322 
23.72156143 88.26793671 14.74899101 0.6905070543 
15.69513607 89.52898407 14.66740417 0.6919230223 
11.69698238 90.13853455 14.66740417 0.6919230223 
7.675693035 90.56963348 14.66740417 0.6919230819 
-46.88503265 97.19968414 17.41424561 0.64580971 
-51.77052307 96.14704895 17.62120438 0.642462492 
-57.52054214 96.30083466 18.10086823 0.6347712278 
-49.9160881 21.65861702 8.780410767 0.8021455407 
-68.81462097 19.48218155 11.54089546 0.7484298348 
-26.38751411 3.783051729 4.301634312 0.8976198435 
-64.28890228 -16.97089386 10.72952461 0.7638337016 
-55.10908508 -22.75509262 9.62109375 0.7853907943 
-58.66682053 -37.56890106 11.24168682 0.7540738583 
-55.6426506 -43.05781555 11.35331059 0.7519632578 
-7.609872818 -13.54949665 2.507690907 0.9389762878 
-7.342612267 -14.55451584 2.630579233 0.936083436 
-6.379218578 -16.05360794 2.787566423 0.9324009418 
-2.042299747 -13.00687981 2.124605179 0.9480516911 
-1.454721689 -13.02258778 2.114495993 0.9482923746 
-0.2904833853 -13.05373478 2.106972218 0.9484715462 
0.2908300757 -13.06927681 2.109481573 0.9484118223 
2.681869984 -13.21358395 2.1757195 0.9468357563 
4.599028111 -13.26485348 2.265521765 0.9447032213 
5.278271198 -13.28303146 2.306479692 0.9437321424 
6.720624924 -13.3216114 2.407743931 0.9413356185 
8.308598518 -13.36408615 2.539332151 0.9382305741 
10.09512138 -13.41186523 2.708813429 0.9342464805 
17.9952774 -18.23713303 4.134361267 0.9013976455 
18.29496384 -14.15715313 3.732900381 0.9105298519 
23.78253365 -13.77793407 4.435235023 0.8946136832 
27.68941879 -14.43594742 5.038964272 0.8811545968 
31.59621429 -14.72403812 5.625043392 0.8682827353 
67.10600281 -17.71458054 11.199687 0.7548695207 
79.6612854 30.42998695 13.76070976 0.7078561187 
69.26053619 46.11149216 13.42681503 0.7138155103 
69.32189941 50.74329376 13.86298084 0.7060406208 
24.55965805 88.24552917 14.7811842 0.6899491549 
20.45116234 88.5636673 14.66740417 0.6919230819 
16.49127007 89.38574219 14.66740417 0.6919230819 
-50.656147 96.11722565 17.53241348 0.6438965201 
-6.071899414 10.37417412 1.93971324 0.95246315 
-62.38657761 96.47351074 18.5391922 0.6278234124 
-66.4599762 -16.91284561 11.06630802 0.7574017644 
-54.30139923 -27.69839287 9.836602211 0.7811523676 
-60.13726044 -34.12815857 11.15799809 0.7556601763 
-18.09932518 -13.74999523 3.667970419 0.9120178223 
-55.584095 -46.26719284 11.67017841 0.7460042834 
-7.495400429 -14.53423309 2.63886714 0.9358887076 
-6.543442249 -16.04922295 2.796804667 0.9321846366 
-5.732616901 -16.07089233 2.753371477 0.9332017899 
-4.00556612 -13.03471661 2.200455189 0.9462478161 
-3.383237123 -13.0513525 2.175678015 0.9468367696 
-2.773564339 -13.06767082 2.155672073 0.9473124146 
-2.16054678 -13.00370598 2.12714529 0.9479912519 
-0.9879638553 -13.03506851 2.10947299 0.9484120011 
-0.406640619 -13.05062962 2.106971264 0.9484715462 
1.951518536 -13.19404221 2.152255297 0.947393775 
2.55902338 -13.21029758 2.17134285 0.9469397664 
3.789892435 -13.16287041 2.210350752 0.946012795 
4.465981483 -13.26130295 2.258035183 0.9448807836 
5.109023094 -13.19814873 2.28375864 0.9442707896 
5.840497971 -13.29806137 2.343723059 0.9428500533 
7.335741997 -13.3380661 2.456379175 0.9401867986 
8.141884804 -13.35961437 2.524617195 0.938577354 
8.995815277 -13.38247013 2.602050066 0.9367542267 
11.86072731 -13.37874508 2.885136127 0.9301195145 
17.98675346 -18.55592155 4.17017746 0.9005873799 
18.06607437 -15.59047318 3.850726128 0.9078400731 
18.39982605 -14.50191402 3.780481577 0.9094427228 
20.98488808 -13.70310307 4.044314384 0.9034379721 
81.5378952 30.31814957 14.0377121 0.7029499412 
68.94713593 36.72984695 12.60609722 0.7286777496 
69.42826843 54.72030258 14.26493263 0.6989507079 
39.69429016 90.37870789 15.92883492 0.6703512073 
29.67218208 88.10878754 15.00251293 0.6861256361 
25.40148926 88.2230072 14.8146925 0.6893689036 
5.201835632 89.82199097 14.51865482 0.6945121884 
-46.7147789 101.4211273 18.01872063 0.6360818744 
-61.12763214 96.39730072 18.4192791 0.6297165751 
-56.81304169 19.98103905 9.718252182 0.7834771276 
-60.66988754 -17.76096153 10.20105648 0.7740367651 
-54.85442734 -24.38383293 9.686872482 0.7840946913 
-59.1258812 -36.39546204 11.20372677 0.7547929287 
-55.52346039 -41.40681076 11.17682362 0.755302906 
-7.45057106 -14.13699722 2.578683376 0.9373040795 
-6.708769321 -16.04481316 2.806328058 0.9319617748 
-5.892783165 -16.06661034 2.761512995 0.933011055 
-1.689096689 -13.01633263 2.118025303 0.9482083321 
-1.104457974 -13.03195763 2.110475779 0.9483880997 
1.227206945 -13.09432602 2.122260332 0.9481075406 
2.421738148 -13.12628365 2.153903723 0.9473544955 
3.684926748 -13.24040985 2.21777606 0.9458364248 
4.333827972 -13.25775814 2.250777006 0.945053041 
5.003647327 -13.27567387 2.289375305 0.9441375732 
7.179643631 -13.33388138 2.443746805 0.9404851198 
8.820824623 -13.37778282 2.58577323 0.9371371865 
9.718740463 -13.40180588 2.671412945 0.9351242185 
10.68016052 -13.42751408 2.768591166 0.9328452945 
18.0586853 -15.86666489 3.879096508 0.9071936607 
18.09458923 -14.52427197 3.744177818 0.9102721214 
18.52036285 -13.5568409 3.703701735 0.9111976624 
20.5655117 -13.69188404 3.986820698 0.9047431946 
26.41348648 -14.37430191 4.852561951 0.8852883577 
34.08773041 -14.79067802 5.996146202 0.860229671 
74.054245 30.57777786 12.92859459 0.7228011489 
68.82255554 32.07172394 12.25240612 0.7351777554 
68.92586517 35.93465424 12.54323578 0.7298288345 
70.6891861 40.95230484 13.18291759 0.718200326 
32.46627808 20.79063416 6.221158504 0.8553832769 
69.40110016 53.70457077 14.16059399 0.700784266 
39.96710968 100.57901 17.46465492 0.6449928284 
30.53990746 88.08558655 15.04424763 0.6854069829 
26.24726105 88.20040894 14.84953308 0.6887660027 
22.05600548 88.31247711 14.68850422 0.6915565729 
14.09910107 89.79415131 14.66740417 0.6919230819 
-48.4708519 96.07884216 17.3652668 0.6466044188 
-5.998432636 10.68029785 1.976671219 0.9515797496 
-6.107182503 9.823139191 1.866512537 0.9542153478 
-56.33018875 39.71315765 11.12176514 0.7563478351 
-26.46196175 3.314199209 4.303471565 0.8975784779 
-54.95304108 -23.84414482 9.666420937 0.7844974399 
-55.11755371 -29.995327 10.12595272 0.7754976749 
-60.27110672 -36.36481857 11.35896111 0.7518566251 
-56.74165344 -37.77680969 10.99990559 0.7586656213 
-6.87528801 -16.04034615 2.816142559 0.9317321777 
-4.258676529 -13.02794933 2.211758852 0.9459792972 
-3.016093731 -13.0611763 2.163115978 0.9471353889 
-0.6390185356 -13.04441357 2.107470512 0.9484596848 
0.523945272 -13.07552242 2.11165905 0.9483599067 
2.929140568 -13.22019005 2.185047388 0.946614027 
3.557363272 -13.23699665 2.211813688 0.9459780455 
5.557148457 -13.29048347 2.324584723 0.9433032274 
6.274638653 -13.30966759 2.374456644 0.942122817 
7.025121689 -13.32975101 2.431434155 0.9407758713 
7.772275448 -13.27938461 2.482914209 0.9395605922 
8.648022652 -13.37315845 2.569901705 0.9375107288 
9.534403801 -13.39686966 2.653411865 0.9355469942 
11.43216324 -13.36728001 2.838322639 0.9312134385 
17.96924782 -19.21051216 4.244729042 0.8989031911 
18.01190948 -17.61551285 4.065490723 0.9029577971 
18.05118561 -16.14698601 3.90819931 0.9065309763 
18.08761215 -14.78525829 3.7698102 0.9096863866 
20.03470612 -13.59734058 3.907221556 0.9065532088 
22.31920052 -13.73879337 4.229254723 0.8992525339 
26.23367691 -14.58061028 4.84318161 0.8854968548 
33.05529404 -14.69360828 5.837305546 0.8636673689 
68.87230682 31.35195541 12.21110439 0.735940516 
70.47892761 39.99705124 13.07678413 0.7201163769 
32.72851181 20.55015564 6.236114502 0.8550621271 
22.88706017 88.29025269 14.7181015 0.6910428405 
14.87094688 89.50335693 14.64094448 0.6923828721 
10.89426231 90.23905945 14.66740417 0.6919230819 
6.869277 90.63436127 14.66740417 0.6919230819 
-46.59122467 106.0822449 18.69650841 0.6253483891 
-6.015287876 9.870184898 1.865205169 0.9542466998 
-50.16443634 21.23791504 8.790498734 0.8019423485 
-26.41823578 3.54777813 4.301322937 0.8976268172 
-61.66028595 -16.86544418 10.31546402 0.7718163133 
-54.93737793 -23.2586174 9.626873016 0.7852767706 
-54.37414551 -28.96640968 9.941625595 0.7790954709 
-55.55859756 -39.9141922 11.03913307 0.7579187751 
-7.186762333 -14.56653309 2.621087074 0.9363065958 
-6.930263519 -15.77932549 2.781035185 0.9325538874 
-6.216064453 -16.05797386 2.778607607 0.932610631 
-3.754916906 -13.04141617 2.189954996 0.9464973807 
-3.137997866 -13.05790997 2.167115927 0.9470403194 
-2.532626867 -13.07411575 2.148957014 0.9474721551 
-1.924311519 -13.01002407 2.122239113 0.948108077 
-1.337812424 -13.02571297 2.112986565 0.9483283162 
-0.1743212789 -13.0568409 2.107139587 0.9484675527 
0.4073144495 -13.072402 2.110485554 0.9483878613 
0.991987288 -13.08803654 2.118043661 0.9482079148 
1.582001925 -13.10381794 2.129886866 0.9479259849 
2.805243969 -13.21688461 2.1802876 0.9467271566 
4.732954025 -13.26844215 2.273236752 0.9445202351 
6.128642559 -13.30577087 2.363933563 0.942371726 
6.872148514 -13.32565403 2.419436455 0.941059351 
7.652944088 -13.34654236 2.482639551 0.9395670891 
8.477309227 -13.36857891 2.554425478 0.9378751516 
10.28732395 -13.41701126 2.72823596 0.9337909818 
11.24450684 -13.38725567 2.821201086 0.9316138029 
17.96025276 -19.54679108 4.283536911 0.8980277181 
18.04357338 -16.4315567 3.9380548 0.9058516622 
18.41355705 -13.98869133 3.73154664 0.9105608463 
21.86107445 -13.72654057 4.165426731 0.9006948471 
24.15407944 -13.70753098 4.481595993 0.8935728669 
69.26371002 30.7890377 12.2314415 0.7355648875 
69.64396667 56.92871857 14.51527596 0.6945729852 
27.95090294 88.15483856 14.92326546 0.6874921918 
23.72153282 88.26794434 14.74899006 0.6905070543 
11.69706535 90.13852692 14.66740417 0.6919230223 
7.675805569 90.56961823 14.66740417 0.6919230819 
-46.8850441 97.19962311 17.41423798 0.6458098888 
-51.77052307 96.14704895 17.62120438 0.642462492 
-57.52054214 96.30083466 18.10086823 0.6347712278 
-49.91609573 21.65861702 8.780407906 0.8021454811 
-68.81462097 19.48218155 11.54089546 0.7484298348 
-26.38751411 3.783081055 4.301633358 0.8976198435 
-55.10899734 -22.75509262 9.621082306 0.7853910327 
-54.23657608 -25.27458382 9.65568161 0.7847089767 
-54.31798172 -28.3188324 9.88487339 0.7802062035 
-58.66680908 -37.56886292 11.24168587 0.7540739179 
-55.64263153 -43.05772018 11.35330296 0.7519634962 
-9.921820641 -15.95891571 3.032377958 0.9266870618 
-7.342612267 -14.55452156 2.63057971 0.936083436 
-6.379218578 -16.05360794 2.787566423 0.9324009418 
-3.879956007 -13.03806591 2.195106268 0.9463749528 
-2.042309523 -13.00687027 2.124606133 0.9480517507 
0.8747118711 -13.08490658 2.116191864 0.9482519627 
1.463461876 -13.10064411 2.127169847 0.9479906559 
3.304238319 -13.23021984 2.200506449 0.9462466836 
7.493481159 -13.3422699 2.469340086 0.9398809671 
9.116909027 -13.30536079 2.602731943 0.9367383122 
10.09508801 -13.41187 2.708810329 0.9342465401 
18.03583908 -16.720541 3.96868825 0.9051551819 
18.07335854 -15.31820774 3.823063374 0.9084708691 
21.29941177 -13.63963604 4.081371784 0.902597785 
23.78256226 -13.77793694 4.435240269 0.894613564 
27.68941879 -14.43594742 5.038964272 0.8811545968 
31.59621429 -14.72403812 5.625043392 0.8682827353 
67.10600281 -17.71465874 11.19968987 0.7548694611 
70.5508194 30.61199379 12.41012096 0.7322722673 
70.58080292 42.58506393 13.30196095 0.7160566449 
69.26052856 46.11126709 13.42679501 0.7138158679 
69.32191467 50.74353409 13.86300373 0.7060402036 
41.67369461 110.5684357 19.06740379 0.6195517182 
24.55978966 88.24552917 14.78118706 0.6899490356 
20.45133209 88.56364441 14.66740417 0.6919230223 
12.498559 90.03087616 14.66740417 0.6919230819 
8.481259346 90.49774933 14.66740417 0.6919230819 
4.916879654 100.3733749 16.21644211 0.665527761 
-50.65610886 96.11722565 17.53240395 0.6438965797 
-62.38693619 96.47357178 18.53923035 0.6278228164 
-53.09720993 39.59742737 10.68842793 0.7646223307 
-50.22409439 22.32554054 8.869193077 0.8003593087 
-26.39724541 4.024409294 4.308903217 0.8974564075 
-60.06908417 -21.12619591 10.27522087 0.7725966573 
-18.09930611 -13.74999523 3.667880774 0.9120178819 
-10.11659145 -15.95371532 3.048382521 0.9263148308 
-7.495414734 -14.53421879 2.638865948 0.9358887076 
-6.543486118 -16.04922295 2.796807289 0.932184577 
-4.005537033 -13.03470707 2.200453997 0.9462478757 
-2.160537004 -13.00372028 2.127144575 0.9479912519 
-0.9879491925 -13.03507805 2.10947299 0.9484120011 
-0.406640619 -13.05062962 2.106971264 0.9484715462 
0.174433589 -13.06617641 2.108645439 0.9484316707 
1.345185518 -13.09748459 2.124627829 0.9480511546 
1.951518536 -13.19404221 2.152255297 0.947393775 
2.559008837 -13.21030235 2.171341896 0.9469397664 
3.178588867 -13.22686958 2.19515419 0.9463738203 
3.78988266 -13.16287613 2.210348606 0.946012795 
4.465961933 -13.26130295 2.258033752 0.9448808432 
5.108989239 -13.19814396 2.283756495 0.9442708492 
5.840527058 -13.29806614 2.343725443 0.9428499937 
7.335785866 -13.3380518 2.456383228 0.9401867986 
9.905649185 -13.40680122 2.689879179 0.9346907139 
10.88104916 -13.43288517 2.789559841 0.9323542714 
11.86072731 -13.37874508 2.885136127 0.9301195145 
17.98675346 -18.55592155 4.17017746 0.9005873799 
18.06607437 -15.59047318 3.850726128 0.9078400731 
18.39982605 -14.50194263 3.780483246 0.9094426632 
23.27910042 -13.76447201 4.3640275 0.896214664 
27.42983818 -14.6125927 5.015197754 0.8816806078 
34.46102905 -14.58954525 6.038725853 0.8593104482 
113.7933197 31.12472153 19.03704834 0.6200239658 
72.20159912 30.56784439 12.65215302 0.7278355956 
68.94714355 36.72994995 12.6061058 0.7286775708 
69.23693085 45.21172333 13.34370613 0.7153065801 
69.42826843 54.72030258 14.26493263 0.6989507079 
29.67206383 88.10881042 15.00250721 0.6861256957 
5.201835632 89.82199097 14.51865482 0.6945121884 
-6.121508598 10.67574215 1.985835075 0.9513608217 
-57.01020813 39.43795395 11.18629837 0.755123198 
-50.08424377 22.79915428 8.879965782 0.8001428246 
-56.81304169 19.98103905 9.718252182 0.7834771276 
-68.12493134 -16.69256401 11.31835938 0.7526234984 
-60.66989517 -17.76112747 10.20106697 0.7740366459 
-55.90766907 -21.92852974 9.690839767 0.7840166688 
-55.13489532 -30.64382172 10.17883492 0.7744686604 
-59.1258812 -36.39546204 11.20372677 0.7547929287 
-55.70238495 -37.80461502 10.86322594 0.7612737417 
-55.52346039 -41.40681076 11.17682362 0.755302906 
-8.146137238 -13.91821766 2.602357149 0.9367470145 
-7.450507641 -14.13694763 2.578671217 0.937304318 
-6.708769321 -16.04481316 2.806328058 0.9319617748 
-5.892783165 -16.06661034 2.761512995 0.933011055 
-2.279106379 -13.00053692 2.129860401 0.9479266405 
-1.689096689 -13.01633263 2.118025303 0.9482083321 
-1.104457974 -13.03195763 2.110475779 0.9483880997 
0.05811034888 -13.06305599 2.10797596 0.9484476447 
0.6406689286 -13.07863712 2.113000393 0.9483280182 
1.227226496 -13.09432602 2.122261047 0.9481075406 
2.421767473 -13.12627411 2.153902769 0.9473544955 
3.053603411 -13.22352028 2.19000411 0.9464961886 
4.333827972 -13.25775814 2.250777006 0.945053041 
7.977065086 -13.35521984 2.510266781 0.9389155507 
8.820824623 -13.37778282 2.58577323 0.9371371865 
9.718740463 -13.40180588 2.671412945 0.9351242185 
10.68016052 -13.42751408 2.768591166 0.9328452945 
11.64467239 -13.37296867 2.86142087 0.93067348 
17.97807503 -18.88037491 4.206964016 0.8997559547 
18.09459496 -14.52421379 3.744171143 0.9102722406 
20.56562614 -13.69188404 3.986835957 0.904742837 
26.41348648 -14.37430191 4.852561951 0.8852883577 
34.08773041 -14.79067802 5.996146202 0.860229671 
68.82255554 32.07172394 12.25240612 0.7351777554 
32.46627808 20.79063416 6.221158504 0.8553832769 
29.4182148 20.73994255 5.808229446 0.8642969131 
39.98851013 88.89157867 15.72889614 0.6737260222 
30.53990746 88.08558655 15.04424763 0.6854069829 
26.24726105 88.20040894 14.84953308 0.6887660027 
22.05600548 88.31247711 14.68850422 0.6915565729 
14.09928703 89.79412079 14.66740417 0.6919230819 
6.062241077 90.69190979 14.66740417 0.6919230819 
-48.4708519 96.07884216 17.3652668 0.6466044188 
-5.998432636 10.68029785 1.976671219 0.9515797496 
-6.107158184 9.823139191 1.866511703 0.9542154074 
-61.4654808 -17.40153694 10.30836487 0.7719537616 
-60.27136993 -36.36483002 11.35899639 0.7518559098 
-55.50693893 -44.55485916 11.48565388 0.7494686842 
-7.032099247 -14.57858849 2.611891508 0.9365227818 
-6.87528801 -16.04034615 2.816142559 0.9317321777 
-4.258710861 -13.02794361 2.211760283 0.9459792972 
-3.630507708 -13.04474545 2.185002804 0.9466150403 
-3.016059399 -13.0611763 2.163115025 0.9471354485 
-2.397929668 -12.99735832 2.132750034 0.9478578568 
-1.22104001 -13.0288372 2.111646414 0.9483602643 
-0.6389940977 -13.0444088 2.107470512 0.9484596848 
0.523945272 -13.07552242 2.11165905 0.9483599067 
1.10947752 -13.09118176 2.120065689 0.9481597543 
1.700854421 -13.10699654 2.132779121 0.9478571415 
2.314726591 -13.20376396 2.163152218 0.9471345544 
4.86780262 -13.27204514 2.281185627 0.9443317056 
6.274609089 -13.30967712 2.374454021 0.942122817 
7.025087833 -13.32974625 2.43143177 0.9407759309 
7.772280216 -13.27932549 2.482905388 0.939560771 
8.64805603 -13.37315845 2.569905281 0.9375106692 
10.45574665 -13.38816357 2.741187572 0.9334873557 
18.05118561 -16.14698601 3.90819931 0.9065309763 
18.08761215 -14.78525829 3.7698102 0.9096863866 
20.03470612 -13.59734058 3.907221556 0.9065532088 
22.31920052 -13.73879337 4.229254723 0.8992525339 
33.05528641 -14.69369602 5.837310791 0.8636672497 
76.44004059 30.76936913 13.296772 0.7161500454 
68.87236023 31.35182571 12.21110249 0.7359405756 
68.9048233 35.14757156 12.4820013 0.730951786 
29.94688416 20.71632195 5.876049519 0.862827599 
14.87075138 89.50335693 14.64094448 0.6923829317 
-47.55047226 96.37735748 17.34206772 0.6469812393 
-6.015302658 9.870170593 1.865204215 0.9542467594 
-50.1644783 21.23779678 8.790494919 0.8019423485 
-26.41823578 3.54777813 4.301322937 0.8976268172 
-61.52991486 -19.81099129 10.43090153 0.7695824504 
-54.93737793 -23.25875473 9.626882553 0.7852765918 
-54.37419128 -28.96655655 9.941625595 0.7790951133 
-55.62720108 -43.8429451 11.42933083 0.7505293489 
-8.316420555 -13.64596176 2.578729868 0.937302947 
-7.670458794 -13.94670868 2.568468571 0.9375444651 
-6.216030121 -16.05797768 2.778605938 0.9326106906 
-4.359414101 -12.9448967 2.204159975 0.9461598396 
-3.754916906 -13.04141617 2.189954996 0.9464973807 
-3.137997866 -13.05790997 2.167115927 0.9470403194 
-2.532626867 -13.07411575 2.148957014 0.9474721551 
-1.924311519 -13.01002407 2.122239113 0.948108077 
-1.337812424 -13.02571297 2.112986565 0.9483283162 
-0.7552587986 -13.04130363 2.107970953 0.9484477639 
0.4073144495 -13.072402 2.110485554 0.9483878613 
1.581972599 -13.10381317 2.129885674 0.9479260445 
2.19322753 -13.20050716 2.159336329 0.9472253323 
2.80521965 -13.21687508 2.180286646 0.9467271566 
3.430512667 -13.23360825 2.206059933 0.9461146593 
4.071982384 -13.25076675 2.236929178 0.9453816414 
4.732983112 -13.26843739 2.273237944 0.9445201755 
5.417177677 -13.2867384 2.315406322 0.9435206652 
6.128676414 -13.30576611 2.363935709 0.9423716664 
7.652944088 -13.34654236 2.482639551 0.9395670891 
8.477309227 -13.36857891 2.554425478 0.9378751516 
9.352534294 -13.39200211 2.635859251 0.9359593987 
18.04356956 -16.4316349 3.938062668 0.9058514833 
18.08053207 -15.04992676 3.796107054 0.909085989 
18.41355133 -13.9887495 3.731552124 0.9105607271 
24.15420532 -13.70753384 4.481614113 0.8935724497 
28.66513443 -14.62159634 5.192634106 0.8777612448 
69.26371002 30.7890377 12.2314415 0.7355648875 
68.88396454 34.36769104 12.42231274 0.7320480943 
69.64396667 56.92871857 14.51527596 0.6945729852 
23.72153282 88.26794434 14.74899006 0.6905070543 
19.66221237 88.74216461 14.66740417 0.6919230819 
11.69706535 90.13852692 14.66740417 0.6919230223 
7.675805569 90.56961823 14.66740417 0.6919230819 
-46.8850441 97.19962311 17.41423798 0.6458098888 
-49.91609573 21.65861702 8.780407906 0.8021454811 
-64.28858948 -16.9709034 10.72948456 0.7638345957 
-58.51810074 -21.1679039 10.04174805 0.7771390676 
-60.15657425 -34.85048294 11.21866703 0.7545096874 
-58.66680908 -37.56886292 11.24168587 0.7540739179 
-55.64263153 -43.05772018 11.35330296 0.7519634962 
-9.921820641 -15.95891571 3.032377958 0.9266870618 
-7.054624081 -15.68192387 2.774824142 0.9326993227 
-4.486918926 -12.94148922 2.210292816 0.9460141659 
-2.652929544 -13.07088852 2.152224541 0.9473944902 
-0.8715331554 -13.03819275 2.108637571 0.9484318495 
-0.2904540896 -13.05373478 2.106971741 0.9484715462 
0.8747118711 -13.08490658 2.116191864 0.9482519627 
1.463461876 -13.10064411 2.127169847 0.9479906559 
2.072206974 -13.19727993 2.155704975 0.9473116398 
2.681884766 -13.21357918 2.1757195 0.9468357563 
3.304238319 -13.23021984 2.200506449 0.9462466836 
5.278271198 -13.28303146 2.306479692 0.9437321424 
5.983950138 -13.30189896 2.353691816 0.9426140785 
6.720620155 -13.32160091 2.407742977 0.9413356781 
8.308584213 -13.36409187 2.539329529 0.9382306337 
17.99528313 -18.23704529 4.134353161 0.9013978839 
18.07335854 -15.31820774 3.823063374 0.9084708691 
21.29940605 -13.63977242 4.081384182 0.902597487 
23.78256226 -13.77793694 4.435240269 0.894613564 
27.68942261 -14.43579578 5.038953781 0.8811548352 
67.10600281 -17.71465874 11.19968987 0.7548694611 
113.822731 32.22494888 19.08922768 0.6192122698 
79.66031647 30.43001366 13.7605629 0.7078587413 
68.86331177 33.59558105 12.36419296 0.7331171036 
70.58081055 42.58543015 13.30199337 0.7160561085 
69.26052856 46.11126709 13.42679501 0.7138158679 
69.32191467 50.74353409 13.86300373 0.7060402036 
69.45582581 55.75094604 14.37194157 0.6970752478 
41.67324448 110.5685883 19.06740379 0.6195517182 
28.80937958 88.13187408 14.96219921 0.686820507 
24.55937958 88.24552917 14.7811718 0.6899493337 
20.45133209 88.56364441 14.66740417 0.6919230223 
8.481259346 90.49774933 14.66740417 0.6919230819 
4.917309284 100.3733749 16.21643829 0.6655277014 
-46.77375412 99.21624756 17.70023727 0.6411888003 
-50.65659714 96.11724091 17.532444 0.6438959241 
-53.56175232 57.26155472 12.65246201 0.7278302312 
-50.22410583 22.3252964 8.869179726 0.8003596067 
-26.25389671 7.685830116 4.414344311 0.8950831294 
-26.39724541 4.024409294 4.308903217 0.8974564075 
-60.68573761 -18.35349083 10.23075962 0.7734593153 
-60.0688591 -21.12642097 10.27519894 0.7725970745 
-56.44165421 -22.71944809 9.818042755 0.7815164328 
-54.22073746 -24.68243599 9.613398552 0.7855427861 
-58.64690781 -36.8241539 11.17461109 0.7553448677 
-55.33919144 -38.28199768 10.85842228 0.7613655329 
-8.059931755 -14.05631828 2.6146667 0.9364575744 
-7.495361328 -14.53427696 2.638870239 0.935888648 
-5.732656002 -16.07088852 2.753373384 0.9332017899 
-2.160595655 -13.00370598 2.127146482 0.9479912519 
-0.9879980087 -13.03508759 2.109473705 0.9484119415 
-0.406640619 -13.05062962 2.106971264 0.9484715462 
1.951518536 -13.19404221 2.152255297 0.947393775 
2.559057474 -13.21029282 2.171344519 0.9469397664 
3.178588867 -13.22686958 2.19515419 0.9463738203 
3.789941311 -13.16287613 2.210353613 0.9460126758 
4.465961933 -13.26130295 2.258033752 0.9448808432 
5.109052658 -13.19815445 2.283760071 0.94427073 
5.84045887 -13.2980566 2.343718052 0.9428501725 
7.335707664 -13.3380518 2.456376791 0.9401869178 
8.141913414 -13.35962391 2.524618387 0.9385772943 
11.86072731 -13.37874508 2.885136127 0.9301195145 
17.98675728 -18.55575562 4.17015934 0.9005878568 
18.02798843 -17.01415443 4.000129223 0.9044408798 
18.06607437 -15.59034634 3.850713968 0.9078403711 
18.39982605 -14.50194263 3.780483246 0.9094426632 
18.88414955 -13.56656742 3.752147198 0.9100899696 
30.37448692 -14.48502445 5.430269241 0.8725394607 
72.20159912 30.56784439 12.65215302 0.7278355956 
68.94714355 36.72994995 12.6061058 0.7286775708 
69.23693085 45.21172333 13.34370613 0.7153065801 
69.33119202 49.80867386 13.77560806 0.7075904608 
25.40177155 88.2230072 14.81470394 0.6893687248 
21.23846626 88.37815857 14.66740417 0.6919230819 
-46.7147789 101.4209671 18.01869583 0.636082232 
-49.55272675 96.08771515 17.44587326 0.6452971101 
-6.121508598 10.67574215 1.985835075 0.9513608217 
-61.12817764 96.39732361 18.4193306 0.6297158003 
-50.08428192 22.79943848 8.87998867 0.8001423478 
-54.28802109 -27.08550262 9.790119171 0.7820644379 
-55.13489532 -30.64411545 10.17886066 0.7744681835 
-59.1258812 -36.39546204 11.20372677 0.7547929287 
-55.52346039 -41.40681076 11.17682362 0.755302906 
-55.52931213 -45.39146042 11.57343578 0.7478186488 
-7.45063448 -14.13705063 2.578695059 0.9373037815 
-6.708857059 -16.0447998 2.806332827 0.9319616556 
-5.892783165 -16.06661034 2.761512995 0.933011055 
-1.104457974 -13.03195763 2.110475779 0.9483880997 
-0.5227685571 -13.04752445 2.107137203 0.9484676123 
0.05811034888 -13.06305599 2.10797596 0.9484476447 
0.6407177448 -13.07864189 2.11300087 0.9483279586 
1.227172852 -13.09432125 2.122259617 0.9481075406 
1.83127439 -13.19083023 2.148988485 0.9474714398 
2.421704054 -13.12626934 2.153903008 0.9473545551 
5.698242188 -13.2942524 2.334022045 0.9430797696 
7.977143288 -13.35520935 2.510274172 0.9389154315 
10.68016052 -13.42751408 2.768591166 0.9328452945 
18.02001381 -17.31233788 4.03237772 0.9037088156 
18.09459496 -14.52421379 3.744171143 0.9102722406 
18.52027512 -13.55683327 3.703690052 0.9111979604 
20.56562614 -13.69188404 3.986835957 0.904742837 
26.41348648 -14.37430191 4.852561951 0.8852883577 
30.09885597 -14.68399334 5.404158115 0.8731117249 
29.4182148 20.73994255 5.808229446 0.8642969131 
69.40110779 53.70480728 14.16061878 0.7007839084 
39.98807526 88.89160156 15.72876167 0.6737264991 
6.062241077 90.69190979 14.66740417 0.6919230819 
-48.4708519 96.07884216 17.3652668 0.6466044188 
-6.107158184 9.823139191 1.866511703 0.9542154074 
-56.59260941 20.47133255 9.711332321 0.7836133242 
-55.11754227 -29.99517059 10.12593746 0.775497973 
-60.27081299 -36.36484909 11.358922 0.7518573403 
-56.74187851 -37.77680969 10.99993515 0.7586650252 
-55.57919312 -40.68392181 11.11473846 0.7564812899 
-8.231596947 -13.78149891 2.590383768 0.9370286465 
-4.258710861 -13.02794361 2.211760283 0.9459792972 
-2.397929668 -12.99735832 2.132750034 0.9478578568 
-1.806606412 -13.01318836 2.120046854 0.9481602311 
-1.22104001 -13.0288372 2.111646414 0.9483602643 
-0.6390478611 -13.04441357 2.107470512 0.9484596848 
0.5238915682 -13.07551765 2.111658335 0.9483599663 
1.700917959 -13.1070013 2.132780552 0.9478570819 
2.929194212 -13.22019005 2.185050488 0.9466139674 
4.86780262 -13.27204514 2.281185627 0.9443317056 
6.274609089 -13.30967712 2.374454021 0.942122817 
7.772275448 -13.27944279 2.482922077 0.9395604134 
8.64805603 -13.37315845 2.569905281 0.9375106692 
9.534369469 -13.39686966 2.653406858 0.9355470538 
10.45574665 -13.38816357 2.741187572 0.9334873557 
11.43212414 -13.36728001 2.838317871 0.9312134981 
17.96924782 -19.21051216 4.244729042 0.8989031911 
18.01189995 -17.61566925 4.065506458 0.9029574394 
20.03489304 -13.59734344 3.907247305 0.9065526724 
70.47893524 39.99722672 13.07679939 0.7201161385 
32.72872162 20.5502224 6.236149311 0.8550613523 
29.94688416 20.71632195 5.876049519 0.862827599 
69.37431335 52.70303726 14.05882263 0.7025772929 
40.5347023 99.42073822 17.32546806 0.6472508907 
31.41259193 88.0622406 15.08742237 0.6846644282 
18.87149811 88.91365814 14.66740417 0.6919230819 
10.89426231 90.23905945 14.66740417 0.6919230819 
6.869668007 90.63433075 14.66740417 0.6919230819 
-47.55047226 96.37735748 17.34206772 0.6469812393 
-5.909409046 10.74469662 1.978775382 0.9515294433 
-50.16439819 21.23802185 8.790498734 0.8019423485 
-57.02544403 -21.20370483 9.247725487 0.7818009853 
-54.93737793 -23.2586174 9.068070412 0.7855485082 
-26.05052185 -12.42307568 4.386915207 0.8897894621 
-56.62308121 -36.97478104 10.27924061 0.7606271505 
-54.90940857 -39.4477272 10.27682495 0.7606758475 
-55.62730026 -43.84292221 10.76591396 0.7508375645 
-8.543749809 -14.01901817 2.495449066 0.9357343912 
-6.92154789 -15.75946712 2.616309643 0.9327289462 
-6.216049671 -16.05797768 2.617319822 0.932703793 
-4.359438419 -12.9448967 2.076218128 0.9462347627 
-3.731967688 -12.96168423 2.050225735 0.9468896389 
-3.118818283 -12.97807598 2.028842688 0.9474287629 
-2.517143488 -12.99417496 2.011843443 0.9478575587 
-1.924311519 -13.01002407 1.999051332 0.9481803775 
-0.7552587986 -13.04130363 1.985610723 0.9485195875 
-0.1743115187 -13.0568409 1.984828353 0.9485393763 
0.9919726253 -13.08803654 1.99509871 0.9482800961 
1.581992149 -13.10381794 2.006253958 0.9479985833 
2.179833889 -13.11980915 2.021560192 0.9476124048 
3.409497023 -13.15268993 2.065300703 0.9465098381 
4.047050476 -13.16975021 2.09420085 0.9457819462 
5.417153358 -13.28673267 2.181003809 0.9435992837 
6.872133732 -13.3256588 2.278996468 0.9411411881 
8.47729969 -13.36859322 2.406150103 0.9379612207 
9.352523804 -13.39201164 2.482856512 0.9360480309 
10.28732395 -13.41701126 2.569871664 0.9338825345 
11.29209423 -13.44387627 2.668684006 0.9314295053 
17.96025276 -19.54676247 4.034891129 0.8981660604 
18.34097099 -16.70243645 3.770610332 0.9045065641 
18.37853813 -15.29794407 3.634689808 0.9077848792 
18.41355133 -13.9887104 3.514946938 0.9106829166 
24.30265808 -13.79184532 4.247424126 0.893099308 
28.71472359 -14.64696789 4.899688721 0.8777272701 
40.87485123 -8.485639572 6.345491886 0.8445903659 
77.56830597 30.42431068 12.66495609 0.7138271928 
69.2638092 30.78896713 11.52145863 0.7358881235 
68.88396454 34.36763763 11.70123863 0.7323750854 
69.41188812 51.76413345 13.16150093 0.7044545412 
72.37621307 59.16217804 14.2090168 0.6850836873 
37.22455978 89.02646637 14.66740417 0.6767756343 
29.16465759 91.9826355 14.66740417 0.6767755747 
24.02274323 89.38863373 14.06925964 0.6876370311 
20.87386703 94.21073914 14.66740417 0.6767756343 
16.66228485 95.04605103 14.66740417 0.6767755747 
8.148715973 96.15084076 14.66740417 0.6767755747 
-47.55270767 98.58390045 16.63701439 0.6422083974 
-52.18903732 96.92425537 16.73253441 0.6405776143 
-55.5221405 40.64192963 10.45880222 0.7570004463 
-76.08834076 29.06521988 12.38059139 0.7192507982 
-63.06724167 -16.6484127 9.914663315 0.768044591 
-60.00089264 -18.73085403 9.554258347 0.7754480243 
-54.77600861 -22.61756325 9.007853508 0.7868087292 
-55.00081253 -25.63074684 9.223369598 0.7823081017 
-54.59236526 -28.46187019 9.35812664 0.7795069218 
-60.15657425 -34.85054016 10.56748009 0.7548139095 
-55.64263916 -43.05779648 10.69429684 0.7522702217 
-7.933808327 -14.12626934 2.46268034 0.9365509152 
-7.30231905 -14.47463322 2.464286327 0.9365109205 
-7.045766354 -15.66224098 2.610476732 0.9328738451 
-2.636694193 -12.99097633 2.014901638 0.9477803707 
-2.042294979 -13.00687027 2.001280069 0.9481241107 
-1.454721689 -13.02259731 1.99175787 0.9483644366 
-0.2904833853 -13.05373478 1.984670162 0.9485433698 
0.2908251882 -13.06928158 1.98703444 0.9484837055 
0.8746874928 -13.08490181 1.993355155 0.9483240843 
2.059521437 -13.11659145 2.018160582 0.9476981759 
2.665478468 -13.13280201 2.036897421 0.9472256303 
5.278271198 -13.28303146 2.17259717 0.9438104033 
5.983959675 -13.30189896 2.217069864 0.9426938295 
7.493505478 -13.34228516 2.326006651 0.9399642348 
8.308603287 -13.36408615 2.39193368 0.938316226 
9.116943359 -13.30536079 2.451653957 0.9368258715 
11.08497524 -13.438344 2.647896051 0.9319450259 
12.08035851 -13.38462639 2.740584135 0.9296485782 
17.99528313 -18.23712349 3.89437747 0.9015316367 
18.03583908 -16.72060013 3.738326311 0.9052841663 
18.40673637 -14.24364185 3.53770256 0.9101314545 
21.29940605 -13.63965988 3.844466448 0.9027301669 
31.11561394 -14.50007248 5.217935562 0.87032336 
67.14942932 -17.72603989 10.55641365 0.7550361753 
113.8855438 32.2421875 17.99107361 0.6194739342 
68.9686203 37.53303528 11.93511581 0.7278299928 
69.07952118 41.67934418 12.26332855 0.7214992046 
69.19691467 46.06912613 12.63582134 0.7143809795 
70.83696747 56.85978699 13.80692673 0.692455411 
38.01531601 88.69169617 14.66740417 0.6767756343 
25.87240219 92.96237183 14.66740417 0.6767755747 
21.71143532 94.02124786 14.66740417 0.6767756343 
-51.06538391 96.89362335 16.64812279 0.6420185566 
-56.62495422 38.43075562 10.40213871 0.7581431866 
-49.92357635 22.19187927 8.304376602 0.8016806245 
-63.21770859 -16.08770943 9.915418625 0.768029213 
-60.06909561 -21.12629318 9.678787231 0.7728818655 
-54.98474884 -25.03010178 9.182952881 0.7831500769 
-54.8434906 -27.97492599 9.35812664 0.7795069218 
-60.13726044 -34.1281395 10.51031971 0.7559633255 
-7.45836401 -14.46241665 2.473407984 0.9362835288 
-7.169492245 -15.56549263 2.60488081 0.9330127239 
-6.543442249 -16.04922295 2.634460926 0.9322783351 
-5.732616901 -16.07089233 2.593548536 0.9332941771 
-3.981074095 -12.95500946 2.060055256 0.9466419816 
-2.756601572 -12.98776817 2.018128872 0.9476990104 
-1.57180655 -13.01946259 1.993339896 0.9483245015 
-0.406640619 -13.05062962 1.984669566 0.9485433698 
0.1744384766 -13.06616688 1.986246467 0.9485036135 
3.789892435 -13.16287041 2.08204937 0.9460879564 
4.438676834 -13.18022442 2.11396122 0.945284605 
5.840497971 -13.29806137 2.207678556 0.9429295063 
8.141884804 -13.35961437 2.378073454 0.938662529 
10.88103008 -13.4328804 2.627634287 0.9324477911 
11.86072731 -13.37874508 2.717665434 0.9302160144 
18.02798843 -17.01415443 3.767936945 0.9045709372 
18.3638382 -15.84743595 3.686991453 0.9065220356 
18.39982605 -14.50191402 3.561038017 0.9095663428 
19.00017548 -13.65001965 3.55607295 0.9096865654 
23.27916908 -13.76447487 4.110720158 0.8963550329 
40.82525635 -9.23622036 6.362307549 0.8442124128 
113.8555603 31.14199066 17.94184494 0.6202862263 
72.20195007 30.56783676 11.91779613 0.7281656265 
68.8428421 32.83003235 11.5931406 0.7344854474 
68.94713593 36.72986221 11.87436485 0.7290078998 
69.11364746 40.86543274 12.2043457 0.7226329446 
69.35913086 49.8285675 12.98124313 0.7078425884 
38.80319595 88.34983826 14.66740417 0.6767756343 
34.83459473 89.98851013 14.66740417 0.6767756343 
30.79711342 91.44900513 14.66740417 0.6767755747 
26.69865608 92.7284317 14.66740417 0.6767756343 
22.5473671 93.82429504 14.66740417 0.6767756343 
14.11900806 95.45697784 14.66740417 0.6767756343 
5.201835632 89.82199097 13.67589855 0.6948747039 
-61.13453293 96.40818024 17.35206795 0.6301007271 
-52.56367493 39.93234634 10.03383064 0.7656123638 
-50.04830551 22.78294373 8.358522415 0.8005259633 
-58.72206497 12.19076633 9.116129875 0.7845444679 
-60.05292511 -20.52184105 9.64636898 0.7735491395 
-54.96882248 -24.43466187 9.143630981 0.7839705348 
-55.04987717 -27.46559906 9.351263046 0.7796493173 
-59.12587357 -36.39547348 10.5533905 0.7550969124 
-8.106581688 -13.85056114 2.43938756 0.9371317625 
-7.615634441 -14.45020008 2.482814789 0.9360491633 
-6.708769321 -16.04480362 2.643431425 0.9320557714 
-5.892783165 -16.06661034 2.601217508 0.9331036806 
-4.106537819 -12.95166016 2.06525135 0.9465110302 
-3.485151291 -12.96828079 2.041132927 0.9471188784 
-2.279096603 -13.00053692 2.006229877 0.947999239 
-1.104457974 -13.03196716 1.987971306 0.9484600425 
-0.5228027105 -13.04752445 1.98482585 0.9485394359 
0.6406982541 -13.07864189 1.990348935 0.9484000206 
1.227202177 -13.09433079 1.999071121 0.948179841 
1.820048809 -13.1101799 2.011871099 0.9478568435 
3.662402153 -13.15946293 2.076270819 0.9462334514 
4.307338715 -13.17671394 2.107167244 0.9454555511 
5.003647327 -13.27567387 2.156486034 0.9442152381 
5.698242188 -13.2942524 2.198540688 0.943158865 
18.02000999 -17.31240654 3.798321486 0.9038396478 
18.35632706 -16.12817764 3.714155197 0.9058668613 
18.52036667 -13.55683517 3.488717079 0.9113189578 
20.439785 -13.60817337 3.732441902 0.9054259658 
25.32517052 -13.78203106 4.382553577 0.8898926973 
40.88404465 -7.731230259 6.32455349 0.8450612426 
113.9307022 30.07543945 17.91079712 0.620799005 
68.82255554 32.07172775 11.54120064 0.7355015874 
68.92586517 35.93465805 11.81514835 0.7301579118 
69.50147247 40.26423264 12.20906258 0.7225422263 
69.14910889 44.28146362 12.48115921 0.7173278332 
69.4382782 48.95461273 12.91401196 0.7091103792 
69.46615601 53.75490952 13.35112667 0.7009077668 
39.58785629 88.00095367 14.66740417 0.6767758727 
23.38152695 93.61991119 14.66740417 0.6767755747 
19.19362259 94.56735992 14.66740417 0.6767756343 
14.25634289 90.79563904 13.96998024 0.6894543171 
10.71256828 95.89902496 14.66740417 0.6767756343 
-46.79262924 104.0167542 17.3367939 0.6303569674 
-48.85144043 96.83328247 16.48571968 0.6447998881 
-55.22103882 25.73340225 9.260305405 0.7815393806 
-56.76885986 20.53513145 9.176116943 0.7832925916 
-26.38733292 4.504951 4.068935871 0.8973526359 
-55.61899948 -21.2460289 9.049946785 0.7859275937 
-54.95304108 -23.84413528 9.105321884 0.7847700119 
-55.03337097 -26.84836388 9.3075037 0.7805579901 
-55.11755371 -29.995327 9.538181305 0.7757799625 
-54.63013077 -39.98899841 10.29076958 0.7603937387 
-8.191830635 -13.71477509 2.428216457 0.9374104738 
-7.675912857 -14.25555134 2.46100831 0.9365925789 
-6.87528801 -16.04034615 2.652675629 0.9318264723 
-6.053905964 -16.06230927 2.609140635 0.9329069257 
-3.608281136 -12.96498489 2.04558754 0.9470065832 
-2.397953987 -12.99735832 2.008953094 0.9479305148 
-1.221069336 -13.02884293 1.98907423 0.9484322071 
-0.6390185356 -13.04441357 1.985139608 0.9485315084 
2.30057621 -13.12303638 2.025132895 0.9475223422 
3.535615206 -13.15607357 2.070689917 0.9463739991 
4.176777363 -13.17321777 2.100579977 0.9456213713 
4.867807388 -13.27205086 2.148772717 0.944409132 
7.025121689 -13.32975101 2.290298939 0.9408581257 
7.772275448 -13.27938461 2.338790178 0.9396444559 
8.648022652 -13.37315845 2.420728922 0.9375973344 
11.50249004 -13.44950676 2.690014601 0.9309008121 
18.01190376 -17.61552238 3.829504251 0.9030897617 
18.42028618 -13.73700142 3.492755651 0.9112210274 
20.0347023 -13.59734058 3.680421591 0.9066805243 
22.3191967 -13.73879337 3.983760834 0.899389267 
29.03132057 -14.4843502 4.931519508 0.876983881 
76.37531281 30.74350548 12.51435375 0.7166944742 
68.87229156 31.35198593 11.5022974 0.7362635732 
69.17125702 39.25495148 12.08914375 0.7248510718 
69.12564087 43.40386963 12.40671253 0.7187507749 
29.94610596 20.71570587 5.534816265 0.8630133271 
40.45025253 87.82054138 14.69673824 0.6762472987 
36.43074799 89.35425568 14.66740417 0.6767755747 
32.36080933 90.72064209 14.64065838 0.6772575974 
28.34493065 92.23855591 14.66740417 0.6767755747 
20.03464317 94.39276886 14.66740417 0.6767756343 
11.56560516 95.79988098 14.66740417 0.6767756343 
7.292587757 96.21955109 14.66740417 0.6767755747 
-5.965307713 10.84627438 1.881538749 0.9511508346 
-68.88361359 18.84124374 10.85498524 0.7490596175 
-26.35952568 4.741991997 4.070993423 0.897303462 
-61.66030502 -16.86545372 9.716694832 0.7721024752 
-54.93737793 -23.2586174 9.068071365 0.7855485082 
-26.05052757 -12.42307568 4.386915207 0.8897894621 
-61.44861603 -36.33332443 10.85082245 0.7491424084 
-56.62298203 -36.97478104 10.27923584 0.760627389 
-55.62722015 -43.84293365 10.76590347 0.7508376837 
-7.61412096 -13.84421349 2.401599407 0.9380748272 
-6.921552658 -15.75946236 2.616309166 0.9327289462 
-6.216064453 -16.05797386 2.617320538 0.932703793 
-4.359447956 -12.9448967 2.076218128 0.9462347627 
-3.731957912 -12.96167946 2.050225019 0.9468896985 
-2.517143488 -12.99416447 2.011842966 0.9478576183 
-1.924306631 -13.01002407 1.999051332 0.9481803775 
-0.1743212789 -13.0568409 1.984828353 0.9485393763 
0.4073144495 -13.072402 1.987980485 0.9484598041 
2.179843664 -13.11980915 2.021560431 0.9476124048 
4.704018593 -13.1873188 2.12819314 0.9449266195 
6.872143269 -13.32565403 2.278997183 0.9411411881 
9.352534294 -13.39200211 2.482857227 0.9360480905 
10.28732395 -13.41701126 2.569871664 0.9338825345 
18.00366211 -17.92375374 3.861519098 0.9023204446 
19.76153564 -13.67038059 3.65244627 0.9073559642 
21.86108398 -13.7265358 3.923640728 0.9008296728 
24.30265808 -13.79184532 4.247424126 0.893099308 
28.71470642 -14.64696789 4.899684906 0.8777272701 
32.39169693 -14.74531746 5.409710407 0.865891993 
77.56803894 30.42431831 12.66491699 0.713827908 
69.26374817 30.78900719 11.52145195 0.7358882427 
68.88396454 34.36771393 11.70124149 0.7323749661 
68.9903183 38.3446312 11.99745846 0.7266232371 
29.164608 91.98265076 14.66740417 0.6767756343 
24.02270508 89.38863373 14.06925774 0.6876370907 
20.87386703 94.21073914 14.66740417 0.6767756343 
12.41787529 95.69315338 14.66740417 0.6767755747 
8.148818016 96.15081787 14.66740417 0.6767755747 
