# .PCD v0.7 - Point Cloud Data file format
VERSION 0.7
FIELDS x y z intensities
SIZE 4 4 4 4
TYPE F F F F
COUNT 1 1 1 1
WIDTH 921
HEIGHT 1
VIEWPOINT 0 0 0 1 0 0 0
POINTS 921
DATA ascii
-11.73874092 -5.987736702 -2.003018856 0.9480802417 
-11.46061516 -6.503974438 -2.002996922 0.9480807781 
-11.15984058 -7.007216454 -2.002972841 0.9480813742 
-10.8369112 -7.496645451 -2.002946377 0.9480820894 
-10.49259472 -7.971137524 -2.002918005 0.9480828047 
-7.321506023 -6.094301701 -1.447963476 0.9621915221 
-6.703913212 -6.104970455 -1.378215194 0.9639796019 
-6.124575138 -6.097390175 -1.313632488 0.9656381607 
-3.39079833 -6.575112343 -1.124495625 0.9705118537 
-2.158977032 -12.9940815 -2.002189159 0.9481011629 
-0.9954858422 -13.13382339 -2.002081156 0.9481039047 
0.3101220727 -3.019399405 -0.4613657892 0.9877945185 
0.4440600574 -3.002246141 -0.4613090456 0.9877960086 
0.5795971751 -2.991965294 -0.4632360637 0.9877453446 
0.7179492116 -2.987563372 -0.4670411646 0.987645328 
0.8600976467 -2.987197161 -0.4725028872 0.9875017405 
1.161162138 -2.999602079 -0.488912195 0.9870705009 
1.313476562 -2.99062252 -0.4964884818 0.9868714809 
1.640205026 -2.982280254 -0.5173452497 0.9863237143 
6.851996899 -11.24307346 -2.001320839 0.9481230974 
7.345119476 -10.92690182 -2.001270771 0.9481243491 
7.823774338 -10.58906937 -2.001223326 0.9481255412 
8.733561516 -9.851337433 -2.00113225 0.9481278658 
9.162976265 -9.452848434 -2.001089096 0.9481289387 
9.574167252 -9.035732269 -2.001047373 0.9481300116 
10.69103527 -7.680546761 -2.000931501 0.9481329918 
11.33098125 -6.699716568 -2.000864029 0.9481346607 
11.61759949 -6.188998699 -2.000833273 0.948135376 
11.88124466 -5.665937424 -2.000804663 0.9481362104 
12.33751392 -4.587417126 -2.000753641 0.9481374025 
12.69612503 -3.472670794 -2.000711203 0.9481384754 
13.16201401 4.882812391e-06 -2.000640154 0.9481403232 
13.04488277 1.751904249 -2.000637531 0.9481403828 
12.9540844 2.330385685 -2.000641823 0.9481402636 
12.83763409 2.904487133 -2.000649214 0.9481399655 
12.33707714 4.587255955 -2.000684738 0.9481391907 
12.12088585 5.131598949 -2.000700951 0.9481387734 
11.88075161 5.665700436 -2.000719309 0.9481382966 
11.61706734 6.18871069 -2.000740051 0.9481377006 
10.69044781 7.680121899 -2.000818968 0.9481357336 
9.965768814 8.600232124 -2.000882149 0.9481341839 
7.823159218 10.58823872 -2.001067162 0.9481295347 
5.825378418 11.80712986 -2.001244545 0.9481250644 
5.294466496 12.05488777 -2.001292467 0.9481238127 
4.202305794 12.47836018 -2.001391411 0.9481213093 
3.643210411 12.65321064 -2.001442432 0.9481201768 
1.926766276 13.02660847 -2.001600266 0.9481160641 
0.7613866925 13.14701843 -2.001708746 0.9481133223 
-0.4101538062 13.16338825 -2.001818419 0.9481105208 
-0.9953820705 13.13246059 -2.001873493 0.9481091499 
-1.57856071 13.07555866 -2.001928568 0.948107779 
-3.86913681 12.59085751 -2.002147198 0.9481022358 
-5.09600687 11.06377888 -1.851522446 0.9519110918 
-6.054098606 10.55819321 -1.849968195 0.9519504905 
-6.525981903 10.29129601 -1.85228765 0.9518917203 
-8.2474823 8.975945473 -1.852845073 0.951877594 
-8.636386871 8.598061562 -1.852378607 0.9518893957 
-9.362840652 7.793477535 -1.851673484 0.9519072175 
-10.01430035 6.927602291 -1.850906134 0.9519267082 
-10.31017303 6.473715782 -1.850474238 0.9519376755 
-10.93152523 6.203708172 -1.910524964 0.9504172206 
-12.224226 4.920610428 -2.002976894 0.948081255 
-12.43113995 4.372072697 -2.003000498 0.9480806589 
-12.61347103 3.814748526 -2.003022194 0.9480801225 
-12.90282536 2.678632736 -2.003058434 0.9480792284 
-13.09002304 1.521254897 -2.003085375 0.9480785131 
-13.14480114 0.9374096394 -2.00309515 0.9480782747 
-13.17352676 0.3518066406 -2.003102303 0.9480781555 
-13.17616558 -0.2345996052 -2.003107309 0.9480780363 
-13.10318947 -1.404760718 -2.003109932 0.9480779171 
-13.02772045 -1.986188889 -2.003107548 0.9480779767 
-12.92642689 -2.563786507 -2.003102779 0.9480781555 
-12.79956055 -3.136201143 -2.003095388 0.9480782747 
-12.64730644 -3.702497482 -2.003085852 0.9480785131 
-12.47001362 -4.261350155 -2.003073454 0.9480788708 
-12.04173279 -5.352705002 -2.003042221 0.9480797052 
-11.79157829 -5.883073807 -2.003022909 0.9480801225 
-11.22177219 -6.907663345 -2.002977848 0.948081255 
-10.56312943 -7.877490044 -2.002923727 0.9480826259 
-6.823527813 -6.103723049 -1.391584277 0.9636365771 
-6.236110687 -6.098920822 -1.325862288 0.9653238058 
-5.217936993 -6.101201057 -1.22028935 0.9680403471 
-4.76720953 -6.104223728 -1.177275538 0.9691493511 
-4.34235096 -6.101499081 -1.138326645 0.9701545835 
-3.968127251 -6.136215687 -1.110744119 0.970867157 
-3.644343138 -6.226603985 -1.096641421 0.9712316394 
-3.423129797 -6.495151043 -1.115989685 0.9707315564 
-3.329982758 -7.063554764 -1.186996341 0.9688985944 
-4.536227703 -12.36799335 -2.002404451 0.9480957389 
-3.418849945 -12.72157192 -2.002304077 0.9480983019 
-2.274526358 -12.97442341 -2.00219965 0.9481009245 
0.01523193344 -3.422978401 -0.5203008652 0.9862461686 
0.4172900319 -3.005761623 -0.4612605274 0.9877972603 
0.5521532893 -2.992800236 -0.4625857472 0.9877624512 
0.6900732517 -2.988339663 -0.4661834538 0.9876678586 
1.605336905 -2.98139143 -0.514693141 0.9863933921 
6.751738071 -11.3036499 -2.001331091 0.948122859 
7.729267597 -10.65830803 -2.001232624 0.9481253624 
8.195522308 -10.30372524 -2.001186132 0.9481264949 
8.645609856 -9.928701401 -2.001141071 0.9481276274 
9.078469276 -9.534106255 -2.001097679 0.9481287599 
9.493432045 -9.120595932 -2.001055479 0.9481298327 
9.889511108 -8.689130783 -2.001015186 0.948130846 
10.62225342 -7.775483131 -2.000938416 0.9481327534 
10.95746326 -7.295094967 -2.000903606 0.9481336474 
11.27090263 -6.800385475 -2.000870466 0.9481344819 
11.83035088 -5.771543026 -2.000810146 0.9481360316 
12.07524395 -5.239450455 -2.000783205 0.9481366873 
12.9330883 -2.445610285 -2.000680447 0.9481392503 
13.0991106 -1.286420822 -2.00065589 0.9481398463 
13.15365696 0.4684228301 -2.000637054 0.9481403828 
13.11979198 1.053134799 -2.000635862 0.9481403828 
13.05996799 1.635661602 -2.000637054 0.9481403828 
12.86297798 2.790019512 -2.000647545 0.9481400251 
12.56422806 3.922209501 -2.000668526 0.9481396079 
12.16603279 5.023547173 -2.000697374 0.9481388927 
11.93066406 5.559755802 -2.000715494 0.9481384158 
11.67163563 6.085097313 -2.000735998 0.9481378198 
9.653508186 8.949580193 -2.000908852 0.9481335282 
8.820194244 9.772506714 -2.000980139 0.9481316805 
7.441507339 10.86013603 -2.001100779 0.9481286407 
6.951141357 11.18067741 -2.001144171 0.9481275678 
6.447103024 11.4790535 -2.001188993 0.9481264353 
5.930171967 11.75477791 -2.001235247 0.9481253028 
4.862187386 12.23591805 -2.001331329 0.948122859 
3.190541983 12.77518654 -2.001483917 0.9481189847 
2.619223595 12.9047966 -2.001536369 0.9481176734 
2.042577982 13.00889397 -2.001589537 0.9481163025 
1.461965322 13.08722878 -2.001643419 0.9481149316 
0.2930139005 13.16608334 -2.001752377 0.9481121898 
-0.8783850074 13.14073658 -2.001862288 0.948109448 
-3.756942034 12.62471676 -2.00213623 0.9481025338 
-4.246653557 12.24834728 -1.970487118 0.9489015937 
-4.99666357 11.1071043 -1.851258993 0.9519177675 
-5.489626884 10.8815403 -1.852567196 0.9518846273 
-6.892552853 10.05899525 -1.853480697 0.9518615007 
-7.758756161 9.405919075 -1.853351235 0.951864779 
-8.559990883 8.675011635 -1.85247457 0.9518869519 
-8.93513298 8.283595085 -1.852007985 0.9518987536 
-9.632864952 7.454218388 -1.851403117 0.9519141316 
-9.952729225 7.016745567 -1.850990653 0.9519245625 
-10.25260353 6.565590858 -1.850561738 0.9519354105 
-10.72134209 6.211181641 -1.883375645 0.9511043429 
-11.94397068 5.565961838 -2.002945423 0.9480820894 
-12.17992115 5.029162407 -2.002971649 0.9480814338 
-12.87845898 2.793315411 -2.003055334 0.9480793476 
-12.99006844 2.21774888 -2.003070116 0.9480788708 
-13.07594109 1.637661099 -2.003082991 0.9480786324 
-13.16987419 0.4690087736 -2.00310111 0.9480781555 
-13.04487514 -1.870200157 -2.003108263 0.9480779767 
-12.94873714 -2.448681593 -2.003103971 0.9480780959 
-12.82695198 -3.022194862 -2.003097057 0.9480782747 
-12.67975426 -3.589836359 -2.003087759 0.9480785131 
-12.08890629 -5.245375633 -2.003045797 0.948079586 
-11.84346867 -5.77793932 -2.003026962 0.9480800629 
-6.967973709 -6.122216702 -1.40987885 0.963167429 
-4.855026722 -6.103928089 -1.185502172 0.968937099 
-4.035639763 -6.120502949 -1.114354491 0.9707738161 
-3.334863186 -6.913747311 -1.166762233 0.9694205523 
-4.093127251 -12.52135754 -2.002364874 0.9480966926 
-2.389875412 -12.95373726 -2.002210379 0.9481006861 
-0.6444921494 -13.15551758 -2.002048492 0.9481046796 
-0.01556152292 -3.4988451 -0.5318333507 0.9859434366 
0.390512675 -3.009235859 -0.461242348 0.9877977371 
0.6623364091 -2.989291906 -0.4653945863 0.987688601 
1.09922111 -2.997004271 -0.485221535 0.9871674776 
1.405297875 -2.980903149 -0.5009260178 0.9867548943 
1.57077384 -2.980434418 -0.5120944381 0.9864615798 
7.634103775 -10.72676945 -2.001241922 0.9481250644 
8.103439331 -10.37627888 -2.001195431 0.9481265545 
9.41187191 -9.204807281 -2.001063824 0.9481296539 
10.19240475 -8.331450462 -2.000983 0.9481316209 
10.55269718 -7.869706631 -2.000945807 0.9481325746 
11.5056982 -6.394773006 -2.000845194 0.9481351376 
11.77857113 -5.876586914 -2.000815868 0.9481358528 
12.02818584 -5.346699238 -2.00078845 0.9481365681 
12.91080761 -2.560685873 -2.000683308 0.9481392503 
13.15729904 0.3513818383 -2.00063777 0.9481403828 
13.12864494 0.9363744855 -2.000635862 0.9481403828 
12.41670609 4.36700201 -2.000679016 0.9481393099 
11.97963333 5.453388691 -2.000711679 0.9481384754 
11.72533894 5.98089838 -2.000731707 0.948137939 
11.44776821 6.496679306 -2.000753641 0.9481374621 
11.14760971 6.999531269 -2.000778198 0.9481368065 
9.732793808 8.863229752 -2.000901937 0.948133707 
8.466931343 10.08036804 -2.001010895 0.9481309652 
7.05032444 11.11833477 -2.001135349 0.9481278062 
6.548951149 11.42119312 -2.001179934 0.9481266141 
6.034492016 11.70149517 -2.001225948 0.9481255412 
5.508172512 11.95860577 -2.001273155 0.9481243491 
3.867741585 12.58629704 -2.001421928 0.9481205344 
2.158331156 12.99011421 -2.001579046 0.9481166005 
1.578341007 13.07361412 -2.00163269 0.9481152892 
0.9952941537 13.13124752 -2.001686811 0.9481138587 
-0.1758642495 13.16845226 -2.001796246 0.9481111169 
-0.7614379525 13.14796638 -2.00185132 0.9481096864 
-1.927105069 13.02897263 -2.001961708 0.948106885 
-3.077652454 12.80682087 -2.002071142 0.9481042027 
-4.203955173 12.4832716 -2.002179384 0.9481014609 
-4.393256187 11.34904766 -1.849806309 0.9519546032 
-4.896851063 11.14957714 -1.850994349 0.9519244432 
-7.67475462 9.474728584 -1.853367209 0.9518643618 
-8.087166786 9.122221947 -1.853022218 0.951873064 
-9.890359879 7.10533905 -1.851074457 0.9519224167 
-10.19426346 6.656860352 -1.85064888 0.9519332051 
-12.3513155 4.592553616 -2.002991199 0.9480808973 
-12.96978474 2.333227396 -2.003067493 0.9480790496 
-13.16516209 0.5861523151 -2.00309968 0.9480782151 
-12.41286373 -2.441406195e-06 -2.003034115 0.9509500265 
-12.40058899 -0.5521777272 -2.003037214 0.9509499669 
-12.36376476 -1.103256822 -2.003038168 0.9509499073 
-12.30243874 -1.652148366 -2.003036976 0.9509499669 
-12.21675014 -2.19776845 -2.003033161 0.9509500265 
-11.63438416 -4.32600069 -2.002995729 0.9509509802 
-11.4303503 -4.839218616 -2.002980709 0.9509513378 
-11.20366573 -5.342851639 -2.002963543 0.950951755 
-10.95479965 -5.835883617 -2.002944231 0.9509522319 
-10.392519 -6.786308289 -2.00289917 0.9509532452 
-10.08021927 -7.241782188 -2.002873421 0.9509539008 
-7.870102406 -6.202866077 -1.617011786 0.9602119327 
-7.06056881 -6.093059063 -1.50493896 0.9629178643 
-3.48654294 -6.339325905 -1.16747129 0.9711117148 
-3.960266113 -11.75961399 -2.002340794 0.9509666562 
-3.433156729 -11.92386246 -2.002293587 0.9509677291 
-1.815427184 -12.27382088 -2.002146006 0.9509712458 
-1.267597675 -12.34212112 -2.002095222 0.9509724379 
-0.7172997594 -12.3859787 -2.002044201 0.9509736896 
-0.04491943121 -3.364926577 -0.5430392623 0.9864575267 
0.09545654058 -3.063393593 -0.4945733547 0.9876586795 
0.3596630692 -2.979086876 -0.4842193425 0.9879154563 
0.4940234125 -2.973366737 -0.4863831997 0.9878618121 
0.7692748904 -2.967587709 -0.4947009087 0.9876555204 
0.9140136242 -2.974326134 -0.5021111965 0.9874717593 
1.063271403 -2.980786085 -0.5106878281 0.9872590899 
1.36794436 -2.969902277 -0.5276402235 0.9868389964 
1.696140051 -2.958014965 -0.5502320528 0.9862793684 
7.546066761 -9.841781616 -2.001243591 0.9509928226 
8.39057827 -9.131743431 -2.001158953 0.9509948492 
8.788303375 -8.749286652 -2.00111866 0.9509958029 
10.50137138 -6.593798637 -2.000941038 0.9510000944 
10.78413296 -6.120036602 -2.000910997 0.9510008097 
11.04555607 -5.634184361 -2.000882864 0.9510014057 
11.50230694 -4.630038738 -2.000832319 0.9510026574 
11.69676018 -4.113745213 -2.000810385 0.9510031939 
12.13989735 -2.520251513 -2.000756741 0.9510044456 
12.37439632 0.7718994021 -2.000710011 0.951005578 
12.32781219 1.321596622 -2.000710249 0.951005578 
11.09476089 5.535405159 -2.000793934 0.9510035515 
10.55909634 6.499738693 -2.000837088 0.9510025382 
9.939880371 7.412700176 -2.000889778 0.9510012865 
9.60044384 7.847640038 -2.000920534 0.9510005713 
8.86523819 8.670144081 -2.000984669 0.9509990215 
8.470990181 9.05607605 -2.001018763 0.9509980083 
7.190621376 10.10354996 -2.001130342 0.9509954453 
6.734183311 10.41361523 -2.001170635 0.9509945512 
6.264401913 10.70308781 -2.001212358 0.9509935975 
5.2885499 11.21799946 -2.00129962 0.9509915113 
4.784402847 11.44241047 -2.001345158 0.9509903789 
4.270771503 11.64418221 -2.001391649 0.950989306 
3.748654604 11.82291031 -2.001439095 0.9509881735 
1.596276879 12.30106449 -2.001636982 0.9509834051 
1.047517061 12.36020756 -2.001688004 0.950982213 
-0.6069860458 12.39060783 -2.001842976 0.9509785175 
-1.70594728 12.28827572 -2.001946926 0.9509760141 
-2.25094223 12.20053196 -2.001998663 0.950974822 
-3.326583147 11.95280361 -2.002101421 0.9509723186 
-3.855092049 11.79329109 -2.002152205 0.9509711266 
-4.24881506 11.27299976 -1.944013596 0.952360332 
-4.516121864 10.53634453 -1.849824309 0.9546152949 
-4.980464458 10.32527065 -1.84986949 0.954614222 
-5.434993267 10.09374142 -1.849914074 0.9546131492 
-5.878761292 9.842208862 -1.849957705 0.9546120763 
-6.310899734 9.571176529 -1.850000143 0.9546111226 
-6.730555058 9.281168938 -1.850039959 0.9546101689 
-7.136892319 8.972768784 -1.850077271 0.9546092749 
-7.52911377 8.646566391 -1.850110888 0.9546084404 
-8.613473892 7.567950249 -1.850216985 0.9546058774 
-8.945235252 7.18021965 -1.850970626 0.9545878172 
-9.254182816 6.774013519 -1.850649476 0.9545955658 
-10.90189171 5.932861328 -2.002844572 0.9509545565 
-11.15517139 5.44210434 -2.002872229 0.9509539008 
-11.94302368 3.38119626 -2.002962828 0.950951755 
-12.08171368 2.846606493 -2.002979994 0.9509513378 
-12.39512157 0.6625048518 -2.003026962 0.9509502053 
-12.37311268 -0.9931396246 -2.003038168 0.9509498477 
-12.31665134 -1.542597651 -2.003037453 0.9509499669 
-12.00165176 -3.168181181 -2.003021002 0.9509503841 
-11.6724329 -4.222294807 -2.002998352 0.9509509206 
-11.25079441 -5.242939472 -2.002967119 0.9509516358 
-10.74005508 -6.222031116 -2.002927303 0.9509526491 
-10.14429665 -7.151813984 -2.002878904 0.9509537816 
-7.189706802 -6.093706131 -1.520843029 0.9625334144 
-6.584924221 -6.104726315 -1.44897902 0.9642717838 
-6.010046482 -6.090822697 -1.380790353 0.9659241438 
-5.49571991 -6.089064598 -1.323605061 0.9673120975 
-5.026320457 -6.093425274 -1.274638534 0.9685021043 
-4.176342487 -6.095002174 -1.192275643 0.9705070853 
-3.833200693 -6.16556406 -1.171529651 0.9710127711 
-3.539155245 -11.8928957 -2.002303123 0.9509674907 
-3.006540537 -12.03825855 -2.002254963 0.9509686828 
-2.467990637 -12.15979958 -2.002205849 0.9509698153 
-1.924611807 -12.25723648 -2.002156019 0.9509710073 
-1.377395034 -12.33040714 -2.002105474 0.950972259 
-0.07640380412 -3.433525324 -0.5541968942 0.9861811399 
0.2004443258 -2.998508215 -0.484942019 0.9878975153 
0.3331640661 -2.982436419 -0.484262079 0.9879143834 
0.8847265244 -2.973002911 -0.5005384684 0.9875107408 
1.033024907 -2.979516506 -0.5088752508 0.9873040318 
1.337192297 -2.972468138 -0.5259608626 0.9868806005 
1.661545396 -2.958395958 -0.5475292802 0.9863462448 
6.548315048 -10.53272152 -2.001342535 0.9509904981 
7.010219574 -10.23077393 -2.001296759 0.9509915113 
9.806980133 -7.588901043 -2.001013517 0.9509983063 
10.72926521 -6.215788364 -2.000916958 0.9510006905 
10.99501228 -5.732275486 -2.000888348 0.9510012865 
11.65971184 -4.217682838 -2.000814438 0.9510030746 
11.8356638 -3.694804668 -2.000793934 0.9510035515 
11.98819351 -3.164633751 -2.000775814 0.9510040283 
12.22183037 -2.086560011 -2.000745773 0.9510047436 
12.35879326 -0.992026329 -2.000724792 0.9510052204 
12.39064217 -0.4412817359 -2.00071764 0.9510053992 
12.39797306 0.1103442386 -2.000712633 0.9510055184 
12.38078785 0.6617431641 -2.000710249 0.9510055184 
12.33908463 1.211826086 -2.000710011 0.951005578 
12.27298546 1.759516597 -2.000712156 0.9510055184 
12.0680933 2.843398333 -2.000723124 0.9510052204 
11.37425518 4.935305119 -2.000772238 0.9510041475 
11.14356422 5.436445236 -2.000790119 0.9510036707 
10.61650372 6.405498028 -2.000832319 0.9510025978 
10.32117176 6.871510983 -2.000856638 0.9510020614 
9.315161705 8.18446064 -2.000945807 0.9509999752 
8.143354416 9.351956367 -2.001046896 0.9509975314 
7.71942234 9.705134392 -2.001083851 0.9509966373 
7.280201435 10.03912163 -2.001122475 0.9509956837 
6.826562405 10.35323429 -2.001162529 0.95099473 
4.374201775 11.60565662 -2.001382351 0.9509895444 
3.325558901 11.94907665 -2.001477718 0.9509872198 
2.790792227 12.08547497 -2.001526833 0.9509860277 
0.05520141497 12.40496922 -2.001780748 0.9509800076 
-2.68380785 12.11293697 -2.002039909 0.9509738088 
-3.220059156 11.98186493 -2.002091169 0.9509726167 
-3.749974251 11.82707691 -2.002142191 0.9509713054 
-4.888353825 10.36914253 -1.849860549 0.9546144009 
-5.344902039 10.14166641 -1.849905252 0.9546133876 
-5.790908813 9.894086838 -1.849949002 0.9546123147 
-7.056721687 9.035894394 -1.85006988 0.9546094537 
-7.451843262 8.713201523 -1.850104332 0.9546085596 
-8.545742989 7.644283295 -1.850210071 0.9546060562 
-9.487875938 6.439335823 -1.850351214 0.9546026587 
-10.848629 6.029631138 -2.00283885 0.9509546757 
-11.1062727 5.541152 -2.002866983 0.95095402 
-11.34191132 5.041676998 -2.002892971 0.950953424 
-11.74539852 4.013754845 -2.002938986 0.9509522915 
-12.27088261 1.870810509 -2.003005743 0.9509507418 
-12.38872623 0.772785604 -2.003025532 0.9509502649 
-12.41086674 0.2209374905 -2.003031969 0.9509501457 
-12.38142776 -0.8830322027 -2.003038168 0.9509499669 
-12.15369892 -2.523107767 -2.003029823 0.9509501457 
-11.88124847 -3.593320131 -2.003012896 0.950950563 
-11.70957375 -4.118256569 -2.003000975 0.9509508014 
-11.05697155 -5.640004635 -2.002952337 0.9509520531 
-7.321606159 -6.094369888 -1.537210464 0.9621379375 
-6.707214355 -6.108012676 -1.463868022 0.9639113545 
-6.11959219 -6.092411995 -1.3934443 0.9656172991 
-5.592739105 -6.086772442 -1.333872318 0.9670627117 
-4.252414227 -6.089081764 -1.198473334 0.9703560472 
-3.377358437 -6.548998833 -1.189050436 0.9705857038 
-3.31528306 -7.197721958 -1.278764367 0.9684017897 
-4.684858322 -11.49063206 -2.002405405 0.9509650469 
-4.168979168 -11.6873827 -2.002359629 0.9509661794 
-3.644872904 -11.86098576 -2.00231266 0.9509673119 
-2.576117992 -12.13740921 -2.002215624 0.9509696364 
-2.033698797 -12.23967266 -2.002166033 0.9509707689 
-0.937692821 -12.3713522 -2.002064705 0.9509732723 
-0.1093139648 -3.508332491 -0.5664063692 0.9858788848 
0.04255371168 -3.187324047 -0.5143769979 0.9871676564 
0.3066552579 -2.985739708 -0.4843360782 0.9879125357 
0.7128100395 -2.966142416 -0.4922666848 0.9877158403 
1.306618571 -2.975002289 -0.5243301392 0.9869210124 
1.461159587 -2.961557627 -0.5328999162 0.9867086411 
6.454362869 -10.59062958 -2.001351595 0.9509902596 
6.918920517 -10.29280281 -2.001305819 0.9509913325 
7.369770527 -9.974616051 -2.001260996 0.9509924054 
9.388156891 -8.101698875 -2.001057625 0.950997293 
10.07071972 -7.234953403 -2.000986338 0.9509989619 
10.38242435 -6.779706955 -2.000953674 0.9509997368 
10.67355728 -6.311047077 -2.000922918 0.9510005116 
10.94357872 -5.829916954 -2.000893831 0.9510011673 
11.41813183 -4.834050179 -2.000841856 0.951002419 
12.20280743 -2.195263624 -2.000748396 0.9510046244 
12.38622761 -0.5515283346 -2.000718832 0.9510053992 
12.39847374 0 -2.000713348 0.9510054588 
12.34937954 1.10197258 -2.000709772 0.951005578 
12.20259476 2.195219755 -2.000715256 0.9510054588 
12.09290981 2.735873938 -2.000721455 0.95100528 
11.62135983 4.321159363 -2.00075388 0.9510045052 
11.41772461 4.833871841 -2.000769138 0.9510041475 
10.94309521 5.8296628 -2.000806093 0.9510033131 
10.07017803 7.234558105 -2.00087738 0.9510015845 
9.738562584 7.675483227 -2.000908136 0.9510007501 
9.387607574 8.101218224 -2.000939369 0.9510000944 
9.018088341 8.51093483 -2.000971556 0.9509993196 
8.630706787 8.903817177 -2.001004934 0.9509984851 
7.805455208 9.636013985 -2.00107646 0.9509968162 
5.976501465 10.86664867 -2.001238108 0.9509930015 
5.487321854 11.12199593 -2.001281738 0.9509919286 
4.477284908 11.56621265 -2.001373053 0.9509897828 
3.958446026 11.75421238 -2.001420021 0.9509885907 
3.431746721 11.91895485 -2.001468182 0.9509874582 
2.358923197 12.17738819 -2.001566648 0.9509851336 
1.814940095 12.27057838 -2.001616955 0.950983882 
1.267337561 12.33948708 -2.0016675 0.9509826899 
0.7171947956 12.38394737 -2.00171876 0.9509814978 
0.1656054705 12.40392208 -2.001770496 0.9509802461 
-0.9375671148 12.3701973 -2.00187397 0.9509777427 
-2.033412933 12.23854733 -2.001977921 0.9509752393 
-3.64454937 11.85991955 -2.002131939 0.9509716034 
-4.168615818 11.68635273 -2.002182484 0.9509703517 
-4.327842712 10.61494732 -1.84980607 0.9546157718 
-6.139498234 9.681899071 -1.849983335 0.9546114802 
-6.976000786 9.098300934 -1.850062251 0.9546096325 
-7.373968124 8.779145241 -1.850097656 0.9546087384 
-7.757348537 8.442587852 -1.850131392 0.954607904 
-8.477338791 7.72001791 -1.850203037 0.9546061754 
-8.816662788 7.338810921 -1.851102591 0.9545846581 
-9.132736206 6.93809557 -1.850768089 0.9545927048 
-10.79450035 6.12592268 -2.002833128 0.9509548545 
-11.05647469 5.639755726 -2.0028615 0.9509541988 
-12.02909279 3.06117177 -2.002973318 0.9509515166 
-12.15345573 2.523066282 -2.002989292 0.9509510994 
-12.25374031 1.979946256 -2.00300312 0.9509508014 
-12.32974911 1.432910085 -2.003014565 0.950950563 
-12.38134861 0.8830150962 -2.003023863 0.9509503245 
-12.0561657 -2.954077005 -2.00302434 0.9509502649 
-11.74577618 -4.013881683 -2.003003597 0.9509507418 
-11.55551243 -4.532368183 -2.002990007 0.9509510994 
-11.34236908 -5.041894436 -2.002974033 0.950951457 
-10.84913826 -6.029919147 -2.002935648 0.9509524107 
-10.57004833 -6.506489277 -2.002913475 0.9509529471 
-9.949685097 -7.420009613 -2.002862692 0.9509541392 
-7.456396103 -6.095048904 -1.554058075 0.961730957 
-5.693261623 -6.086557388 -1.344874859 0.9667956233 
-5.210568905 -6.092566013 -1.293655992 0.9680397511 
-3.963530302 -6.129135609 -1.177827716 0.9708592296 
-3.411320686 -6.47277832 -1.180677652 0.9707897305 
-3.311940908 -7.025241375 -1.253308296 0.9690209627 
-4.786940575 -11.4485321 -2.002414465 0.9509648681 
-4.27284193 -11.64986992 -2.002368689 0.950965941 
-3.750300169 -11.82814407 -2.002321959 0.9509670138 
-2.142468214 -12.22116661 -2.002176046 0.9509705305 
-1.596723557 -12.30404758 -2.00212574 0.9509717822 
0.4130932391 -2.975571156 -0.4847662151 0.9879018664 
0.5482763648 -2.971747875 -0.4876376092 0.9878306985 
0.6851782203 -2.967155695 -0.4914031923 0.987737298 
1.124416471 -2.983290911 -0.514465034 0.9871655107 
1.430039048 -2.964677572 -0.531149745 0.9867520332 
1.593317866 -2.959069729 -0.5423192978 0.9864753485 
6.82707262 -10.35401821 -2.001314878 0.9509910941 
9.670416832 -7.762304306 -2.001027822 0.9509980083 
10.00596619 -7.324326038 -2.000993013 0.9509987831 
10.32170677 -6.871867657 -2.000960112 0.950999558 
10.61700153 -6.405815125 -2.00092864 0.9510003328 
11.1440258 -5.436650276 -2.000871897 0.9510017037 
11.58283901 -4.424560547 -2.000823259 0.9510028958 
11.76808071 -3.904897451 -2.00080204 0.9510033727 
11.93001461 -3.377512217 -2.000782967 0.9510038495 
12.39060497 0.4412744045 -2.000710964 0.9510055184 
12.35870075 0.9920165539 -2.000709772 0.951005578 
12.30234623 1.540798306 -2.000710964 0.9510055184 
12.22165012 2.08653307 -2.000714302 0.9510054588 
11.98790741 3.164567709 -2.000728369 0.9510051608 
11.46025848 4.732062817 -2.0007658 0.9510042667 
11.23852062 5.237214088 -2.000782967 0.9510038495 
10.99452877 5.732021332 -2.00080204 0.9510033727 
10.72878838 6.215493202 -2.000823259 0.9510028362 
10.4417944 6.686674595 -2.000846624 0.9510022998 
8.709494591 8.826622963 -2.000998259 0.9509989023 
7.890876293 9.566129684 -2.001069069 0.950996995 
7.457670689 9.907867432 -2.001106739 0.9509961009 
7.009709358 10.23000336 -2.001146317 0.9509950876 
6.072967529 10.81299019 -2.001229286 0.9509931207 
4.580030441 11.52585506 -2.001363516 0.9509899616 
4.062884331 11.71845722 -2.001410723 0.9509888291 
3.537674427 11.88787651 -2.001458406 0.9509876966 
1.924055099 12.25387669 -2.001606703 0.9509841204 
0.8273681402 12.37702084 -2.001708746 0.9509817362 
-0.2759826481 12.40222168 -2.001811743 0.9509792328 
-0.8274255395 12.37798214 -2.001863718 0.9509779811 
-1.377258301 12.32924175 -2.001915693 0.950976789 
-1.924423814 12.25607872 -2.001967669 0.9509755373 
-3.00627017 12.03715992 -2.002070665 0.9509730935 
-3.538842201 11.89181042 -2.002121925 0.9509718418 
-4.064431667 11.72292423 -2.002172232 0.9509706497 
-4.264720917 10.73237514 -1.863581538 0.9542856216 
-4.702976704 10.45439911 -1.849842429 0.9546148777 
-6.053063393 9.736103058 -1.849974751 0.9546117187 
-8.053026199 8.16126442 -1.850159883 0.9546073079 
-8.408265114 7.79510498 -1.850195885 0.9546064138 
-8.746866226 7.41350317 -1.850230694 0.9546055794 
-9.070966721 7.019350529 -1.850836158 0.9545910358 
-9.725577354 6.228027344 -1.863605499 0.9542850256 
-11.00582504 5.737915039 -2.002856016 0.9509542584 
-11.84842396 3.698813438 -2.002951384 0.9509520531 
-12.00135803 3.168093204 -2.00296998 0.9509515762 
-12.13050365 2.631118059 -2.002986431 0.950951159 
-12.37299061 0.9931640625 -2.003022194 0.9509503245 
-12.41238499 -0.1104638651 -2.00303483 0.9509499669 
-12.39518642 -0.662502408 -2.003037691 0.9509499669 
-12.1966877 -2.306411028 -2.003032207 0.9509500861 
-12.08198071 -2.846672297 -2.00302577 0.9509502649 
-11.78104115 -3.909199238 -2.003005981 0.9509507418 
-11.59540844 -4.42936039 -2.002992868 0.9509510398 
-10.01534367 -7.331196308 -2.002868176 0.95095402 
-6.93410635 -6.092426777 -1.489481807 0.9632916451 
-6.347641468 -6.098378658 -1.420427322 0.9649633169 
-4.413058758 -6.085449219 -1.213028431 0.9700015187 
-4.029138088 -6.110644341 -1.181118727 0.9707790017 
-3.703959942 -6.201179028 -1.165583134 0.9711577296 
-3.320744514 -6.884404182 -1.233405948 0.9695053101 
-4.888681412 -11.40552425 -2.002423286 0.9509646297 
-4.376367092 -11.6114502 -2.002377987 0.9509657025 
-3.855422258 -11.79434299 -2.002331495 0.950966835 
-1.706140041 -12.28942394 -2.002135992 0.9509715438 
-0.1897216737 -3.872897863 -0.6257098317 0.9844119549 
-0.01470458973 -3.303781748 -0.5331286788 0.9867029786 
0.2535961866 -2.992209435 -0.4845768511 0.9879065752 
0.3862231374 -2.976247549 -0.4842965603 0.9879135489 
0.5211230516 -2.972570658 -0.4869927764 0.9878466725 
0.6576391459 -2.968139648 -0.4905770719 0.9877577424 
0.9434765577 -2.97564435 -0.5037305951 0.9874315858 
1.093732834 -2.982040882 -0.512550652 0.987212956 
1.246015549 -2.979968309 -0.5212147236 0.9869982004 
1.398896456 -2.967307091 -0.5293701291 0.9867960811 
1.731066823 -2.957617044 -0.553000927 0.9862107635 
7.191125393 -10.10428715 -2.001278877 0.9509919882 
7.633310318 -9.774184227 -2.00123477 0.9509930611 
8.060378075 -9.424762726 -2.001192093 0.9509940147 
8.865810394 -8.670685768 -2.001111031 0.9509959817 
9.24255085 -8.267558098 -2.001072407 0.9509969354 
10.55960655 -6.500068188 -2.000934839 0.9510002136 
11.09522152 -5.535646915 -2.00087738 0.9510015845 
11.73287106 -4.00947237 -2.000806093 0.9510033131 
11.89950943 -3.483549833 -2.000786543 0.9510037303 
12.25700665 -1.868713379 -2.000740767 0.9510048628 
12.32794189 -1.321616173 -2.000730038 0.9510051012 
12.13967037 2.520202637 -2.000718832 0.9510053396 
12.01559544 3.057734251 -2.000726461 0.9510051608 
11.04508018 5.63394022 -2.000797987 0.9510034919 
10.1972847 7.05414772 -2.00086689 0.9510018229 
9.873547554 7.500878811 -2.000895739 0.9510011673 
7.100417137 10.16717243 -2.00113821 0.9509953856 
6.641281605 10.473176 -2.001178741 0.9509943128 
6.16890955 10.75846195 -2.001220703 0.9509934187 
5.188522816 11.26467991 -2.00130868 0.9509912729 
3.112381458 12.00648689 -2.001497269 0.950986743 
2.033044338 12.23621178 -2.001596689 0.9509843588 
1.486749291 12.31482506 -2.001647234 0.9509832263 
0.9374731183 12.36911392 -2.001698256 0.950981915 
0.3863354325 12.39888382 -2.001749754 0.9509807229 
-0.7172399759 12.38478947 -2.001853228 0.9509782791 
-3.432856321 11.92278004 -2.002111673 0.9509720802 
-3.95993042 11.75857925 -2.002162218 0.9509708285 
-4.255752087 10.99390125 -1.902341247 0.9533573389 
-5.072189808 10.28059101 -1.84987855 0.9546139836 
-5.966134071 9.789550781 -1.849966288 0.9546118975 
-6.395848274 9.514684677 -1.850008488 0.9546108842 
-6.812929153 9.220942497 -1.850047588 0.9546099305 
-7.980058193 8.232589722 -1.850152731 0.9546073675 
-9.313747406 6.69111824 -1.850580096 0.9545972347 
-9.600830078 6.269320965 -1.850319982 0.9546034336 
-10.95430279 5.835615158 -2.002850294 0.9509543777 
-11.20319843 5.342617035 -2.002877712 0.9509537816 
-11.42989826 4.839033127 -2.002902985 0.9509531856 
-11.81501484 3.804096699 -2.00294733 0.9509521127 
-11.97265339 3.274790049 -2.002966404 0.9509516954 
-12.40053558 0.5521630645 -2.003028393 0.9509502053 
-12.3637495 -1.103244662 -2.003038168 0.9509499669 
-12.10684872 -2.739047766 -2.003027201 0.9509502053 
-11.97297096 -3.274880409 -2.003019094 0.9509503841 
-11.81537914 -3.804213762 -2.003008604 0.9509506822 
-11.20367432 -5.342841625 -2.002963543 0.950951755 
-10.68424034 -6.317375183 -2.002922535 0.9509526491 
-5.902480125 -6.089260101 -1.36847353 0.9662229419 
-5.400163651 -6.091313362 -1.313595295 0.9675552249 
-4.102267742 -6.102678299 -1.186588407 0.9706456661 
-3.768415451 -6.183422565 -1.168503523 0.9710865617 
-3.486540556 -6.339328289 -1.16747129 0.9711117148 
-3.333344698 -6.75620079 -1.215703964 0.9699363112 
-4.479594707 -11.57207489 -2.002387285 0.9509654641 
-3.960273266 -11.75960445 -2.002340794 0.9509666562 
-3.433146954 -11.92386436 -2.002293587 0.9509677291 
-2.89925766 -12.06448936 -2.002245188 0.9509689212 
-1.81550777 -12.27379894 -2.002146006 0.9509713054 
-1.267597675 -12.34212112 -2.002095222 0.9509724379 
-0.7173095345 -12.38598347 -2.002044201 0.95097363 
0.9140136242 -2.974326134 -0.5021111965 0.9874717593 
1.063269019 -2.980783701 -0.5106878281 0.9872591496 
1.526315928 -2.959645987 -0.537360549 0.986598134 
1.696142554 -2.958014965 -0.5502320528 0.9862793684 
7.100959301 -10.16793633 -2.001287699 0.9509917498 
9.168642044 -8.349511147 -2.001080036 0.9509967566 
9.530807495 -7.933241844 -2.001042366 0.9509976506 
9.87409687 -7.501296043 -2.001006842 0.9509984851 
10.50137138 -6.593798637 -2.000941038 0.9510000944 
10.78413296 -6.120036602 -2.000910997 0.9510008097 
11.0455513 -5.634181976 -2.000882864 0.9510014057 
11.28510475 -5.137192249 -2.000856638 0.9510020614 
11.69676208 -4.113739967 -2.000810385 0.9510031939 
11.86805153 -3.589316368 -2.000790119 0.9510036707 
12.23990917 -1.97771728 -2.000743151 0.9510047436 
12.36711597 -0.8820043802 -2.000723124 0.95100528 
12.39649868 0.2206835896 -2.000712156 0.9510055184 
12.37439632 0.7719091773 -2.000710011 0.951005578 
12.25683784 1.868679166 -2.000712633 0.9510055184 
12.04230976 2.950680971 -2.000724792 0.9510052204 
11.54264164 4.527341366 -2.000759602 0.9510043859 
10.83763885 6.023535252 -2.000814438 0.9510031343 
10.55908871 6.49974823 -2.000837088 0.9510025382 
10.25963402 6.963098049 -2.000861645 0.9510019422 
9.241962433 8.267067909 -2.000952005 0.950999856 
8.865229607 8.670153618 -2.000984669 0.9509990215 
8.471035004 9.056088448 -2.001018763 0.950997889 
8.059826851 9.424099922 -2.001054287 0.9509973526 
6.264407635 10.70308685 -2.001212358 0.9509935379 
5.782204628 10.97139835 -2.001255512 0.9509925246 
4.270765305 11.64418793 -2.001391649 0.9509892464 
3.748651028 11.82291031 -2.001439095 0.9509881735 
2.141846895 12.2175703 -2.001586676 0.9509845972 
-0.6069653034 12.39061737 -2.001842976 0.9509785175 
-1.157578111 12.35168076 -2.001894951 0.9509772658 
-1.705975294 12.28827286 -2.001946926 0.9509760141 
-2.250967979 12.20052814 -2.001998663 0.9509747624 
-2.791536093 12.08862782 -2.002050161 0.9509735703 
-3.326601982 11.95279789 -2.002101421 0.9509723186 
-3.855112791 11.79329109 -2.002152205 0.950971067 
-4.980485916 10.3252697 -1.84986949 0.954614222 
-5.878761292 9.842208862 -1.849957705 0.9546120763 
-6.730550766 9.281175613 -1.850039959 0.9546101689 
-7.136881351 8.972777367 -1.850077271 0.9546092749 
-8.268123627 7.943479061 -1.85018158 0.9546067715 
-8.945250511 7.180204868 -1.850970387 0.9545878172 
-10.28593349 6.206035137 -1.938530326 0.9524914622 
-11.15517902 5.442089558 -2.002872229 0.9509539008 
-11.38636112 4.940546989 -2.002897978 0.9509533048 
-11.5950079 4.429206371 -2.00292182 0.9509527087 
-11.94302368 3.38119626 -2.002962828 0.950951755 
-12.19646931 2.306376934 -2.002995014 0.9509509802 
-12.39512157 0.6625244021 -2.003026962 0.9509502053 
-12.40501404 -0.4418237209 -2.003036737 0.9509499669 
-12.31664848 -1.542612314 -2.003037453 0.9509499669 
-12.235816 -2.088974476 -2.003034115 0.9509500861 
-12.00164604 -3.168198109 -2.003021002 0.9509503841 
-11.47297478 -4.737314224 -2.002984047 0.9509512782 
-11.00631714 -5.738163948 -2.002948284 0.9509521723 
-10.74006557 -6.222031116 -2.002927303 0.9509525895 
-10.14430428 -7.151806355 -2.002878904 0.9509537816 
-9.815998077 -7.595871449 -2.002851486 0.9509543777 
-5.495695591 -6.089064598 -1.323602438 0.9673121572 
-5.026301384 -6.093427658 -1.274636269 0.9685021639 
-4.176330566 -6.095002174 -1.192275047 0.9705070853 
-3.833195686 -6.165568829 -1.171529412 0.9710127711 
-3.532404661 -6.289511681 -1.164040327 0.9711953998 
-3.36253643 -7.474692345 -1.32260251 0.9673364758 
-4.582389832 -11.53182125 -2.002396345 0.9509652257 
-4.064789772 -11.72396946 -2.00235033 0.9509663582 
-3.539157629 -11.89288807 -2.002303123 0.9509675503 
-3.006547689 -12.03826618 -2.002254963 0.9509686828 
-1.924609303 -12.25723648 -2.002156019 0.9509710073 
-1.377414465 -12.33040047 -2.002105474 0.950972259 
-0.8275805712 -12.37914753 -2.002054453 0.9509735107 
-0.07639160007 -3.433503389 -0.5541940331 0.9861812592 
0.2004516572 -2.998508215 -0.484942019 0.9878975153 
0.4669946134 -2.974135637 -0.4858096242 0.987875998 
0.7408129573 -2.966208458 -0.4933523536 0.9876889586 
0.8847289681 -2.973002911 -0.5005387664 0.9875107408 
1.186079025 -2.984814405 -0.5182862878 0.9870707393 
1.49323976 -2.959902287 -0.5349718928 0.9866573215 
1.661542892 -2.958393574 -0.5475289822 0.9863463044 
7.010204792 -10.2307806 -2.001296759 0.9509915709 
7.458195686 -9.908605576 -2.001252174 0.9509925842 
8.309038162 -9.206078529 -2.001167297 0.9509946108 
8.710141182 -8.82717514 -2.001126766 0.9509956241 
10.72927189 -6.215783596 -2.000916958 0.9510006309 
10.99501228 -5.732275486 -2.000888348 0.9510012865 
11.23896217 -5.237426758 -2.000861645 0.9510019422 
11.46067619 -4.732236385 -2.000837088 0.9510025382 
11.65970898 -4.217695236 -2.000814438 0.9510030746 
11.98818779 -3.164643526 -2.000775814 0.9510040283 
12.22182846 -2.086589336 -2.000745773 0.9510047436 
12.39064407 -0.4412573278 -2.00071764 0.9510053992 
12.39797592 0.1103564426 -2.000712633 0.9510055184 
12.33908176 1.211843252 -2.000710011 0.951005578 
12.27297592 1.75953126 -2.000712156 0.9510055184 
12.18258476 2.303742647 -2.000716448 0.9510053992 
12.0680933 2.843398333 -2.000723124 0.9510052204 
11.76773167 3.904782534 -2.000743151 0.9510047436 
11.37427235 4.935292721 -2.000772238 0.9510040879 
10.61650848 6.40548563 -2.000832319 0.9510026574 
10.00541019 7.323949814 -2.000883579 0.9510014057 
9.315148354 8.184484482 -2.000945807 0.9509999752 
8.942008018 8.590893745 -2.000978231 0.9509991407 
8.5511446 8.980319977 -2.001011848 0.9509983063 
8.143344879 9.351964951 -2.001046896 0.9509975314 
7.719410419 9.70513916 -2.001083851 0.9509966373 
7.280201435 10.03912163 -2.001122475 0.9509956837 
6.826562405 10.35323429 -2.001162529 0.95099473 
5.879593372 10.91945457 -2.001246691 0.950992763 
4.374213696 11.60564995 -2.001382351 0.9509895444 
3.853725433 11.78903198 -2.001429558 0.9509883523 
2.250445604 12.19796848 -2.001576662 0.9509848356 
0.05519286916 12.40496922 -2.001780748 0.9509800076 
-2.68380785 12.11293697 -2.002039909 0.9509738088 
-3.74996829 11.82707691 -2.002142191 0.950971365 
-4.241541862 11.56452847 -1.987699032 0.9513162971 
-5.344895363 10.14166737 -1.849905252 0.9546133876 
-5.790881157 9.894101143 -1.849949002 0.9546123147 
-6.647686005 9.340659142 -1.850032449 0.9546102881 
-7.832215309 8.373236656 -1.850138545 0.9546077847 
-8.197094917 8.016702652 -1.850174308 0.9546068907 
-8.545751572 7.644273281 -1.850210071 0.9546060562 
-8.881304741 7.259809494 -1.851036787 0.9545862079 
-9.193821907 6.856330395 -1.850708604 0.9545941353 
-10.84862137 6.029633522 -2.00283885 0.9509547353 
-11.74540234 4.013779163 -2.002938986 0.9509522319 
-11.91242313 3.4873631 -2.002959013 0.9509518743 
-12.05589104 2.953979492 -2.002976894 0.9509513974 
-12.27089214 1.870795846 -2.003005743 0.9509507418 
-12.34204483 1.323100567 -2.00301671 0.9509504437 
-12.38872623 0.7727758884 -2.003025532 0.9509502649 
-12.15369892 -2.523107767 -2.003029823 0.9509501457 
-12.02938557 -3.061247587 -2.003022671 0.9509503245 
-11.88124847 -3.593310356 -2.003012896 0.950950563 
-11.51470947 -4.635014534 -2.002986908 0.950951159 
-11.29704571 -5.142597675 -2.002970695 0.9509515166 
-11.0569582 -5.640028954 -2.002952337 0.9509520531 
-10.51169205 -6.600312233 -2.002908707 0.9509530663 
-10.2075634 -7.061284065 -2.002883911 0.9509536028 
-9.883214951 -7.508256435 -2.002857208 0.9509542584 
-6.707197189 -6.108007908 -1.463865042 0.9639114141 
-5.592739105 -6.086772442 -1.333872318 0.9670627117 
-4.252414227 -6.089081764 -1.198473334 0.9703560472 
-3.377363205 -6.548984051 -1.189049244 0.9705857038 
-4.684882641 -11.49061489 -2.002405405 0.9509650469 
-3.644850969 -11.86099625 -2.00231266 0.9509672523 
-3.113547325 -12.01110554 -2.002264738 0.9509683847 
-2.576105833 -12.13740921 -2.002215624 0.9509696364 
-2.03369379 -12.23966789 -2.002166033 0.9509708285 
-0.9375780821 -12.37138844 -2.002064705 0.9509731531 
-0.1093139648 -3.508332491 -0.5664063692 0.9858788848 
0.1738354415 -3.001591682 -0.4851717949 0.9878918529 
0.3066552579 -2.985739708 -0.4843360782 0.9879125357 
0.4400146306 -2.974868059 -0.485270381 0.9878894091 
0.7128051519 -2.966142416 -0.4922665358 0.9877158403 
0.8556127548 -2.971662521 -0.4990113676 0.9875485897 
1.002971172 -2.978237152 -0.5071114898 0.9873477817 
1.155310035 -2.984526396 -0.5164300203 0.9871167541 
1.306625962 -2.975002289 -0.5243304372 0.9869209528 
1.461169362 -2.961557627 -0.532900393 0.9867086411 
1.627280235 -2.958742619 -0.5448927283 0.9864115715 
6.454365253 -10.59062004 -2.001351595 0.9509902596 
7.369780064 -9.974611282 -2.001260996 0.9509924054 
8.631259918 -8.904384613 -2.001134634 0.9509954453 
9.018645287 -8.511454582 -2.001095295 0.9509963393 
9.388156891 -8.101698875 -2.001057625 0.950997293 
10.38241386 -6.779716492 -2.000953674 0.9509997368 
10.67355156 -6.311059475 -2.000922918 0.9510005116 
12.20280457 -2.195249081 -2.000748396 0.9510046244 
12.28830338 -1.650241613 -2.000736237 0.9510049224 
12.38622761 -0.5515283346 -2.000718832 0.9510053992 
12.3861866 0.551523447 -2.000710487 0.9510055184 
12.34937191 1.101962924 -2.000709772 0.9510056376 
12.28814888 1.650219679 -2.000711441 0.9510055184 
12.20259953 2.19520998 -2.000715256 0.9510054588 
12.09291267 2.735861778 -2.000721455 0.95100528 
11.95928955 3.271098614 -2.000730038 0.9510051012 
11.19148445 5.337060452 -2.000786543 0.9510037303 
10.9430933 5.829668045 -2.000806093 0.9510033131 
9.738562584 7.675483227 -2.000908136 0.9510007501 
9.387607574 8.101218224 -2.000939369 0.9510000944 
8.226180077 9.279074669 -2.001039743 0.9509978294 
7.805461407 9.636012077 -2.00107646 0.9509968162 
7.369234562 9.973876953 -2.001114607 0.9509959221 
6.918410301 10.29201126 -2.001154184 0.9509949684 
5.976486683 10.86665916 -2.001238108 0.9509929419 
5.487299919 11.12200928 -2.001281738 0.9509919286 
3.431735754 11.91896057 -2.001468182 0.9509873986 
2.898210287 12.06010628 -2.001517057 0.9509862661 
2.358923197 12.17738819 -2.001566648 0.9509851336 
1.267337561 12.33948708 -2.0016675 0.9509826899 
0.7171947956 12.38394737 -2.00171876 0.9509814978 
-0.9375548959 12.37019157 -2.00187397 0.9509777427 
-4.168640137 11.68634224 -2.002182484 0.9509703517 
-4.795868397 10.41217899 -1.849851489 0.9546146393 
-6.139498234 9.681899071 -1.849983335 0.9546114802 
-6.976000786 9.098300934 -1.850062251 0.9546096325 
-7.373968124 8.779145241 -1.850097656 0.9546087384 
-7.757348537 8.442587852 -1.850131392 0.954607904 
-8.477338791 7.72001791 -1.850203037 0.9546061754 
-8.816643715 7.338830471 -1.851102591 0.9545846581 
-9.430589676 6.523798466 -1.850429296 0.954600811 
-9.9059515 6.219909668 -1.887485743 0.9537130594 
-10.79451752 6.125895977 -2.002833128 0.9509548545 
-11.05649757 5.639736176 -2.0028615 0.9509541392 
-11.29657936 5.14238739 -2.002887964 0.9509534836 
-12.02909279 3.06117177 -2.002973318 0.9509515166 
-12.15345573 2.523066282 -2.002989292 0.9509510994 
-12.25374031 1.979946256 -2.00300312 0.9509508014 
-12.40841198 0.3313744962 -2.003030777 0.9509501457 
-12.41090584 -0.2209179699 -2.003035545 0.9509500265 
-12.38879776 -0.7727783322 -2.00303793 0.9509499669 
-12.17566299 -2.414887667 -2.003031015 0.9509501457 
-12.05616283 -2.954106331 -2.00302434 0.9509502649 
-11.74576855 -4.013906002 -2.003003597 0.9509507418 
-11.34236908 -5.041894436 -2.002974033 0.950951457 
-11.10675526 -5.54140377 -2.002956152 0.9509519339 
-10.84913826 -6.029919147 -2.002935648 0.9509524107 
-10.57004833 -6.506489277 -2.002913475 0.9509529471 
-9.949685097 -7.420009613 -2.002862692 0.9509541392 
-7.456396103 -6.095048904 -1.554058075 0.961730957 
-6.23246336 -6.095304966 -1.406736135 0.9652950764 
-5.693288326 -6.086557388 -1.344877601 0.9667955041 
-5.210590839 -6.092563152 -1.293658137 0.9680397511 
-4.759631157 -6.09457016 -1.247841358 0.9691540003 
-4.331027508 -6.08558321 -1.205320835 0.9701892138 
-3.641557455 -6.221845627 -1.163329482 0.9712127447 
-3.411310911 -6.472795486 -1.180679679 0.9707897305 
-4.786940575 -11.4485321 -2.002414465 0.9509648681 
-4.27284193 -11.64986992 -2.002368689 0.950965941 
-3.750300169 -11.82814407 -2.002321959 0.9509670138 
-3.220351458 -11.9829607 -2.002274275 0.9509682059 
-2.142468214 -12.22116661 -2.002176046 0.9509705305 
-1.047800303 -12.3625679 -2.002074957 0.9509730339 
0.1471972615 -3.004775286 -0.4854554534 0.9878848195 
0.2801367044 -2.988994122 -0.4844407439 0.9879099727 
0.5482836962 -2.971747875 -0.4876379371 0.9878306985 
0.6851855516 -2.967153311 -0.4914034903 0.987737298 
0.8266772032 -2.970312357 -0.4975301921 0.9875853658 
0.9731371999 -2.976948261 -0.5053974986 0.9873902202 
1.593317866 -2.959069729 -0.5423192978 0.9864753485 
1.766052246 -2.956713915 -0.5557488799 0.986142695 
7.280734539 -10.03985119 -2.001270056 0.950992167 
8.143896103 -9.352617264 -2.001183748 0.9509942532 
8.942558289 -8.591425896 -2.001103163 0.9509962201 
9.670438766 -7.762287617 -2.001027822 0.9509979486 
10.00598335 -7.324306488 -2.000993013 0.9509987831 
10.32172585 -6.871840477 -2.000960112 0.950999558 
11.1440258 -5.436650276 -2.000871897 0.9510017037 
11.58283901 -4.424560547 -2.000823259 0.9510028958 
11.76808071 -3.904897451 -2.00080204 0.9510033727 
11.93001461 -3.377512217 -2.000782967 0.9510038495 
12.18279552 -2.303784132 -2.000751257 0.9510045648 
12.27313423 -1.759558082 -2.000738382 0.9510049224 
12.33919621 -1.211855412 -2.000728369 0.9510051608 
11.83533192 3.694719076 -2.000738382 0.9510048628 
11.23852062 5.237214088 -2.000782967 0.9510038495 
10.72878838 6.215493202 -2.000823259 0.9510028362 
10.4417944 6.686674595 -2.000846624 0.9510022998 
10.13414288 7.14463377 -2.000871897 0.9510017037 
9.4593153 8.017307281 -2.000932932 0.9510002732 
7.457654953 9.907881737 -2.001106739 0.9509960413 
7.009664059 10.23001671 -2.001146317 0.9509951472 
5.586055756 11.07267284 -2.001272917 0.9509921074 
5.088090897 11.31045055 -2.001317739 0.9509910941 
4.580030441 11.52585506 -2.001363516 0.9509899616 
4.062884331 11.71845722 -2.001410723 0.9509888291 
3.537674427 11.88787651 -2.001458406 0.9509876966 
-0.2760083079 12.40220928 -2.001811743 0.9509792328 
-1.377288818 12.32923603 -2.001915693 0.950976789 
-1.924423814 12.25607872 -2.001967669 0.9509755373 
-2.467779398 12.15866661 -2.002019405 0.9509742856 
-3.00627017 12.03715992 -2.002070665 0.9509730935 
-5.163498878 10.23509121 -1.849887371 0.9546138048 
-6.053042412 9.736112595 -1.849974751 0.9546117187 
-6.48029232 9.457429886 -1.850016594 0.9546107054 
-7.295537949 8.844367027 -1.8500911 0.9546089172 
-7.681896687 8.511236191 -1.850124478 0.9546080828 
-8.746883392 7.413491249 -1.850230694 0.9546055198 
-9.372563362 6.607746601 -1.850505471 0.9545989037 
-9.725577354 6.228027344 -1.863605499 0.9542850256 
-11.00582504 5.737915039 -2.002856016 0.9509542584 
-11.2503252 5.242724419 -2.002882719 0.9509536624 
-11.47254372 4.737138748 -2.002907753 0.9509530663 
-12.23562145 2.088947773 -2.003000498 0.9509508014 
-12.37299442 0.9931396246 -2.003022194 0.9509503245 
-12.40496922 0.4417626858 -2.003029823 0.9509501457 
-12.08198071 -2.846672297 -2.00302577 0.9509502649 
-11.78104115 -3.909199238 -2.003005981 0.9509507418 
-11.59540844 -4.42936039 -2.002992868 0.9509510398 
-11.38681602 -4.940742016 -2.002977371 0.9509513974 
-10.90242195 -5.933129787 -2.002939939 0.9509522915 
-10.33168888 -6.878486156 -2.002894163 0.950953424 
-7.620595455 -6.116972446 -1.576874614 0.9611801505 
-6.347612381 -6.098376274 -1.420424104 0.9649633765 
-5.796774864 -6.08771944 -1.356476665 0.966514051 
-4.413058758 -6.085449219 -1.213028431 0.9700015187 
-3.703959942 -6.201179028 -1.165583134 0.9711577296 
-3.447372913 -6.402392387 -1.173389435 0.970967412 
-4.376381874 -11.61142826 -2.002377987 0.9509657621 
-3.8554492 -11.79434013 -2.002331495 0.950966835 
-0.01469726488 -3.303771973 -0.533126533 0.9867030382 
0.1207519472 -3.013273954 -0.4866355658 0.9878555536 
0.3862231374 -2.976247549 -0.4842965603 0.9879135489 
0.7978930473 -2.96895504 -0.4960934222 0.9876209497 
1.093732834 -2.982040882 -0.512550652 0.987212956 
1.246010661 -2.979968309 -0.5212144256 0.9869982004 
1.398889184 -2.967309475 -0.5293697715 0.9867961407 
1.731074214 -2.957617044 -0.5530017018 0.9862107635 
6.734606743 -10.41440201 -2.001323938 0.9509910941 
7.191152096 -10.10426998 -2.001278877 0.9509919882 
7.633327484 -9.774171829 -2.00123477 0.9509930611 
9.600988388 -7.848081112 -2.001034975 0.9509978294 
9.940420151 -7.413105488 -2.000999928 0.9509986639 
10.55960655 -6.500068188 -2.000934839 0.9510002136 
10.83814144 -6.023810863 -2.000905037 0.9510009289 
11.73286629 -4.009494305 -2.000806093 0.9510033131 
11.89951897 -3.483525276 -2.000786543 0.9510037303 
12.0425806 -2.950720072 -2.000769138 0.9510042071 
12.37447453 -0.771889627 -2.000721455 0.95100528 
12.39404774 0.3309912086 -2.000711441 0.9510055184 
12.367033 0.8819994926 -2.000709772 0.951005578 
12.13967037 2.520202637 -2.000718832 0.9510053396 
