# .PCD v0.7 - Point Cloud Data file format
VERSION 0.7
FIELDS x y z intensities
SIZE 4 4 4 4
TYPE F F F F
COUNT 1 1 1 1
WIDTH 943
HEIGHT 1
VIEWPOINT 0 0 0 1 0 0 0
POINTS 943
DATA ascii
-14.29217529 -16.1213932 1.677571535 0.9171916246 
-12.8302269 -15.83920574 1.587184548 0.9214732051 
-12.13125706 -16.41907501 1.589585662 0.9213591814 
-8.408430099 -21.72155952 1.813660383 0.9107826948 
-8.391061783 -24.91641808 2.047191858 0.8998889327 
-12.06185246 -41.89256668 3.394500017 0.8395362496 
-10.06476784 -41.88167953 3.35397625 0.8412908912 
-9.752472878 -94.95571899 7.43266058 0.6818287969 
13.78247738 -114.1618118 8.953966141 0.6304286122 
14.55526066 -47.36499786 3.858309746 0.8197106719 
15.59065628 -43.70701218 3.613302469 0.8301244974 
17.8149395 -43.69488144 3.674243689 0.8275221586 
14.43474293 -25.17386436 2.259554148 0.89009583 
14.3291378 -20.51805305 1.948682308 0.9044681787 
14.80640316 -19.31091499 1.894776106 0.9069840312 
12.86684322 -12.80972099 1.413735747 0.9297455549 
17.69825935 -14.7317009 1.793022633 0.9117517471 
20.29105759 -15.41503143 1.984196544 0.9028146863 
22.38316536 -15.48395729 2.119258165 0.8965536952 
24.51353645 -15.39201355 2.253846884 0.89035815 
27.09752083 -15.37794113 2.426038027 0.8824923635 
30.27131081 -15.44096375 2.646025419 0.8725464344 
43.1316185 -17.36181831 3.620342255 0.829823494 
50.68764496 -15.32976246 4.123371601 0.808591485 
117.5225067 12.59895229 9.203392982 0.6223735809 
111.1070938 16.93940163 8.751378059 0.6370388269 
67.1269989 13.31358624 5.328697205 0.7599012852 
55.64212799 13.6337719 4.460762978 0.7946559191 
25.9908371 11.55337906 2.214727879 0.8921540976 
14.27760696 8.788710594 1.305478692 0.9349463582 
64.36222839 43.68195343 6.056819916 0.7319197059 
38.16896439 34.1425972 3.987588406 0.8142687082 
50.81520462 49.69696045 5.534468174 0.751886785 
30.3436718 32.4397583 3.458734035 0.8367623687 
27.72887802 32.42249298 3.32195735 0.8426803946 
18.01938438 34.19074631 3.009380341 0.856362164 
17.87790108 48.74383545 4.042700768 0.8119596839 
17.83677673 56.2556076 4.59528017 0.7891672254 
-12.43694019 89.58559418 7.042524338 0.6956740022 
-28.21200371 101.3687973 8.193114281 0.6556292772 
-37.66320801 99.9282074 8.315272331 0.6515154839 
-48.13270569 89.39097595 7.905359268 0.6654227376 
-12.90228939 0.6896142364 1.006076217 0.9494814873 
-12.88852978 0.1147094667 1.003610611 0.9496021271 
-109.3316345 -23.71422958 8.711105347 0.638361752 
-43.73374939 -13.65267277 3.567418098 0.8320891261 
-26.00156403 -13.55596924 2.283253908 0.8890093565 
-23.23470497 -13.46056843 2.090855837 0.8978666067 
-21.0007267 -13.44839096 1.941783547 0.9047896266 
-19.06049347 -13.43781471 1.815912843 0.9106769562 
-17.35336113 -13.4285078 1.708543181 0.9157289863 
-15.83394241 -13.42022705 1.616184473 0.9200974107 
-14.46782398 -13.41277599 1.536181092 0.9238980412 
-14.3010273 -14.49323463 1.58542335 0.9215568304 
-12.86753654 -15.59936714 1.57456553 0.9220725894 
-12.35306358 -16.41163254 1.599450231 0.9208911657 
-9.817358017 -17.47995377 1.561060548 0.9227144718 
-10.54900646 -94.43413544 7.398891926 0.6830163002 
12.29412842 -49.22596741 3.950732946 0.815816164 
14.47361088 -48.63676834 3.951260805 0.8157942891 
15.15438652 -43.70938492 3.602200747 0.8305992484 
19.65196419 -43.68488312 3.729893684 0.825152874 
21.85602188 -43.32294846 3.778326988 0.8230956197 
14.43763924 -25.7063942 2.29572916 0.8884382844 
14.53645706 -19.31238556 1.882149816 0.9075742364 
15.92408943 -19.30482674 1.948587179 0.9044726491 
17.41634941 -19.29669189 2.024038792 0.900963068 
17.4553299 -16.18241501 1.853392124 0.9089199901 
17.87057877 -15.14639854 1.824067831 0.9102945328 
21.85298538 -15.40652084 2.081957102 0.8982784152 
29.62391853 -15.44449425 2.601350069 0.8745573759 
32.93123627 -15.34616375 2.828961611 0.8643603325 
43.12202072 -15.59859562 3.570645571 0.831951201 
49.13328934 -15.33822918 4.007875443 0.8134179711 
61.1251564 -16.13575363 4.922581673 0.7759698629 
81.02320862 -6.503664494 6.329213142 0.721718967 
117.8047791 11.56967545 9.217068672 0.6219351292 
69.26074219 13.09721375 5.488599777 0.7536658049 
112.0528488 26.40109062 8.963963509 0.6300991774 
55.47860336 15.70658875 4.489653111 0.793473959 
24.32319832 11.86617565 2.107304096 0.8971062303 
64.46202087 42.91680527 6.03003931 0.7329307199 
62.93608093 46.06894302 6.073171139 0.7313037515 
60.31881714 48.41704941 6.022662163 0.7332087755 
37.80986786 33.22042084 3.919029474 0.8171502352 
18.02294922 33.47185898 2.960112333 0.8585391641 
18.00384521 37.32466888 3.226744413 0.8468247056 
19.20719337 44.81135559 3.7962749 0.8223351836 
17.84587479 54.59311295 4.472275257 0.7941848636 
-19.58491325 111.7169418 8.831548691 0.6344125271 
-19.82022667 89.4553299 7.134405136 0.6923882365 
-37.49826813 89.68103027 7.568902016 0.6770589948 
-71.69661713 91.80496979 9.070086479 0.626662612 
-12.89124107 0.2294897437 1.003941774 0.9495859146 
-12.87786674 -0.3439038098 1.003098011 0.949627161 
-67.43857574 -14.00028515 5.363090515 0.7585551143 
-53.63430405 -13.64895248 4.309367657 0.8008791804 
-19.42818642 -13.43981647 1.839476705 0.9095719457 
-16.12459183 -13.4218092 1.633591413 0.9192724228 
-14.73016071 -13.41421127 1.55129981 0.9231786728 
-14.3024044 -14.23888397 1.571465254 0.9222199321 
-14.29523373 -15.55799007 1.645163059 0.9187244773 
-12.36648178 -16.12869263 1.582535505 0.9216939807 
-8.513495445 -12.19056416 1.157789707 0.9420882463 
-8.427047729 -18.29574394 1.568462372 0.9223626852 
-8.398522377 -23.54454231 1.946451187 0.9045722485 
-10.85789299 -41.8860054 3.369268656 0.8406282663 
-13.34568596 -110.5440216 8.67007637 0.6397134066 
11.85519218 -49.33198929 3.95062685 0.8158210516 
14.03982639 -48.76237106 3.951155901 0.8157986403 
14.7207346 -43.71174622 3.59145999 0.8310592771 
19.18746376 -43.68741226 3.715378284 0.8257700801 
21.48468018 -43.54628754 3.780980825 0.8229831457 
14.35950375 -26.10886002 2.320169449 0.8873203397 
14.42658424 -23.67185211 2.15854907 0.8947403431 
14.33351326 -21.32296562 2.000581741 0.9020528793 
17.10868835 -19.29837036 2.008165121 0.9017003179 
17.22725296 -16.25843048 1.844466329 0.9093381166 
20.15713501 -15.88693523 1.998435497 0.9021524787 
23.70107079 -15.47676945 2.204117298 0.8926420212 
32.30810547 -15.40719891 2.787103891 0.8662267327 
36.39310074 -15.40761948 3.077263117 0.853372097 
58.5826149 -16.02357101 4.729120255 0.7837436199 
66.78362274 15.10899639 5.331560135 0.7597888708 
54.88576889 15.01248264 4.43069458 0.7958883047 
109.57827 35.28101349 8.963728905 0.630106926 
23.41084099 13.84232616 2.117708921 0.8966252208 
64.35418701 42.02322006 5.984722614 0.7346438766 
61.43781281 48.4225769 6.09112978 0.7306269407 
51.24958801 48.36748886 5.487143517 0.7537226677 
31.44636917 32.44145966 3.51803875 0.8342092037 
21.77342224 32.39080811 3.038995266 0.8550565243 
18.12231255 32.95048904 2.928159714 0.8599541187 
18.00793839 36.49947357 3.169133186 0.8493421674 
17.891716 46.21982956 3.859163761 0.8196746111 
17.85449982 53.01716614 4.356016636 0.7989565134 
-12.11617374 100.3596573 7.871290684 0.6665917039 
-19.40750694 91.43812561 7.278473854 0.6872673035 
-28.98803902 111.8256836 8.995156288 0.6290868521 
-71.61359406 93.40032959 9.164367676 0.6236254573 
-100.825386 20.9313736 8.018200874 0.6615647674 
-106.8849487 17.2703495 8.430589676 0.6476558447 
-12.90793705 0.9205761552 1.007634759 0.9494051933 
-12.89396954 0.344343245 1.004351974 0.9495658278 
-110.6584167 -21.94738388 8.784303665 0.6359587908 
-46.69133759 -13.66879082 3.788231134 0.8226758838 
-39.89031219 -13.63171577 3.282432079 0.8443980813 
-30.55163002 -13.58076859 2.60336113 0.8744665384 
-21.85501862 -13.45304871 1.998314619 0.9021580219 
-16.42160034 -13.42342949 1.651510477 0.9184239507 
-14.997756 -13.41566658 1.566843987 0.9224395752 
-14.28898621 -16.70768356 1.711839437 0.915573597 
-12.64411831 -16.19035912 1.599565268 0.9208856225 
-8.695741653 -12.21844196 1.167612076 0.9416053295 
-11.30902576 -17.48808861 1.62163496 0.9198389649 
-9.210651398 -17.47664261 1.538249969 0.9237995744 
-8.429304123 -17.88010979 1.539198995 0.9237543344 
-8.401979446 -22.90794182 1.899926305 0.9067431688 
-8.270114899 -47.17478561 3.729302883 0.8251775503 
13.6049242 -48.88412094 3.951050282 0.8158029914 
14.53957272 -44.47844696 3.643678427 0.8288261294 
16.47151566 -43.70220566 3.63657093 0.8291298747 
18.72657394 -43.68992996 3.701270103 0.8263704777 
21.00616455 -43.54889679 3.764835119 0.8236684203 
18.36964989 -19.29150009 2.074215889 0.8986368775 
17.00136375 -16.33373833 1.835772514 0.909745574 
17.85921669 -15.69142818 1.85112524 0.9090262651 
21.0532341 -15.41088104 2.03158021 0.9006131887 
23.13049507 -15.39955807 2.163717031 0.8945021629 
28.39235497 -15.45120335 2.516955137 0.8783686757 
31.63562584 -15.43353748 2.740829945 0.8682945371 
46.03324127 -15.27481174 3.776581287 0.8231700063 
54.05211639 -15.30272675 4.374219894 0.7982077599 
61.20561218 -14.42082691 4.896304131 0.7770212889 
72.97387695 -10.4620018 5.740255833 0.7439565063 
109.8235245 34.28440094 8.958491325 0.6302774549 
25.10836411 11.70066166 2.156940222 0.8948146701 
23.39051437 13.55080414 2.104877234 0.8972182274 
23.32914734 14.93942356 2.157078266 0.8948081732 
39.63017654 30.66696167 3.901846886 0.8178741932 
38.3982811 32.54488373 3.919348717 0.8171367049 
49.10858154 49.76860428 5.44423008 0.7553910613 
29.27231407 32.43268204 3.401888847 0.8392171264 
18.31768608 32.61496353 2.912701845 0.8606387973 
19.26134872 42.81660461 3.655745268 0.8283109069 
17.86268806 51.52080917 4.245970249 0.8034998178 
-20.29505157 99.99290466 7.944739819 0.6640736461 
-28.2768383 113.2206726 9.08677578 0.6261243224 
-7.556695461 9.161005974 0.9246913195 0.9534714222 
-12.91079712 1.036337852 1.008538008 0.9493610263 
-12.89672089 0.4593041837 1.004844785 0.949541688 
-12.88315964 -0.1146459952 1.003192544 0.9496225715 
-12.87004948 -0.6878808737 1.003563643 0.9496044517 
-12.92201519 -1.269094229 1.011019111 0.9492396712 
-56.83951187 -13.39213562 4.547018528 0.7911318541 
-37.26961517 -14.23672104 3.106539249 0.8520858884 
-37.2591095 -16.16674995 3.162526846 0.8496310115 
-24.89857864 -13.54995823 2.207235098 0.8924985528 
-22.3011322 -13.45549011 2.028075933 0.9007756114 
-20.19318581 -13.44398689 1.888948798 0.9072563052 
-14.29059792 -16.41159439 1.69446671 0.9163935781 
-11.53181362 -17.48929977 1.631199718 0.9193857908 
-10.44281483 -17.48336601 1.585705638 0.921543479 
-8.431484222 -17.47971916 1.51113081 0.9250912666 
-8.419723511 -19.64359665 1.664136171 0.9178265929 
-8.387042999 -25.65723801 2.101842403 0.8973584175 
-11.65847874 -41.89036942 3.385780573 0.839913547 
-9.670822144 -41.87953186 3.346781492 0.8416029811 
-8.293014526 -44.94971466 3.559094667 0.8324461579 
13.16901588 -49.00199127 3.950944662 0.8158072829 
18.04668236 -19.29325867 2.057055235 0.8994318247 
12.9942503 -12.70826912 1.415249705 0.9296730757 
20.16036415 -16.4795723 2.027521133 0.9008015394 
22.81105614 -15.48161793 2.146639109 0.8952896595 
27.80582237 -15.45440197 2.47705698 0.8801762462 
30.94136429 -15.43731689 2.692479134 0.870460391 
34.68252563 -15.41693115 2.955363035 0.8587492108 
60.99314499 -14.94491863 4.889748573 0.7772836089 
73.10665131 -11.14587116 5.758266449 0.7432661653 
23.30169106 13.22379112 2.086212158 0.8980816007 
14.24776363 8.946148872 1.309979677 0.9347296357 
49.99541855 49.7734375 5.493212223 0.7534868121 
29.80353737 32.43619156 3.429936409 0.8380049467 
27.23026085 32.4192009 3.296653271 0.8437796235 
25.25566101 32.93908691 3.231967688 0.8465968966 
22.62325859 32.39447021 3.076636791 0.8533997536 
20.53632355 32.38548279 2.98597455 0.8573955894 
18.59218025 32.42445755 2.910353422 0.8607431054 
18.01569939 34.9341507 3.06057477 0.8541061282 
19.26675034 41.82962799 3.585975885 0.8312941194 
17.8271637 58.01229477 4.725630283 0.7838846445 
-19.45676041 100.4410782 7.966269493 0.6633372903 
-28.82308769 100.1064148 8.11149025 0.6583923101 
-7.454588413 9.202847481 0.9221824408 0.9535947442 
-107.7312317 40.05757523 8.949645996 0.6305633783 
-12.89949512 0.5743823051 1.005420923 0.9495135546 
-12.88583469 0 1.00336194 0.949614346 
-12.85984993 -1.147514582 1.005316257 0.949518621 
-109.1760559 -19.64068604 8.637495995 0.6407872438 
-42.38042831 -13.64528561 3.466794968 0.836414516 
-37.2716713 -13.85869312 3.096307278 0.8525352478 
-28.45416641 -13.56932831 2.454637289 0.8811935782 
-25.28844833 -13.47176456 2.231077671 0.891402781 
-22.76076317 -13.45799065 2.05890274 0.899345994 
-20.59135437 -13.44616413 1.914924145 0.9060427547 
-18.702034 -13.43586159 1.793083906 0.9117487669 
-15.54939651 -13.41867447 1.599264622 0.9208997488 
-14.30641365 -13.50186729 1.531741738 0.9241094589 
-12.8302269 -15.83918667 1.587183952 0.9214732647 
-12.13123226 -16.41907501 1.58958602 0.921359241 
-10.65574932 -17.48452377 1.594348311 0.9211331606 
-9.613117218 -17.47883987 1.553257227 0.9230854511 
-8.62096405 -17.47343445 1.517162919 0.9248039126 
-8.422260284 -19.17640877 1.630847335 0.9194024801 
-8.408430099 -21.72152138 1.813657284 0.910782814 
-12.06178474 -41.89256668 3.394498825 0.8395363092 
-10.0647192 -41.88167953 3.353981256 0.8412909508 
12.73206234 -49.11588669 3.950838566 0.8158118725 
14.55526066 -47.36499786 3.858309746 0.8197106719 
20.12010002 -43.68232346 3.744806528 0.8245186806 
14.45020199 -28.02014351 2.454848528 0.8811840415 
14.80640316 -19.31091499 1.894776464 0.9069840312 
17.72892761 -19.29499245 2.040330648 0.9002071619 
12.86684036 -12.80973625 1.413735747 0.9297455549 
17.6229763 -16.04854202 1.855951667 0.9088001251 
17.69822884 -14.73165226 1.793016434 0.9117519259 
20.29109573 -15.41503143 1.984199286 0.9028145671 
22.38319588 -15.48394775 2.119260073 0.8965536356 
30.27130508 -15.44096851 2.646025419 0.8725464344 
33.80717087 -15.38965034 2.892332077 0.8615427613 
50.68782043 -15.32976246 4.123383045 0.8085909486 
102.5473022 -21.28886414 8.155158997 0.6569132805 
55.64212799 13.6337719 4.460762978 0.7946559191 
23.95910263 11.953722 2.084893942 0.8981426358 
23.21497726 12.90281487 2.068083525 0.8989207745 
62.93093491 46.93093491 6.112730026 0.7298144698 
27.72885132 32.42249298 3.32195735 0.8426804543 
18.01938629 34.19070816 3.009377956 0.8563622832 
18.73578644 44.80876541 3.781777143 0.8229496479 
17.83677864 56.2556572 4.595283508 0.7891670465 
-28.21199799 101.3683167 8.193078041 0.6556305289 
-37.66331863 99.92822266 8.315274239 0.6515153646 
-7.399890423 9.303432465 0.9256241918 0.9534256458 
-107.2247849 40.95906067 8.937514305 0.6309580803 
-13.09081554 1.285673857 1.02422595 0.9485939145 
-12.88852787 0.1147290021 1.003610611 0.9496021271 
-12.87524128 -0.4585668743 1.003172159 0.9496235847 
-81.04928589 -13.83726788 6.402259827 0.7190074921 
-51.88690186 -13.69711685 4.178599358 0.8062937856 
-43.73366928 -13.65265846 3.567412138 0.8320894241 
-37.42528915 -13.53796101 3.098928213 0.8524196744 
-37.26335907 -15.38644695 3.139146566 0.8506553769 
-26.00156403 -13.55596924 2.283253908 0.8890093565 
-23.23474503 -13.46056843 2.090858936 0.8978664875 
-21.00077438 -13.44839096 1.941785693 0.9047895074 
-19.06054115 -13.43781471 1.81591475 0.9106767774 
-15.83398628 -13.42022705 1.616186023 0.9200972319 
-14.3010273 -14.49329281 1.585426807 0.9215567112 
-12.35304928 -16.41168213 1.599450469 0.9208910465 
-10.87104702 -17.48569489 1.603213668 0.920712471 
-9.817340851 -17.47995377 1.561059952 0.9227145314 
-8.815710068 -17.47448921 1.524003983 0.9244778752 
-6.291643143 -21.14222908 1.717594147 0.9153020382 
-8.498762131 -41.87314224 3.326949358 0.8424634337 
12.29413795 -49.22589874 3.950732946 0.8158164024 
14.47363472 -48.6367569 3.951260805 0.8157942891 
15.15438652 -43.70938492 3.602200747 0.8305992484 
17.36403084 -43.69734192 3.661310434 0.8280737996 
14.43763924 -25.70645714 2.295734882 0.888438046 
14.36762428 -23.10982704 2.11887455 0.8965712786 
17.4164238 -19.29669571 2.024042368 0.9009628892 
19.03217888 -19.2878933 2.10992074 0.8969851136 
17.45536804 -16.18239403 1.853393316 0.9089199305 
20.15555954 -15.59689617 1.984438896 0.9028033614 
24.16429329 -15.47424507 2.234302521 0.8912549019 
43.13405228 -17.81052399 3.633708954 0.8292521834 
43.12200928 -15.59864998 3.570647478 0.8319511414 
49.13313293 -15.33822918 4.007862568 0.813418448 
61.12510681 -16.1358223 4.922579765 0.7759699225 
100.528511 -21.80493927 8.00972271 0.6618542671 
117.804657 11.56980228 9.217063904 0.6219354272 
69.26062012 13.0972681 5.488590717 0.7536661029 
112.0528488 26.40109062 8.963963509 0.6300991774 
55.47860336 15.70658875 4.489653111 0.793473959 
75.18070221 32.62091064 6.381302357 0.7197844386 
23.1303196 12.58758354 2.050480843 0.8997365236 
64.46233368 42.91680527 6.030058384 0.732929945 
60.31856155 48.41704941 6.022647381 0.7332093716 
37.81031036 33.22092819 3.919086218 0.8171480298 
50.81996155 48.8245697 5.487444401 0.7537103891 
28.23518753 32.42583466 3.347909451 0.8415542245 
23.49462509 32.39822388 3.116216898 0.8516610265 
21.35615158 32.38901138 3.020870924 0.8558553457 
19.34076691 32.38033676 2.93682909 0.85956949 
18.02294922 33.47185898 2.960112333 0.8585391641 
18.00384521 37.32466888 3.226744413 0.8468247056 
17.8849678 47.45232773 3.94863081 0.8159047961 
17.84587669 54.59284973 4.472255707 0.7941856384 
-19.58491325 111.7169418 8.831548691 0.6344125271 
-37.49827194 89.68146515 7.568933487 0.6770579219 
-47.29669952 100.32547 8.636269569 0.6408219337 
-47.23822021 89.63215637 7.889137268 0.665977478 
-107.4070587 36.70437241 8.838148117 0.6341966987 
-99.45436096 19.72502708 7.894892216 0.6657814384 
-12.87786484 -0.3439135551 1.003097653 0.949627161 
-67.43857574 -14.00028515 5.363090515 0.7585551143 
-44.90866089 -13.58195972 3.653251886 0.8284172416 
-29.82495117 -13.57680416 2.551628113 0.8768004775 
-26.58191872 -13.55912304 2.323534966 0.8871663213 
-17.67844963 -13.43028069 1.728719234 0.9147776961 
-16.1245594 -13.4218092 1.63359046 0.9192724824 
-14.28734112 -17.0099144 1.729711056 0.9147309661 
-12.36648178 -16.12869263 1.582535505 0.9216939807 
-10.02370358 -17.48107719 1.56906867 0.9223338962 
-9.012291908 -17.47556305 1.531036854 0.9241430759 
-8.427047729 -18.29570007 1.568459272 0.9223628044 
-8.414319038 -20.63781357 1.735401988 0.9144625664 
-8.398525238 -23.54470825 1.946463704 0.9045716524 
-6.501213074 -21.15613937 1.72335732 0.9150303602 
-8.887814522 -41.87526321 3.33327198 0.8421891928 
-8.327087402 -50.11870956 3.956015587 0.8155943155 
-13.34556866 -110.5440292 8.670074463 0.6397134066 
11.85514355 -49.33201218 3.95062685 0.815820992 
14.03976822 -48.76239014 3.951155901 0.8157986403 
14.7206707 -43.71174622 3.591458559 0.8310593367 
16.91614914 -43.69978333 3.648755312 0.8286097646 
19.18758965 -43.68741226 3.715383291 0.8257699013 
14.35950375 -26.10871315 2.320156097 0.8873208165 
14.33350754 -21.32291222 2.000578165 0.9020529985 
17.22725296 -16.25843048 1.844466329 0.9093381166 
18.0055294 -15.53822994 1.851881504 0.9089907408 
20.15713501 -15.8869648 1.998437047 0.9021524191 
21.4481945 -15.40873241 2.056377411 0.8994631767 
32.30807877 -15.40726757 2.787103891 0.8662267327 
43.12439346 -16.03480721 3.582516909 0.8314425349 
47.41846466 -15.26725769 3.878922701 0.8188406229 
100.2295303 -22.67561722 8.001654625 0.662129283 
66.78366852 15.1089325 5.331562519 0.7597887516 
54.88581848 15.01235294 4.430695534 0.7958882451 
109.5783081 35.28130722 8.963737488 0.6301066279 
23.41084099 13.84235287 2.117709875 0.8966251612 
64.35404968 42.02322006 5.984715462 0.7346442342 
38.57414627 33.28833771 3.967384577 0.8151168227 
31.44636917 32.44145966 3.51803875 0.8342092037 
28.74966431 32.42922974 3.374552011 0.8403998613 
26.25533295 32.41276169 3.247967482 0.8458993435 
21.77346611 32.39080811 3.03899765 0.8550564051 
19.73496056 32.3820343 2.952800274 0.8588625193 
17.85449982 53.01733398 4.356028557 0.798955977 
-19.40751266 91.43900299 7.278532505 0.6872649789 
-71.61359406 93.40032959 9.164367676 0.6236254573 
-106.8849487 17.2703495 8.430589676 0.6476558447 
-12.90793705 0.9205761552 1.007634759 0.9494051933 
-12.89396954 0.344343245 1.004351974 0.9495658278 
-12.88050652 -0.2292773426 1.003104687 0.949626863 
-46.69094467 -13.66879082 3.788198233 0.8226771355 
-39.89003754 -13.63170624 3.282411337 0.844399035 
-37.26754379 -14.61737061 3.117083073 0.8516228199 
-27.18341827 -13.56241417 2.365467072 0.8852515817 
-14.3037672 -13.98896694 1.557871819 0.922866106 
-14.29672623 -15.28429413 1.629613161 0.9194608927 
-14.28898621 -16.70759964 1.711835146 0.9155738354 
-8.695597649 -12.21829033 1.167596817 0.941606164 
-10.23210144 -17.48221397 1.577276111 0.9219437838 
-9.21060276 -17.47664261 1.538248062 0.9237996936 
-8.417079926 -20.13040733 1.698966503 0.9161810875 
-6.727145672 -21.21686745 1.73311317 0.9145705104 
-9.278581619 -41.87739182 3.33988142 0.8419023156 
13.60502148 -48.88410187 3.951050282 0.8158029318 
21.00616455 -43.54889679 3.764835119 0.8236684203 
14.42922115 -24.15742302 2.191025257 0.8932441473 
14.32498264 -19.75361061 1.899999499 0.9067399502 
15.35738945 -19.30791283 1.920998931 0.9057593346 
16.80571938 -19.3000164 1.992690802 0.9024195671 
18.36955261 -19.29150009 2.074211836 0.898637116 
17.00131035 -16.3337574 1.835767627 0.9097456932 
17.85925102 -15.69137859 1.85112524 0.9090263247 
21.05331802 -15.41088104 2.031585693 0.9006129503 
25.63387299 -15.46624279 2.33115983 0.8868179321 
31.63562584 -15.43353748 2.740829945 0.8682945371 
61.20561218 -14.42082691 4.896304131 0.7770212889 
72.97387695 -10.4620018 5.740255833 0.7439565063 
66.96313477 14.52449894 5.335365295 0.759640038 
109.8235245 34.28440094 8.958491325 0.6302774549 
23.39051437 13.55080414 2.104877234 0.8972182274 
63.85018539 45.0147934 6.083069324 0.7309302092 
39.6302681 30.6669178 3.90184927 0.8178740144 
38.39817047 32.54465103 3.919329643 0.8171374798 
49.10837936 49.76860428 5.444218159 0.7553914785 
29.27218246 32.43267822 3.401882172 0.8392174244 
26.73906517 32.4159584 3.271990776 0.8448525667 
24.59002113 32.66910934 3.183871508 0.8486974239 
22.19564629 32.39263153 3.057574511 0.8542383313 
20.13331032 32.38375092 2.969172239 0.8581382036 
18.31768608 32.61496353 2.912701845 0.8606387973 
-20.29505157 99.99290466 7.944739819 0.6640736461 
-28.2768383 113.2206726 9.08677578 0.6261243224 
-104.2892151 54.37131882 9.157881737 0.6238344312 
-103.287323 37.36238861 8.552520752 0.6435993314 
-12.89672089 0.4592797756 1.004844785 0.949541688 
-109.1705856 -20.64429855 8.651268005 0.6403331161 
-56.83951187 -13.39213562 4.547018528 0.7911318541 
-41.10135651 -13.63831711 3.371960878 0.8405116796 
-37.26961517 -14.23672104 3.106539249 0.8520858884 
-37.2591095 -16.16674995 3.162526846 0.8496310115 
-20.19326401 -13.44398689 1.888952494 0.9072560668 
-18.35240936 -13.4339571 1.770958066 0.9127888083 
-16.72512817 -13.4250803 1.669962287 0.9175514579 
-14.29059792 -16.41159439 1.69446671 0.9163935781 
-12.79238033 -16.0830822 1.600149632 0.9208578467 
-12.19286346 -16.81350708 1.617202878 0.9200490713 
-11.53181362 -17.48929977 1.631199718 0.9193857908 
-9.410905838 -17.4777317 1.545655012 0.9234471321 
-8.405285835 -22.30088997 1.855709076 0.9088113308 
-11.65857601 -41.89036942 3.385781765 0.8399134874 
-9.670724869 -41.87953186 3.346779108 0.8416030407 
13.16901588 -49.00199127 3.950944662 0.8158072829 
14.54718971 -45.88062286 3.747791767 0.8243919015 
18.26898193 -43.69242096 3.687558413 0.8269545436 
14.44690132 -27.41225243 2.412755013 0.8830972314 
14.39029026 -24.58651161 2.218247414 0.8919923902 
14.33812714 -22.17211533 2.055980921 0.8994815946 
14.32703781 -20.13090134 1.92395246 0.9056215882 
22.81105614 -15.48161793 2.146639109 0.8952896595 
27.80582237 -15.45440197 2.47705698 0.8801762462 
43.12918854 -16.91646767 3.607362032 0.8303787112 
44.7191391 -15.28197002 3.679785013 0.8272857666 
60.99301529 -14.94474316 4.88973856 0.7772841454 
73.10665894 -11.14572525 5.758264065 0.7432661653 
25.56136513 11.63594532 2.186869383 0.8934357166 
23.60326385 12.0397625 2.063171864 0.899148345 
23.30170822 13.2238636 2.086216211 0.8980814219 
14.24777699 8.946198463 1.309981823 0.9347294569 
64.3576355 44.52067184 6.093433857 0.7305399179 
62.92570114 47.80453873 6.153309822 0.7282899618 
37.80818939 31.47089577 3.830380201 0.8208913207 
38.32500458 34.90123367 4.036183357 0.8122322559 
27.23026085 32.4192009 3.296653271 0.8437796235 
18.01569939 34.93394852 3.060560942 0.8541067243 
19.26675034 41.82940292 3.585953236 0.831294775 
18.26811218 44.80620956 3.76769042 0.8235470057 
18.01501083 50.50385666 4.175195694 0.8064349294 
17.82715988 58.01273346 4.725661278 0.7838833332 
-7.454588413 9.202847481 0.9221824408 0.9535947442 
-104.2655334 55.54491043 9.198854446 0.6225187182 
-107.7320175 40.05761337 8.949706078 0.630561471 
-100.79953 18.13354301 7.974796772 0.6630462408 
-118.5658569 15.9226923 9.315062523 0.618802309 
-12.93597221 1.154311538 1.011267185 0.9492275715 
-12.87264156 -0.5731909275 1.003326893 0.9496159554 
-12.85984993 -1.147514582 1.005316257 0.949518621 
-109.1760559 -19.64044189 8.637494087 0.6407873631 
-42.3801651 -13.64528561 3.46677494 0.8364153504 
-28.45401764 -13.56932831 2.454626322 0.8811940551 
-25.28833008 -13.4717598 2.231072903 0.8914031386 
-22.76076317 -13.45799065 2.05890274 0.899345994 
-20.59135437 -13.44616413 1.914924145 0.9060427547 
-17.03567123 -13.42677498 1.688965559 0.9166532755 
-15.54939651 -13.41867447 1.599264622 0.9208997488 
-14.30641365 -13.50186729 1.531741738 0.9241094589 
-14.29961872 -14.75213146 1.599760294 0.9208763838 
-12.8302269 -15.83918667 1.587183952 0.9214732647 
-12.13127613 -16.41907501 1.589586616 0.9213591218 
-11.75732613 -17.49053001 1.641009331 0.9189211726 
-8.422260284 -19.17652512 1.630855203 0.9194020629 
-8.391066551 -24.91653442 2.047200441 0.8998885155 
-12.06178474 -41.89256668 3.394498825 0.8395363092 
-10.0647192 -41.88167953 3.353981256 0.8412909508 
-8.371931076 -43.21825027 3.427770376 0.8380984664 
-9.752463341 -94.95571899 7.432661057 0.6818287969 
13.78232193 -114.1617584 8.953819275 0.630428791 
12.7321701 -49.11584854 3.950838566 0.8158118725 
14.43474293 -25.17382431 2.259552479 0.8900959492 
14.34052467 -22.61480141 2.08511138 0.8981325626 
16.2136097 -19.30324364 1.96291852 0.9038051963 
17.72892761 -19.29499245 2.040330648 0.9002071619 
17.69828415 -14.73176003 1.793026567 0.9117515087 
30.27147675 -15.44095898 2.646037579 0.872545898 
33.80716324 -15.38956261 2.892329693 0.8615429401 
61.01644516 -15.52750206 4.902501583 0.7767730355 
117.5223999 12.59872818 9.203384399 0.6223739386 
111.1075363 16.93974304 8.75141716 0.6370375752 
55.64169693 13.63380337 4.460730553 0.7946572304 
64.36222839 43.68195343 6.056819916 0.7319197059 
62.93093491 46.93093491 6.112730026 0.7298144698 
38.1689415 34.14255142 3.987584829 0.8142688274 
50.81520462 49.69683456 5.534461975 0.7518870234 
30.34374237 32.4397583 3.458738327 0.8367622495 
27.72898102 32.42249298 3.32196331 0.8426802158 
23.05605125 32.39633179 3.096171141 0.8525410891 
18.94865608 32.3750267 2.920936823 0.860273838 
17.99960327 38.18068695 3.286760092 0.8442097902 
18.73578644 44.80876541 3.781777143 0.8229496479 
17.87790298 48.7439537 4.042708874 0.8119593263 
17.83677864 56.2556572 4.595283508 0.7891670465 
-12.43712616 89.58559418 7.042529106 0.695673883 
-38.31240082 89.38452148 7.572359562 0.6769385338 
-7.399890423 9.303432465 0.9256241918 0.9534256458 
-100.5172806 19.00796509 7.965528965 0.6633626223 
-13.09081554 1.285673857 1.02422595 0.9485939145 
-12.90228748 0.6896386743 1.006076455 0.9494814873 
-12.88852787 0.114680171 1.003610611 0.9496021271 
-12.87524128 -0.4585668743 1.003172159 0.9496235847 
-12.8623724 -1.032475591 1.004755378 0.9495460987 
-81.04928589 -13.83726788 6.402259827 0.7190074921 
-37.26335907 -15.38644695 3.139146566 0.8506553769 
-29.12621498 -13.57299995 2.502090454 0.8790415525 
-23.23474503 -13.46056843 2.090858936 0.8978664875 
-19.06054115 -13.43781471 1.81591475 0.9106767774 
-17.35339165 -13.4285078 1.708545685 0.9157289267 
-15.83398628 -13.42022705 1.616186023 0.9200972319 
-12.86752892 -15.59941101 1.574567676 0.9220725298 
-8.433107376 -12.30739498 1.161711574 0.9418979287 
-10.87104702 -17.48569489 1.603213668 0.920712471 
-9.817340851 -17.47995377 1.561059952 0.9227145314 
-8.411442757 -21.167799 1.773600221 0.9126644731 
-8.3948946 -24.21315193 1.995466709 0.9022903442 
-10.46045113 -41.88384628 3.361475706 0.8409659863 
-10.54916191 -94.4342041 7.398898602 0.6830160618 
15.15438652 -43.70938492 3.602200747 0.8305992484 
17.36403084 -43.69734192 3.661310434 0.8280737996 
19.65194511 -43.68488312 3.729893208 0.825152874 
21.85602188 -43.32299805 3.778333664 0.8230954409 
14.43763924 -25.70645714 2.295734882 0.888438046 
14.36762428 -23.10982704 2.11887455 0.8965712786 
14.53641319 -19.31238556 1.882147908 0.907574296 
17.4164238 -19.29669571 2.024042368 0.9009628892 
17.87054825 -15.14632511 1.824061751 0.9102947712 
20.15556335 -15.59701824 1.984445572 0.9028030634 
24.16407013 -15.47424507 2.234288216 0.8912555575 
26.6868763 -15.46049976 2.401514769 0.8836089969 
29.62424469 -15.44449425 2.601372719 0.8745563626 
43.13405228 -17.81030083 3.633701801 0.8292524219 
43.12200928 -15.59864998 3.570647478 0.8319511414 
81.02336884 -6.503830433 6.329226494 0.7217184901 
117.8051071 11.56932354 9.217094421 0.6219344139 
110.9934158 15.9127121 8.730927467 0.6377105117 
69.26108551 13.09705734 5.488624573 0.7536648512 
112.0528488 26.40109062 8.963963509 0.6300991774 
55.47920609 15.70701885 4.489707947 0.7934717536 
75.18070221 32.62091064 6.381302357 0.7197844386 
24.32305908 11.86620808 2.107295275 0.8971065879 
23.39726067 14.1169014 2.127765656 0.8961607218 
62.93608093 46.06914902 6.073180199 0.7313033938 
37.81031036 33.22092819 3.919086218 0.8171480298 
25.85323334 32.50367737 3.233879328 0.8465132117 
23.49484825 32.39822388 3.116227865 0.8516606092 
21.35615158 32.38901138 3.020870924 0.8558553457 
19.20722961 44.81135559 3.796275616 0.822335124 
17.8849659 47.45293808 3.948675394 0.8159029484 
-19.58491325 111.7169418 8.831548691 0.6344125271 
-19.82063103 89.4553299 7.134412766 0.6923879981 
-28.39958763 89.568573 7.316476345 0.6859228611 
-12.89124107 0.229523927 1.003941417 0.9495859146 
-12.87786484 -0.3439135551 1.003097653 0.949627161 
-12.8649168 -0.9175512195 1.004276514 0.9495695233 
-67.43857574 -14.00028515 5.363090515 0.7585551143 
-53.63429642 -13.64913273 4.309370518 0.8008790612 
-44.90866089 -13.58195972 3.653251886 0.8284172416 
-37.26545715 -15.00046635 3.127949715 0.8511462212 
-29.8246212 -13.57680416 2.551604986 0.8768015504 
-26.58218384 -13.55913258 2.323553324 0.8871654272 
-23.86638641 -13.54432869 2.136770725 0.8957449794 
-21.42183495 -13.4506855 1.969572306 0.9034950733 
-19.42816353 -13.43982124 1.839474916 0.9095720053 
-16.1245594 -13.4218092 1.63359046 0.9192724824 
-14.73026371 -13.41421127 1.55130446 0.9231783748 
-14.29523373 -15.55813694 1.645171285 0.9187241197 
-8.513495445 -12.19056416 1.157789707 0.9420882463 
-9.012191772 -17.47556305 1.531032562 0.9241432548 
-8.414313316 -20.63807869 1.735420704 0.9144616723 
-8.398522377 -23.54439735 1.946440578 0.9045727253 
-10.8579855 -41.8860054 3.369270563 0.8406282067 
-8.887814522 -41.87526321 3.33327198 0.8421891928 
-8.327306747 -50.11870956 3.956019878 0.8155941963 
-13.34556866 -110.5440292 8.670074463 0.6397134066 
11.85514355 -49.33201218 3.95062685 0.815820992 
14.03997326 -48.76232147 3.951155901 0.8157986999 
14.7206707 -43.71174622 3.591458559 0.8310593367 
16.91635513 -43.69978333 3.648760796 0.8286095262 
14.32298088 -19.38540268 1.876762748 0.9078258276 
15.63862038 -19.30637932 1.934611917 0.9051241875 
17.10868835 -19.29837036 2.008165121 0.9017003179 
18.69820023 -19.28970909 2.091837645 0.897821188 
17.22725296 -16.25843048 1.844466329 0.9093381166 
18.00557327 -15.53813648 1.851879716 0.90899086 
20.15713501 -15.8869648 1.998437047 0.9021524191 
23.70101357 -15.47676945 2.204113483 0.8926422 
32.30815125 -15.4071312 2.787103176 0.8662267327 
47.4177742 -15.26725769 3.878870726 0.8188427687 
100.229599 -22.67609596 8.00166893 0.6621288061 
24.6959343 11.77702141 2.130424261 0.8960378766 
62.94116974 45.217556 6.034557343 0.7327596545 
61.43781281 48.4225769 6.09112978 0.7306269407 
38.57415771 33.28861618 3.967399836 0.8151162267 
31.44611168 32.44146347 3.518024921 0.8342097998 
19.73496056 32.3820343 2.952800274 0.8588625193 
18.00793839 36.49927902 3.169114828 0.8493427634 
17.89171791 46.21943665 3.859135151 0.8196758032 
17.85449982 53.01733398 4.356028557 0.798955977 
-19.40751266 91.43900299 7.278532505 0.6872649789 
-106.88517 17.26988983 8.430599213 0.6476554871 
-12.89396954 0.344343245 1.004351974 0.9495658278 
-12.8805027 -0.2293286026 1.003104687 0.949626863 
-56.59898376 -13.8681221 4.537467957 0.7915213108 
-46.69094467 -13.66879082 3.788198233 0.8226771355 
-39.8905983 -13.63171577 3.282450438 0.8443971872 
-18.01144409 -13.43209648 1.749516726 0.9137977362 
-16.42146111 -13.42341995 1.65150702 0.9184243679 
-14.3037672 -13.98908901 1.557877898 0.9228657484 
-14.29672623 -15.28429413 1.629613161 0.9194608927 
-14.28898621 -16.70775032 1.711843729 0.9155734181 
-11.30907917 -17.48808861 1.621637344 0.9198389053 
-10.23210144 -17.48221397 1.577276111 0.9219437838 
-6.727025986 -21.21681404 1.733106494 0.9145708084 
-11.25720406 -41.88818359 3.377373695 0.8402775526 
-8.270114899 -47.17478561 3.729302883 0.8251775503 
13.6048069 -48.88414764 3.951050282 0.8158029914 
14.53957272 -44.47844696 3.643678427 0.8288261294 
18.72657394 -43.68992996 3.701270103 0.8263704777 
21.00639915 -43.54889679 3.764843702 0.8236681223 
14.43128586 -26.80149078 2.370211601 0.8850352764 
14.42922592 -24.15717506 2.191013098 0.8932449222 
15.35738945 -19.30791283 1.920998931 0.9057593346 
16.80586624 -19.3000164 1.992698431 0.9024192095 
18.36955261 -19.29150009 2.074211836 0.898637116 
17.00141716 -16.33372307 1.835771918 0.9097455144 
17.85918617 -15.69146729 1.851125956 0.9090262651 
23.13060188 -15.39955807 2.163724661 0.8945018053 
25.63363457 -15.4662323 2.331144571 0.886818707 
28.39235497 -15.45120335 2.516955137 0.8783686757 
61.20561218 -14.42082691 4.896304131 0.7770212889 
81.01966858 -7.956730843 6.338994026 0.721355319 
66.96318054 14.52422619 5.335365295 0.7596400976 
55.03369904 14.52779961 4.432023048 0.7958338261 
25.10836411 11.70066166 2.156940222 0.8948146701 
23.39051437 13.55080414 2.104877234 0.8972182274 
23.32907677 14.93953133 2.157077551 0.8948081732 
63.85018539 45.0147934 6.083069324 0.7309302092 
38.39817047 32.54465103 3.919329643 0.8171374798 
52.17672729 48.37207031 5.540100098 0.7516684532 
49.10879898 49.76860428 5.444234371 0.7553905845 
29.27218246 32.43267822 3.401882172 0.8392174244 
26.73930359 32.4159584 3.272007942 0.8448520303 
20.13331032 32.38375092 2.969172239 0.8581382036 
18.31782341 32.61488342 2.912701368 0.8606387973 
18.0118866 35.70317459 3.113787174 0.8517677188 
19.26134682 42.81707001 3.655778646 0.8283094764 
17.89816284 45.04156113 3.773937225 0.8232821226 
17.86268425 51.52156067 4.246027946 0.8034974933 
-20.29505157 99.99290466 7.944739819 0.6640736461 
-7.556734562 9.161015511 0.9246937633 0.953471303 
-100.1987991 21.73297501 7.983430386 0.6627509594 
-12.91079712 1.036367178 1.008538365 0.9493610263 
-12.88316345 -0.1146240234 1.003192306 0.9496225715 
-12.87004852 -0.6879076958 1.003563643 0.9496044517 
-56.83951187 -13.39213562 4.547018528 0.7911318541 
-48.20492935 -13.64756584 3.901025295 0.817908287 
-41.10135651 -13.63831711 3.371960878 0.8405116796 
-37.26961517 -14.23689175 3.106544018 0.8520857096 
-24.89870834 -13.54995346 2.207244396 0.8924981356 
-22.30102158 -13.45548534 2.028068542 0.900775969 
-18.35240936 -13.4339571 1.770958066 0.9127888083 
-15.27069092 -13.41715527 1.582821488 0.9216803908 
-14.30510235 -13.7433033 1.544634223 0.9234958291 
-14.29818344 -15.01581764 1.614488363 0.9201777577 
-14.29059792 -16.41145134 1.694457531 0.9163939357 
-12.1927948 -16.81356239 1.61720407 0.9200490117 
-9.410905838 -17.4777317 1.545655012 0.9234471321 
-8.419723511 -19.64359665 1.664136171 0.9178265929 
-11.65838623 -41.89036942 3.385778189 0.8399136662 
-8.292917252 -44.94971466 3.559094191 0.8324462175 
13.16901588 -49.00199127 3.950944662 0.8158072829 
16.02962112 -43.70461655 3.624760628 0.8296348453 
18.26919556 -43.69240952 3.687565327 0.8269543052 
20.49381638 -43.47136688 3.742215395 0.8246290684 
14.33812714 -22.17211533 2.055980921 0.8994815946 
14.32703304 -20.13108063 1.923964381 0.9056210518 
16.50736046 -19.30164719 1.977609396 0.9031211138 
17.2676239 -15.44607639 1.803978086 0.9112371206 
20.66765785 -15.41298103 2.007529974 0.9017299414 
22.81126213 -15.48161793 2.146652699 0.8952890635 
27.80611038 -15.45439625 2.477075338 0.8801753521 
34.6826973 -15.41692638 2.95537591 0.8587486744 
44.71976471 -15.28196526 3.679831982 0.8272837996 
60.99301529 -14.94474316 4.88973856 0.7772841454 
73.10665894 -11.14572525 5.758264065 0.7432661653 
66.89080811 13.88656425 5.31953907 0.7602596283 
25.56114197 11.63597775 2.186854124 0.8934364319 
64.3576355 44.52067184 6.093433857 0.7305399179 
37.80818939 31.47089577 3.830380201 0.8208913207 
38.32504272 34.90093613 4.036170006 0.8122327924 
27.23026085 32.4192009 3.296653271 0.8437796235 
25.25543213 32.93908691 3.231957912 0.8465973735 
22.62325859 32.39447021 3.076636791 0.8533997536 
20.53612518 32.38548279 2.985966206 0.8573960066 
19.26675034 41.82940292 3.585953236 0.831294775 
18.26788521 44.80620575 3.767680645 0.8235473037 
18.01514435 50.50354767 4.175176144 0.8064357042 
-19.45674515 100.4385834 7.966077805 0.6633437872 
-37.61874008 111.7054977 9.178162575 0.623188436 
-7.454550743 9.202885628 0.9221836925 0.9535946846 
-20.46398354 21.1113472 2.289380789 0.8887289166 
-107.7320175 40.05761337 8.949706078 0.630561471 
-100.79953 18.13354301 7.974796772 0.6630462408 
-118.5654297 15.92313194 9.315033913 0.6188032031 
-12.89949512 0.5743286014 1.005420327 0.9495136142 
-12.84689522 -0.572053194 0.8831220865 0.9497469664 
-12.83408165 -1.145222187 0.8848716617 0.9496501088 
-110.1871643 -19.82248306 7.688457012 0.638343513 
-107.0940628 -24.22883987 7.540447712 0.6438838243 
-50.0399971 -13.68704319 3.562681913 0.8122061491 
-37.27158737 -13.85866928 2.730805635 0.8526266217 
-25.28843689 -13.47176456 1.967718005 0.8914714456 
-22.76082039 -13.45798588 1.815870762 0.8994097114 
-18.70206451 -13.43586159 1.581428647 0.9118050933 
-15.54941082 -13.41867447 1.410488129 0.920950532 
-14.29957771 -14.75209236 1.410916209 0.9209274054 
-14.2921257 -16.12134933 1.479545116 0.9172449708 
-12.28614998 -16.62871742 1.419850588 0.9204472899 
-11.75729752 -17.49053001 1.447301507 0.9189732075 
-8.408376694 -21.72141838 1.599564314 0.9108402729 
-7.146027565 -21.21942139 1.53764081 0.914139092 
-12.06184292 -41.89256668 2.993810892 0.8396345973 
-10.06476784 -41.88167953 2.95807004 0.8413882852 
-9.598459244 -93.4562149 6.451777935 0.6861380339 
13.78107166 -114.150177 7.896162987 0.6306530237 
14.55536366 -47.36536026 3.402891159 0.8198185563 
17.81492424 -43.69488144 3.240527868 0.8276270628 
20.12013817 -43.68232346 3.302767754 0.8246251941 
14.45027542 -28.02033806 2.165086985 0.8812579513 
14.34058762 -22.61492348 1.838987589 0.8981966376 
14.32919693 -20.51813698 1.7186656 0.9045286179 
14.80639839 -19.31090927 1.671115279 0.9070433378 
16.2136097 -19.30324364 1.731214762 0.9038664103 
17.72893715 -19.29499245 1.79948926 0.9002705216 
20.16206741 -16.78252602 1.801517725 0.9001638293 
20.29105186 -15.4150362 1.749980569 0.9028764963 
22.26796532 -15.40425968 1.859476447 0.8971229792 
24.51353645 -15.39201832 1.987794042 0.8904274106 
27.09751701 -15.37794113 2.139699221 0.8825662732 
33.80725098 -15.38968945 2.550921202 0.8616284728 
43.69594574 -15.36785889 3.180954456 0.8305103779 
50.68757629 -15.32975769 3.636635542 0.8087067604 
59.73000717 -15.20017338 4.232640743 0.7810503244 
101.5061874 -21.07277489 7.11948967 0.6599054933 
117.5010529 12.59659863 8.115521431 0.6226251125 
67.6027832 13.40793705 4.732996941 0.758564353 
54.73445129 13.41136456 3.87003231 0.7977617979 
54.97494125 16.09379578 3.933806658 0.7947969437 
26.600214 10.43329811 1.962237358 0.8917568326 
25.17584229 12.5607481 1.932167768 0.8933236599 
24.31514931 13.51426983 1.910402894 0.8944595456 
64.36240387 43.68202972 5.341882706 0.7320721149 
62.93110275 46.93108368 5.39118576 0.729967773 
49.38018417 48.29354477 4.743318558 0.7581068873 
27.72887421 32.42249298 2.929827213 0.8427770138 
18.91305542 32.31407166 2.571299314 0.8606041074 
17.95823669 34.07472229 2.645145893 0.8569015861 
17.99969482 38.18073273 2.898793221 0.8443052769 
17.93897629 48.9103508 3.577672005 0.8114956617 
17.83690834 56.25598907 4.052876472 0.7892910838 
-12.43695068 89.58560181 6.211208344 0.6958430409 
-16.49799919 89.42218781 6.244623661 0.6944867969 
-20.45638466 88.58610535 6.243666172 0.6945258379 
-28.9092598 88.43743896 6.389615536 0.6886328459 
-48.13272476 89.39098358 6.972222328 0.6656041741 
-7.399874687 9.303396225 0.8163599968 0.953456223 
-103.3028412 56.21781158 8.076713562 0.6240375042 
-99.15340424 18.75000763 6.929947853 0.6672480702 
-12.86274719 0.1144750938 0.8833729625 0.9497331381 
-12.8494978 -0.457624495 0.8829877973 0.9497545362 
-12.83661556 -1.030388117 0.8843772411 0.9496774077 
-112.2946854 -19.1714859 7.82333374 0.6333379745 
-108.7830429 -23.59524536 7.644287109 0.6399924159 
-43.73373032 -13.652668 3.146313429 0.8321916461 
-37.42533875 -13.53796101 2.733139515 0.8525106907 
-29.12619591 -13.57299519 2.206740618 0.8791174889 
-23.23471642 -13.4605732 1.844046712 0.8979313374 
-21.00071907 -13.44839096 1.712575793 0.9048502445 
-19.06049728 -13.43781948 1.601561069 0.9107339978 
-15.83394718 -13.42022705 1.425405383 0.9201486707 
-14.30098152 -14.493186 1.398271322 0.9216074944 
-14.29367638 -15.83688641 1.465055346 0.9180212021 
-12.27666187 -16.31014442 1.401924849 0.9214111567 
-8.433088303 -12.30734348 1.024578929 0.9419358969 
-8.815714836 -17.47448921 1.344108343 0.9245265126 
-8.424655914 -18.72741508 1.410229325 0.9209643602 
-8.411389351 -21.16768265 1.564235687 0.9127207994 
-8.498708725 -41.87313461 2.934233427 0.8425602317 
13.59592533 -86.58909607 6.019275188 0.7036840916 
14.56392765 -48.94024277 3.50658989 0.8148703575 
17.36400604 -43.69734192 3.229116201 0.8281784654 
19.65196419 -43.68488312 3.289602518 0.8252590299 
21.92695427 -43.46356201 3.343146801 0.8226832747 
14.35660362 -25.56212044 2.01337266 0.8890982866 
14.34306335 -23.07027054 1.865561366 0.8968042135 
14.53646183 -19.31237984 1.659979701 0.9076331258 
15.92408943 -19.3048172 1.718570948 0.9045335054 
19.03209114 -19.2878933 1.860859513 0.8970506191 
17.67651558 -14.98191643 1.59128058 0.9112808108 
20.15561676 -15.5969696 1.750200629 0.9028648734 
21.85296631 -15.40652561 1.836197615 0.898342967 
24.03990936 -15.39460182 1.960417032 0.891851604 
29.62390709 -15.44448948 2.294281483 0.8746359348 
43.13414764 -17.81057739 3.204789877 0.8293557763 
43.1221199 -15.59863472 3.149171591 0.8320533633 
100.5377426 -21.80682373 7.064896107 0.6620121598 
111.2097168 15.94360065 7.715328217 0.6373440623 
68.18571472 12.89391804 4.765585423 0.757122457 
67.8471756 15.98564148 4.786928654 0.7561794519 
55.83769226 15.80824947 3.985319853 0.7924103141 
24.47760963 13.32081127 1.913780332 0.8942834139 
62.93624878 46.06904221 5.356291771 0.7314564586 
55.00027084 48.32417679 5.027899265 0.7456157804 
50.27244949 48.29840851 4.787558079 0.7561517358 
25.85329819 32.50369644 2.852150917 0.8466074467 
23.49463081 32.39822388 2.748377085 0.8517525792 
21.31539536 32.32717133 2.659198046 0.8561987281 
17.96215057 33.35894012 2.601887226 0.8590684533 
18.00393677 37.32481003 2.845862389 0.8469184637 
19.20719528 44.81134796 3.348155499 0.8224429488 
17.84600258 54.59345627 3.944382191 0.7943062186 
-11.7039814 90.19186401 6.245782852 0.694440186 
-15.70203304 89.56812286 6.24481678 0.6944792867 
-32.42943192 88.41824341 6.467577457 0.6855057478 
-47.23798752 89.63152313 6.957997322 0.6661605239 
-71.0267334 90.94724274 7.924705029 0.6296000481 
-105.5301743 52.65108109 8.099098206 0.6232219338 
-107.0772171 36.59142303 7.770941734 0.6352775097 
-99.7325058 19.7803688 6.982445717 0.6652060151 
-12.87920284 0.8033837676 0.8861863613 0.9495771527 
-12.83916569 -0.9156762362 0.8839582801 0.9497007132 
-109.1549225 -22.66060829 7.655926228 0.6395570636 
-53.63417816 -13.64891338 3.800679922 0.8009986877 
-38.50969315 -13.54386425 2.803407431 0.8490200639 
-29.82477188 -13.57680416 2.250424385 0.876878202 
-23.72361183 -13.4632349 1.873265743 0.8964009881 
-21.42175293 -13.4506855 1.737078071 0.9035567641 
-19.42819214 -13.43981171 1.62234199 0.9096297026 
-17.6784935 -13.43028545 1.524662018 0.9148321152 
-16.12459183 -13.42180347 1.440763354 0.9193242192 
-14.73015881 -13.41421127 1.368180037 0.923228085 
-14.3023653 -14.23884487 1.385961175 0.9222701788 
-14.28729248 -17.00985527 1.525526524 0.914785862 
-12.37029743 -16.13367462 1.396161675 0.9217211008 
-8.513490677 -12.19055843 1.021122217 0.9421259165 
-8.414269447 -20.63784409 1.530556202 0.9145172834 
-13.29963112 -110.1625366 7.620239258 0.6408914328 
14.52945042 -50.46291733 3.606286049 0.810141325 
16.91625214 -43.69978333 3.218050957 0.8287139535 
19.18746758 -43.68740082 3.276806593 0.8258759975 
14.34560776 -23.53898621 1.893065929 0.8953653574 
14.33356667 -21.32304955 1.76443553 0.902114749 
14.32303905 -19.38552856 1.655247331 0.9078841209 
15.63871288 -19.30637932 1.706252575 0.9051843882 
17.10868835 -19.29836082 1.771119833 0.9017628431 
18.69802856 -19.28970909 1.844907641 0.8978864551 
17.1122036 -16.14986038 1.615881801 0.9099729657 
21.44822502 -15.40872288 1.813643575 0.8995268941 
23.57909775 -15.39711189 1.933937192 0.8932314515 
26.01789665 -15.38382053 2.075726032 0.8858677745 
28.9978981 -15.44789791 2.256357431 0.8765745759 
36.39314651 -15.40760994 2.714028358 0.8534625769 
47.41809464 -15.26725292 3.421027184 0.8189513683 
100.314949 -22.69509506 7.063149452 0.6620795131 
54.58959961 14.93146896 3.886605024 0.7969905138 
23.70909882 11.30646706 1.80386734 0.9000403881 
24.72610092 14.62001228 1.972665548 0.8912141323 
22.50762177 14.6974411 1.846057534 0.8978262544 
51.1816597 48.30336761 4.833005428 0.754147768 
28.74962425 32.42923355 2.976210356 0.8404977918 
18.00802612 36.49960709 2.795057297 0.849434495 
17.95411491 46.38103104 3.415495634 0.8192157745 
17.85462189 53.01754761 3.841856003 0.7990753055 
-11.52786827 95.48664856 6.605077744 0.6800247431 
-22.93366432 88.47002411 6.276419163 0.6931992173 
-27.17970467 88.44686127 6.354327202 0.6900528669 
-40.70477295 88.37310028 6.681780815 0.6769863367 
-70.32163239 91.71534729 7.93678093 0.6291560531 
-105.70858 53.92039108 8.149323463 0.6213979721 
-103.4423523 36.38048553 7.530331135 0.644264102 
-12.88201141 0.9187304378 0.886908114 0.949537158 
-12.86816025 0.3436547816 0.8840223551 0.9496970177 
-12.85475159 -0.2288427651 0.8829286098 0.9497578144 
-56.41572189 -13.8233614 3.988909721 0.7922441959 
-27.02066422 -13.48120785 2.073750019 0.8859696984 
-24.22823715 -13.46598816 1.903569698 0.8948162198 
-21.85499001 -13.45304871 1.762426853 0.9022203088 
-16.42159843 -13.42342949 1.456566572 0.9184762836 
-14.30372238 -13.98899174 1.373975396 0.9229157567 
-14.28893757 -16.70762444 1.509765148 0.9156279564 
-12.3232708 -15.77952862 1.374952555 0.922863245 
-11.3090229 -17.48808289 1.430213451 0.9198904634 
-10.23215103 -17.48221397 1.391094804 0.9219938517 
-9.210646629 -17.47664261 1.356673717 0.923848629 
-8.401928902 -22.90780449 1.675647378 0.9068031311 
-8.382731438 -26.4384594 1.904716253 0.8947565556 
-11.25720882 -41.88818359 2.978705883 0.8403754234 
-8.27001667 -47.17419815 3.288992167 0.8252856731 
16.47151566 -43.70220566 3.207301617 0.8292338848 
18.72657013 -43.68992996 3.264362812 0.8264759779 
14.3626442 -26.67399597 2.080484629 0.8856216669 
