# .PCD v0.7 - Point Cloud Data file format
VERSION 0.7
FIELDS x y z intensities
SIZE 4 4 4 4
TYPE F F F F
COUNT 1 1 1 1
WIDTH 917
HEIGHT 1
VIEWPOINT 0 0 0 1 0 0 0
POINTS 917
DATA ascii
-9.208537102 -62.25799561 -1.43866694 0.777394712 
-8.393742561 -81.72621155 -1.878041148 0.7198514938 
-4.839660645 -83.56802368 -1.913514256 0.7153955698 
2.706296444 -86.85391235 -1.986389279 0.7063283324 
6.563893795 -86.60373688 -1.985399604 0.7064525485 
15.95581722 -61.55208969 -1.45355773 0.7753717899 
15.58656502 -43.69556427 -1.060502768 0.8305911422 
14.3402462 -27.80699921 -0.7152048945 0.8823376894 
14.49069023 -25.27144241 -0.6659219265 0.8899809718 
13.80162811 -21.76498795 -0.5891410708 0.9020230174 
14.7978878 -19.29980659 -0.5559414625 0.9072790146 
16.20374298 -19.29149628 -0.5759136677 0.9041127563 
19.35878181 -19.27283478 -0.6244436502 0.8964654207 
19.63190079 -17.87804413 -0.6069750786 0.8992108107 
20.27411842 -15.40217018 -0.5820236206 0.9031460881 
23.2059536 -16.05312157 -0.64503479 0.8932409883 
25.5443821 -16.03928947 -0.6894940138 0.8863162994 
28.23483658 -16.02336693 -0.7421238422 0.8781897426 
42.59319305 -17.14509964 -1.049576521 0.8321806788 
44.00277328 -15.47577381 -1.066272974 0.8297521472 
79.01598358 -12.76733589 -1.829682827 0.7259697914 
86.39780426 -6.16172123 -1.980021477 0.7071167231 
86.58066559 -2.312175274 -1.979891181 0.7071328759 
71.59941864 4.466276646 -1.639902353 0.7504897714 
79.55623627 8.528777122 -1.829037428 0.7260531783 
43.48420715 10.65477753 -1.023429751 0.8359981179 
36.59008789 10.71168232 -0.8715338111 0.8585219979 
36.23157883 12.38143253 -0.875258863 0.8579624295 
36.16928864 18.04558754 -0.9239979982 0.850673914 
36.04860687 22.19003677 -0.9676596522 0.844198525 
36.12921143 26.94348526 -1.030263424 0.8349983096 
36.13985825 29.54160309 -1.067024112 0.8296436071 
36.18940353 35.39299774 -1.157133579 0.8166611195 
46.69173813 49.91711807 -1.562463045 0.7607315183 
43.01774216 50.29928589 -1.512963414 0.767350316 
25.73862076 32.95737839 -0.9559146166 0.8459357023 
23.44578552 32.94380569 -0.9243266582 0.8506259918 
6.944981575 14.73161697 -0.3723026812 0.9369143248 
6.755864143 16.15737343 -0.4003370702 0.9323285818 
6.705040932 18.2811985 -0.4451203942 0.9250491261 
14.66098309 83.62992859 -1.940888166 0.7119768262 
-0.2394946218 53.81906128 -1.230288029 0.8062716126 
-2.846281767 58.10188293 -1.329774618 0.7923539877 
-7.960343838 84.93768311 -1.950140357 0.7108252048 
-11.71555901 84.38921356 -1.947600722 0.7111419439 
-15.46558762 83.82653809 -1.948569894 0.7110204101 
-16.13862801 57.98791885 -1.375956655 0.7859750986 
-15.91227722 42.21852493 -1.031368256 0.8348377943 
-16.92699623 39.49148941 -0.9821854234 0.8420549631 
-37.14155579 77.00012207 -1.954252124 0.7103135586 
-21.61751938 36.1920433 -0.9636805654 0.8447871804 
-22.18590546 33.6473732 -0.921309948 0.8510745764 
-30.43639374 41.97057343 -1.185152769 0.8126667738 
-16.11780548 16.92668915 -0.5342915058 0.9107230902 
-18.93501854 18.19146729 -0.6002262831 0.9002722502 
-19.56266785 17.18810272 -0.5952805877 0.9010533094 
-51.63983154 37.80009842 -1.462912202 0.7741017938 
-51.61952209 34.36661148 -1.417591572 0.7802681327 
-41.51275253 15.85758495 -1.015839934 0.8371098042 
-51.50246048 14.58087635 -1.223589182 0.8072170615 
-12.7922802 1.256335378 -0.2938305736 0.9498713613 
-12.68736267 0.1129174754 -0.2900366187 0.9505022764 
-87.88033295 -11.00656509 -2.024592161 0.7016221881 
-87.3012085 -14.90444565 -2.02453661 0.7016294003 
-45.70891571 -14.26924992 -1.094610333 0.8256472349 
-37.80914688 -13.67678928 -0.9191071987 0.8514034152 
-23.86258888 -13.8243084 -0.6304125786 0.8955296278 
-21.56653023 -13.81072521 -0.5854223371 0.9026095867 
-19.57270241 -13.79892349 -0.5474386215 0.9086306691 
-17.8186245 -13.78854179 -0.5150372386 0.9137978554 
-14.84325409 -13.76083755 -0.4626914859 0.922208786 
-14.83570766 -15.03509998 -0.4828459024 0.9189612269 
-14.44227982 -17.5084343 -0.5188301206 0.9131919742 
-11.98696041 -17.49389839 -0.4847732484 0.9186510444 
-10.87205791 -17.48730278 -0.4707083106 0.920915246 
-9.613246918 -21.36956787 -0.5356477499 0.9105069637 
-9.56771183 -24.07760048 -0.5922640562 0.9015293121 
-12.46799564 -41.89716721 -0.9992579222 0.839542985 
-9.129767418 -81.72918701 -1.879909754 0.7196170092 
-5.538371563 -82.85118866 -1.898163676 0.7173214555 
-1.934357882 -86.92626953 -1.987574935 0.7061821818 
9.267536163 -82.96258545 -1.90827775 0.7160525918 
12.7877903 -81.44230652 -1.884543777 0.7190338969 
14.63216972 -49.16962814 -1.172708154 0.8144387603 
15.15049553 -43.69814301 -1.057248354 0.8310639858 
17.35912323 -43.68507767 -1.074573517 0.8285484314 
19.64597893 -43.67155075 -1.094674945 0.8256385326 
14.47895718 -23.28884506 -0.6268697977 0.8960850835 
15.91450882 -19.29320526 -0.5717130899 0.9047776461 
17.40524101 -19.28438187 -0.5938276649 0.9012820125 
12.54666519 -12.71530533 -0.4083456397 0.9310224056 
17.1857338 -15.93248272 -0.5357078314 0.9104976058 
19.6245327 -16.63298035 -0.5880596638 0.9021927714 
22.77376175 -16.05567551 -0.6369656324 0.8945029974 
27.66427422 -16.02674484 -0.7308487296 0.8799247146 
30.7061882 -16.00875282 -0.7915932536 0.870618701 
42.58288956 -15.4035759 -1.035146356 0.8342849016 
49.34052658 -15.40292168 -1.181578994 0.8131746054 
78.29593658 -16.98251724 -1.831414461 0.7257498503 
78.91220856 -13.47220421 -1.829981327 0.7259315848 
79.20432281 11.35515881 -1.829083323 0.7260472178 
38.24235916 10.82683372 -0.9085544944 0.8529765606 
36.12300491 15.67382336 -0.9001328945 0.8542351723 
36.23960114 17.67965508 -0.9217435718 0.8510104418 
24.93777466 13.57124996 -0.6490124464 0.8926191926 
56.04717636 37.31443024 -1.539185405 0.7638376951 
36.28123856 26.55771446 -1.027817249 0.8353557587 
36.02807617 28.91921806 -1.056080818 0.8312338591 
36.12391281 37.9368515 -1.197474241 0.8109142184 
43.41287994 49.85606384 -1.511201501 0.7675879598 
7.974327087 13.35062599 -0.355483532 0.9396764636 
7.18714571 13.34780884 -0.3465451002 0.9411479235 
6.763528824 15.77966309 -0.3924510181 0.9336158037 
12.60577583 54.58924866 -1.280712605 0.7991858125 
11.77307796 84.80374908 -1.957161546 0.709952116 
8.045612335 85.84690857 -1.971011877 0.7082327008 
4.269548416 87.15639496 -1.994738698 0.7052980065 
-14.717556 83.95250702 -1.948376298 0.7110444903 
-18.44666672 83.25601196 -1.949343204 0.7109241486 
-22.14275169 82.39347839 -1.950305462 0.7108050585 
-17.25963593 54.43523407 -1.305413127 0.7957394123 
-16.52643967 39.5247345 -0.9793145657 0.8424780369 
-36.45142746 77.32032013 -1.954068899 0.7103364468 
-21.78078651 33.68143845 -0.9169003367 0.851731956 
-7.950174332 9.295880318 -0.2796142399 0.9522380233 
-15.88048935 16.97748184 -0.5314175487 0.9111821651 
-40.18930435 32.85170746 -1.186584353 0.8124626875 
-52.2814064 38.98902512 -1.490869403 0.7703245878 
-51.87953186 35.21006393 -1.433280945 0.7781283855 
-52.56044769 15.38695049 -1.251929402 0.8032230139 
-51.4908371 12.61659431 -1.211869836 0.8088745475 
-51.407547 10.19589615 -1.198034525 0.8108353019 
-60.36706924 9.203586578 -1.395904183 0.7832351327 
-12.68973446 0.225895986 -0.2901270986 0.9504875541 
-86.71255493 -18.00153542 -2.024463415 0.7016376257 
-47.21044922 -14.27814198 -1.127480388 0.8209107518 
-30.05765343 -13.68279552 -0.7549459934 0.876221478 
-21.99924278 -13.81328297 -0.5938069224 0.9012858868 
-19.95054436 -13.80116463 -0.5545478463 0.9075005651 
-18.15267944 -13.79051971 -0.5211254954 0.9128247499 
-16.55620384 -13.78107643 -0.4924207926 0.9174221754 
-14.84469414 -13.51850319 -0.4589665234 0.9228100181 
-14.83726978 -14.77136898 -0.4785967767 0.9196445942 
-13.41973114 -17.50238037 -0.5041642785 0.9155383706 
-9.012634277 -17.47629166 -0.4494982958 0.9243411422 
-9.616164207 -20.87738991 -0.5254380703 0.9121358991 
-9.600346565 -23.54695511 -0.5812901258 0.9032626152 
-8.888019562 -41.87597656 -0.9785868526 0.8425856233 
-10.30501175 -62.02311325 -1.437243104 0.7775874734 
15.76566124 -81.38623047 -1.895035625 0.7177144885 
14.82518291 -61.69067383 -1.450368524 0.7758047581 
14.71701908 -43.70070267 -1.054096937 0.8315221667 
16.91158485 -43.6877327 -1.070890307 0.8290821314 
14.49712658 -26.35910416 -0.6876720786 0.8865991831 
14.48175526 -23.76240349 -0.6361259222 0.8946351409 
15.62941647 -19.29488945 -0.5676203966 0.9054263234 
17.09789848 -19.28620338 -0.589178741 0.9020162821 
12.36104965 -12.75221443 -0.4059806764 0.93140769 
17.11445999 -16.15198517 -0.5379462838 0.9101410508 
19.62633514 -16.93694496 -0.5926049948 0.9014749527 
19.61759949 -15.46170139 -0.5709835887 0.9048924446 
22.3522377 -16.05817604 -0.629149437 0.8957277536 
24.57134056 -16.04504204 -0.6708340049 0.8892160058 
27.11076355 -16.03002167 -0.7199662328 0.8816023469 
32.15018845 -15.33190632 -0.814237833 0.867176652 
47.86656952 -15.41165257 -1.149523139 0.8177502155 
56.16572952 -15.36250687 -1.33107388 0.7921724916 
78.15406799 -17.68140793 -1.831701279 0.7257130146 
86.60888672 -2.441406195e-06 -1.979833841 0.7071403861 
49.54686356 11.20940876 -1.161236644 0.8160747886 
26.99892807 8.692867279 -0.6483817697 0.8927175403 
36.21315002 13.46510792 -0.8831872344 0.8567728996 
36.16208267 15.3097868 -0.8976755142 0.8546026945 
36.7995491 26.43733025 -1.035800815 0.834190309 
36.10728455 34.07671738 -1.13493371 0.8198406696 
36.00952148 37.14899826 -1.182680845 0.8130174279 
26.70105362 32.96307755 -0.9697137475 0.8438952565 
24.34452629 32.94913101 -0.9364823103 0.8488174677 
22.13994789 32.9360733 -0.9071931243 0.8531800508 
8.136754036 13.35121059 -0.3574142456 0.9393591285 
6.764581203 13.71080494 -0.3494920135 0.940662384 
7.347763538 71.54218292 -1.644019127 0.7499496341 
0.6405907869 47.98108292 -1.096919894 0.8253138065 
-6.523293495 86.06760406 -1.973101616 0.7079738975 
-8.01920414 66.42391205 -1.529444337 0.7651412487 
-13.96833706 84.07139587 -1.948182464 0.7110697627 
-21.40653038 82.57904816 -1.950113535 0.7108291984 
-34.58343124 67.0602951 -1.724809527 0.7394198775 
-27.69484711 48.29921722 -1.27272439 0.8003050685 
-33.46218491 47.91482925 -1.335971951 0.7914949059 
-51.64833832 39.23693848 -1.48271668 0.77142483 
-51.62749863 35.71417618 -1.435040832 0.7778885365 
-38.52023697 17.53514862 -0.967499733 0.8442228436 
-38.94771957 15.67770958 -0.9597383142 0.8453684449 
-48.14702988 14.56134033 -1.149847746 0.8177033067 
-15.87465191 3.295583487 -0.3706230223 0.9371898174 
-54.69184494 6.356022835 -1.258645296 0.8022802472 
-12.68023205 -0.2257348597 -0.2899078429 0.9505236745 
-12.66829205 -0.7902416587 -0.2901524305 0.9504830837 
-12.7840004 -1.370510221 -0.2939079106 0.9498583078 
-37.80233002 -14.82704353 -0.9282383323 0.8500441909 
-27.03915787 -13.49043655 -0.6907586455 0.8861205578 
-24.88382339 -13.83035374 -0.6507879496 0.8923420906 
-22.44449806 -13.81591988 -0.602481544 0.8999183178 
-18.49477768 -13.79254627 -0.5273991227 0.9118225574 
-14.83085442 -15.85538292 -0.4962899685 0.9168009758 
-13.66991901 -17.50385857 -0.5076916218 0.9149733782 
-12.45219898 -17.4966526 -0.4909127653 0.9176641703 
-11.3101902 -17.48988914 -0.4761236608 0.9200430512 
-10.23291492 -17.48351288 -0.4630848467 0.922144711 
-9.211086273 -17.47746277 -0.4516194165 0.9239980578 
-9.618971825 -20.40361595 -0.5156469345 0.9137001634 
-8.927341461 -24.34033394 -0.592653513 0.9014682174 
-11.25769234 -41.89000702 -0.9915596843 0.8406744599 
-10.60739517 -81.74156952 -1.884243369 0.7190719247 
-3.481818676 -86.89531708 -1.987969041 0.7061334252 
8.02577877 -85.63552856 -1.966165423 0.7088345885 
15.01799488 -81.40035248 -1.89216733 0.7180737257 
14.26490974 -61.77415085 -1.449281454 0.7759513855 
14.52950382 -52.20628738 -1.238773108 0.8050761819 
14.28616905 -43.70325089 -1.05105412 0.8319656849 
16.46705246 -43.69034958 -1.067322612 0.8296003938 
21.28261375 -44.12200165 -1.119808197 0.8220137358 
14.50051022 -26.9300499 -0.6991754174 0.8848162889 
14.48464584 -24.2502079 -0.6457055807 0.8931359649 
15.34835625 -19.29655075 -0.5636251569 0.9060592055 
16.79531479 -19.28800011 -0.5846423507 0.9027324915 
19.62815666 -17.24564743 -0.5972724557 0.9007390738 
26.57342529 -16.03320122 -0.7094552517 0.8832253218 
29.43072891 -16.0163002 -0.765941143 0.8745364547 
31.61546135 -15.42372322 -0.8041281104 0.8687106371 
35.6464386 -15.46700382 -0.8882564902 0.8560126424 
54.30220413 -15.37354183 -1.290099859 0.797873795 
79.22554779 -11.35830498 -1.829564214 0.7259848714 
86.20690918 -8.466360092 -1.980120182 0.7071042657 
86.49114227 -4.62280035 -1.979964256 0.7071242332 
86.55185699 3.082448721 -1.97978127 0.7071464658 
79.39264679 9.943454742 -1.829056382 0.7260508537 
51.42271423 8.779098511 -1.192498326 0.8116212487 
40.49699402 10.69039726 -0.9574484825 0.8457083106 
36.24380112 13.110569 -0.8810557127 0.8570928574 
36.30913925 14.99242878 -0.8979793191 0.8545573354 
36.00933838 16.78057289 -0.9081469774 0.853038311 
36.33763504 18.94469643 -0.9367674589 0.8487750292 
53.33268356 37.60007095 -1.491687894 0.7702147365 
36.13822556 30.62932587 -1.082902551 0.8273409605 
36.05436325 33.42517853 -1.123875737 0.8214289546 
27.19288063 32.96599197 -0.9768773913 0.8428372741 
7.497216702 13.34891891 -0.3499839604 0.9405817389 
6.821264267 15.16316605 -0.380078882 0.9356398582 
19.31487083 55.70933533 -1.34785521 0.7898499966 
24.18742561 81.27864075 -1.938509941 0.7122732997 
12.65917969 50.68746948 -1.19427824 0.8113691807 
13.172966 83.89586639 -1.94131124 0.7119242549 
7.98447752 71.47706604 -1.644092202 0.7499402165 
5.751999378 86.04747772 -1.971392274 0.7081862092 
-1.944836378 87.39665222 -1.998338461 0.7048540711 
-5.826730728 87.16521454 -1.997005582 0.705019176 
-9.455680847 84.64717865 -1.947018385 0.7112126946 
-13.218503 84.18444824 -1.947988749 0.7110925317 
-16.95859528 83.55454254 -1.948956847 0.7109723091 
-16.20981216 54.47085953 -1.299138188 0.7966133356 
-18.99763107 54.79436493 -1.32570982 0.7929162979 
-15.88642883 39.9789505 -0.9834085703 0.8418749571 
-38.51321793 76.34085846 -1.954616666 0.7102690339 
-27.38530922 48.7600174 -1.278390884 0.7995114326 
-21.61092186 34.76026535 -0.9356482625 0.8489416242 
-30.24515152 40.18206406 -1.149666667 0.8177293539 
-16.04423523 17.77643204 -0.5473980308 0.9086369276 
-16.66213989 16.88608932 -0.5422898531 0.9094496369 
-19.48956299 18.06830978 -0.6075225472 0.8991247416 
-42.9018364 33.1985321 -1.240049362 0.804894805 
-51.63154984 36.40057373 -1.44409883 0.7766560316 
-51.6117363 33.05089951 -1.400987267 0.7825376391 
-38.51871109 17.94996834 -0.9714329243 0.8436415195 
-52.65340805 19.04646111 -1.279951692 0.7992926836 
-51.51133728 16.08065605 -1.233562708 0.8058091402 
-15.77917194 3.422517061 -0.3690911829 0.9374412298 
-51.30836868 6.426076412 -1.182043314 0.813108325 
-12.70635128 1.019924283 -0.291394949 0.9502765536 
-12.6944809 0.4520995915 -0.2903732359 0.9504464865 
-12.67068672 -0.6772289872 -0.290058434 0.9504988194 
-87.02054596 -16.45568657 -2.024507046 0.701633811 
-86.19787598 -20.30932808 -2.024383307 0.7016468644 
-50.5018158 -14.29762936 -1.199820399 0.8105828762 
-39.65303802 -13.15771198 -0.9550482035 0.8460643291 
-31.14713097 -13.5147438 -0.7761463523 0.8729764819 
-27.66004181 -13.49410343 -0.7035238743 0.8841428757 
-25.41964531 -13.83352757 -0.661554873 0.8906619549 
-20.73666 -13.80581284 -0.5694760084 0.9051322937 
-17.17324448 -13.78471851 -0.5033965707 0.9156616926 
-15.27492905 -13.42082214 -0.4648080468 0.921867013 
-14.84031487 -14.25756073 -0.4704369903 0.9209594727 
-14.83250713 -15.57688236 -0.4916851819 0.917540133 
-12.81711674 -16.11418152 -0.4706738293 0.9209207892 
-10.44364929 -17.48475838 -0.465562731 0.9217451215 
-9.621671677 -19.94715118 -0.5062565207 0.9152033925 
-9.607057571 -22.4136982 -0.5574479699 0.9070398808 
-13.69805908 -41.90444183 -1.007791162 0.8382892609 
-11.65903091 -41.89238358 -0.9940319061 0.8403106928 
-9.671072006 -41.88061523 -0.9825606346 0.8419994712 
-8.943293571 -48.47432327 -1.126798749 0.8210090399 
-0.3868969679 -86.92967224 -1.987180114 0.7062309384 
7.33369875 -86.53328705 -1.985201478 0.7064769268 
14.27260494 -81.41441345 -1.889467478 0.7184132338 
18.02289772 -81.34346771 -1.904558182 0.7165181041 
14.03094006 -52.20923615 -1.235820532 0.8054908514 
13.93292713 -43.94332123 -1.053835869 0.8315654397 
20.48781013 -43.45840836 -1.098292112 0.8251147866 
14.48762417 -24.75293732 -0.6556301713 0.8915855289 
16.49726677 -19.2897625 -0.5802232027 0.9034312963 
19.63977242 -19.20754623 -0.6279702783 0.8959127069 
19.63001633 -17.55927849 -0.6020597816 0.8999845386 
20.650177 -15.39993858 -0.5888667107 0.9020658731 
23.64925575 -16.05050087 -0.6533567905 0.8919402361 
26.05156898 -16.03629112 -0.6993093491 0.884795785 
35.64867783 -15.84641361 -0.8917898536 0.8554832339 
77.85110474 -19.07555771 -1.832278609 0.7256409526 
78.56065369 -15.58130074 -1.830837965 0.7258242369 
86.12991333 -9.233547211 -1.980156541 0.7070991993 
86.57629395 2.312106848 -1.97979188 0.7071452737 
86.3860321 6.160925388 -1.979756474 0.7071501017 
76.62839508 8.905378342 -1.76347208 0.7344325185 
51.40998077 10.67275143 -1.200262308 0.8105198741 
36.32992172 16.53807259 -0.9124824405 0.8523910046 
36.08042526 18.40410423 -0.9258813262 0.8503943682 
36.26534653 20.58071518 -0.9531984329 0.8463380337 
36.14141464 30.0834465 -1.074932933 0.8284958601 
36.11092377 35.95055771 -1.164810658 0.8155648112 
46.48249817 50.58851624 -1.570465326 0.7596666217 
27.69202805 32.96894455 -0.9842311144 0.8417534828 
8.467046738 13.35239506 -0.3614227176 0.9387001395 
7.654599667 13.34948254 -0.3517692387 0.94028759 
18.97999191 53.20874786 -1.291386127 0.7976946831 
17.62147903 83.02317047 -1.940146327 0.712069869 
8.6515522 71.6625061 -1.650066137 0.7491568923 
6.517136097 85.98783875 -1.9712677 0.7082005739 
-8.702448845 84.73194122 -1.947118759 0.7112013698 
-12.46736526 84.2899704 -1.947794795 0.7111178637 
-8.308637619 42.89151382 -0.9987041354 0.8396240473 
-18.98146439 56.36342621 -1.359534264 0.78823632 
-17.4114666 39.6436615 -0.9897859693 0.8409356475 
-27.39330101 49.80725861 -1.299407482 0.7965762615 
-22.60197449 33.62346268 -0.9261258245 0.8503574729 
-49.86748123 61.56248856 -1.811059713 0.728341341 
-42.08436584 33.16904449 -1.224906683 0.8070309162 
-51.61561584 33.70486832 -1.409188628 0.7814163566 
-48.27218628 25.71571922 -1.250292182 0.8034537435 
-38.48194122 16.29193306 -0.9552672505 0.8460320234 
-51.51432419 16.58613396 -1.237124801 0.8053075075 
-53.50494003 12.1048069 -1.254008412 0.8029314876 
-48.08070374 8.649581909 -1.116745472 0.822455287 
-51.05154037 6.855900764 -1.177484751 0.8137572408 
-12.70872688 1.134025812 -0.2916691601 0.9502309561 
-87.77839661 -11.78809834 -2.02458334 0.7016236186 
-86.37565613 -19.54156494 -2.024411678 0.7016454935 
-37.79538345 -16.0012722 -0.9382212758 0.8485594988 
-25.97370338 -13.83680344 -0.6727436781 0.8889196515 
-23.37543488 -13.82143307 -0.6207711697 0.8970425725 
-21.14583015 -13.80822468 -0.5773158073 0.9038912058 
-19.20437241 -13.7967453 -0.5405476093 0.9097269177 
-17.49222374 -13.78661346 -0.5091286898 0.9147432446 
-15.55381107 -13.42247295 -0.4696389735 0.921087563 
-14.83412361 -15.30354214 -0.4872065485 0.9182599187 
-13.05825424 -16.12069511 -0.4742426872 0.9203460813 
-9.026403427 -12.21682358 -0.3472270072 0.9410352707 
-11.75863457 -17.49254608 -0.4818168581 0.9191265702 
-9.624277115 -19.50700378 -0.497240752 0.9166488647 
-9.610212326 -21.88122749 -0.5463117957 0.9088097811 
-9.319909096 -24.07613564 -0.5901641846 0.9018606544 
-8.914718628 -26.47130013 -0.6385188103 0.8942610025 
-12.06242847 -41.89477539 -0.9965967536 0.8399335742 
-10.06503677 -41.88294983 -0.9846785665 0.8416875005 
-9.390622139 -48.47697067 -1.128754854 0.8207274675 
-9.208518028 -62.25803757 -1.438667893 0.7773945928 
-8.393733025 -81.72621155 -1.878041148 0.7198514938 
-4.839680195 -83.56798553 -1.913513899 0.7153956294 
-1.160598159 -86.93143463 -1.987377524 0.7062065005 
6.563991547 -86.60372925 -1.985399485 0.7064525485 
20.01824379 -43.4611702 -1.093823433 0.8257615566 
14.34028053 -27.80699921 -0.715200007 0.8823376298 
13.80162811 -21.76496315 -0.5891301036 0.9020231366 
14.79789257 -19.29980659 -0.5559414625 0.9072790146 
16.20373726 -19.29149055 -0.5759136677 0.9041128159 
17.71748734 -19.28253555 -0.5986082554 0.9005290866 
19.35874748 -19.27283478 -0.6244430542 0.8964655399 
23.20598412 -16.05312157 -0.6450353861 0.893240869 
25.54438591 -16.03928375 -0.6894940138 0.8863162994 
28.23483658 -16.02336693 -0.7421238422 0.8781897426 
31.37662315 -16.00478745 -0.8051715493 0.8685518503 
42.59319305 -17.14502716 -1.049576163 0.8321807981 
50.89917755 -15.39369392 -1.215574741 0.8083503246 
60.84210968 -15.4831419 -1.435150146 0.7778739929 
78.43144989 -16.28242302 -1.831125855 0.7257870436 
79.01598358 -12.76733589 -1.829682827 0.7259697914 
86.04517365 -9.999773026 -1.980194688 0.7070968151 
86.59386444 1.541589379 -1.979804039 0.7071440816 
71.59842682 4.466267109 -1.639881253 0.750492692 
79.55623627 8.52882576 -1.829037428 0.7260531783 
79.10076141 12.05972862 -1.829099059 0.7260453701 
43.48420715 10.65477753 -1.023429751 0.8359981179 
36.23160172 12.38141537 -0.8752592802 0.8579623699 
36.46313477 16.20855141 -0.9121677279 0.8524377346 
36.16931152 18.04564667 -0.9239990711 0.8506737351 
36.04861069 22.19004822 -0.9676596522 0.8441984653 
39.04251862 26.49774551 -1.078628063 0.8279600739 
36.13986206 29.54159927 -1.0670228 0.8296436071 
36.18937302 35.39307022 -1.157133579 0.8166610003 
8.634991646 13.35299778 -0.3635044694 0.9383581281 
6.755864143 16.15740395 -0.4003350735 0.9323284626 
22.01511955 81.91833496 -1.939049959 0.7122055888 
3.495739698 87.23741913 -1.995801926 0.7051667571 
-0.2394067347 53.81906128 -1.230288029 0.8062716126 
-2.846181631 58.10187912 -1.329774141 0.7923539877 
-15.46575928 83.82649994 -1.948570013 0.7110204101 
-15.91228008 42.21843719 -1.031366229 0.8348380327 
-16.9270153 39.49148941 -0.9821855426 0.8420549035 
-21.61751938 36.1920433 -0.9636805654 0.8447871804 
-22.18587875 33.64736557 -0.9213104844 0.851074636 
-8.007409096 9.195865631 -0.2787361145 0.9523840547 
-16.1177597 16.92669868 -0.5342897177 0.9107232094 
-18.9349575 18.19147491 -0.6001976132 0.9002723694 
-41.45763397 33.27730942 -1.215240359 0.8083983064 
-51.63983154 37.79996109 -1.462910295 0.7741020322 
-51.61952209 34.36651993 -1.417590261 0.7802682519 
-48.27843475 26.27326775 -1.256464362 0.8025867939 
-38.37828827 18.72297859 -0.9761400223 0.8429464698 
-38.36919022 16.64840126 -0.9561074376 0.8459074497 
-41.51278305 15.85757542 -1.015838385 0.8371096849 
-51.51733398 17.09453392 -1.240797043 0.8047894835 
-51.50246048 14.58087635 -1.223589182 0.8072170615 
-51.66189194 12.17221451 -1.213279366 0.8086723685 
-51.40473557 9.72072506 -1.195907235 0.8111374974 
-51.35285187 7.362272739 -1.185903549 0.8125596642 
-12.79230404 1.256354928 -0.2938313186 0.949871242 
-12.66348648 -1.016511202 -0.290410459 0.9504401088 
-87.88027954 -11.00670147 -2.024592161 0.7016223073 
-87.30117035 -14.90461159 -2.02453661 0.7016294003 
-86.54750061 -18.77239418 -2.024438381 0.7016416192 
-45.70886612 -14.26926041 -1.094609261 0.8256473541 
-37.80914307 -13.67680836 -0.9191073179 0.8514034152 
-26.54670906 -13.84018803 -0.684365809 0.8871129751 
-23.86262131 -13.8243084 -0.6304133534 0.8955295086 
-21.56656647 -13.81072521 -0.5854231119 0.9026094675 
-19.57275391 -13.79892349 -0.5474395752 0.9086305499 
-14.82746315 -16.42837143 -0.5058860779 0.9152629375 
-14.44222832 -17.50843048 -0.5188294649 0.9131920934 
-10.87203598 -17.48729706 -0.4707083106 0.9209153056 
-9.613246918 -21.36956787 -0.5356477499 0.9105069637 
-9.56771183 -24.07760048 -0.5922640562 0.9015293121 
-9.121862411 -26.30993271 -0.6365520954 0.894567728 
-12.46803474 -41.89716721 -0.9992583394 0.839542985 
-10.46081734 -41.88529205 -0.9868842959 0.8413627148 
-9.702472687 -61.79238129 -1.429846048 0.7785958052 
-1.934162498 -86.92627716 -1.987574935 0.7061821818 
1.933571696 -86.88317871 -1.986587048 0.7063039541 
5.793610573 -86.66730499 -1.985597491 0.7064281702 
12.78788757 -81.44229126 -1.884544134 0.7190338969 
14.63217449 -49.16954041 -1.17270875 0.8144389987 
17.35912323 -43.68507767 -1.074573517 0.8285484314 
14.49385929 -25.80657387 -0.6765945554 0.8883196712 
14.59195518 -21.29570007 -0.5901226401 0.9018668532 
14.52815151 -19.30140305 -0.5522381663 0.9078669548 
17.40530968 -19.28438187 -0.5938288569 0.9012818336 
12.54673576 -12.7153244 -0.4083459377 0.9310222268 
19.6245327 -16.63292122 -0.5880581737 0.9021928906 
19.90673447 -15.40433788 -0.5753889084 0.9041954875 
25.05120277 -16.0422039 -0.6800111532 0.887789011 
27.66431427 -16.02674484 -0.7308488488 0.8799245954 
30.7061882 -16.00875282 -0.7915932536 0.870618701 
34.98417664 -16.30285454 -0.8822852373 0.8569072485 
42.59580994 -17.588274 -1.053455472 0.8316156864 
78.2959137 -16.98262978 -1.831414461 0.7257498503 
86.34087372 -6.930315018 -1.98005259 0.7071130276 
68.92534637 0.6135424376 -1.575663209 0.7589765787 
71.31522369 3.811813831 -1.632555842 0.7514559031 
79.62898254 7.820456505 -1.829034686 0.7260531783 
79.20431519 11.35525131 -1.829083204 0.7260471582 
58.58327866 11.07818127 -1.362914443 0.7877705097 
44.15126038 10.40261459 -1.036903262 0.8340280652 
38.24235916 10.82683372 -0.9085544944 0.8529765606 
36.08749008 13.78515625 -0.8830794096 0.8567891121 
36.12302399 15.67377853 -0.9001329541 0.8542351723 
36.23966599 17.67963409 -0.9217446446 0.851010263 
24.93784904 13.57124996 -0.6490141153 0.8926189542 
36.241436 21.86631393 -0.9675750732 0.8442113996 
36.02805328 28.91931915 -1.056081653 0.8312337399 
36.27952194 31.8759346 -1.103964925 0.8242963552 
36.07720184 34.6606636 -1.143640876 0.8185921311 
36.12391663 37.93695068 -1.197477579 0.81091398 
43.41277313 49.85606384 -1.511199594 0.7675881386 
26.21634865 32.96020889 -0.9627255201 0.844927907 
23.89220238 32.94644928 -0.9303270578 0.849732697 
9.045808792 13.71897793 -0.3756460547 0.9363664389 
7.974327087 13.35062599 -0.355483532 0.9396764636 
7.18714571 13.34780884 -0.3465451002 0.9411479235 
6.763528824 15.779603 -0.3924496472 0.9336159825 
12.70512581 38.86660767 -0.9347338676 0.8490775228 
12.60577583 54.58871841 -1.280700803 0.7991874814 
15.40299511 83.48790741 -1.940701962 0.7120007277 
-7.245783329 85.49582672 -1.961395502 0.709426105 
-18.44666672 83.25601196 -1.949343204 0.7109241486 
-22.14275169 82.39347839 -1.950305462 0.7108050585 
-17.25958252 54.43523407 -1.305412531 0.7957394719 
-15.88548756 43.31167984 -1.054569602 0.831453383 
-16.52637863 39.52474594 -0.9793140888 0.8424780965 
-35.34002686 67.0558548 -1.732703567 0.7383974791 
-28.25839043 48.28131866 -1.278828382 0.7994505763 
-29.31383896 37.53520584 -1.088691831 0.8265028 
-15.88053417 16.97748184 -0.5314182639 0.9111820459 
-19.2209053 17.19331932 -0.5895143151 0.9019632936 
-48.3100853 29.73768234 -1.296797752 0.7969400287 
-38.51796722 17.12193871 -0.9635739923 0.8448026776 
-41.2633667 16.1846447 -1.013224006 0.83749336 
-51.52035904 17.60615349 -1.244598031 0.8042546511 
-51.4908371 12.61648655 -1.211867332 0.8088746667 
-51.407547 10.19578838 -1.198034286 0.8108353615 
-60.36706924 9.203474045 -1.395904183 0.7832351923 
-12.70160103 0.7922924757 -0.290914923 0.9503561854 
-12.67784595 -0.3385766447 -0.2899110317 0.9505231977 
-87.43070221 -14.12695503 -2.024549484 0.7016285062 
-86.71255493 -18.00153542 -2.024463415 0.7016376257 
-53.63007736 -13.64782429 -1.265021801 0.8013837337 
-47.2105751 -14.27814674 -1.127483964 0.8209103942 
-37.80002975 -15.21565628 -0.9314676523 0.8495634794 
-26.84164047 -13.69162369 -0.6887984872 0.8864245415 
-24.36496925 -13.82728767 -0.6404092312 0.8939641118 
-19.95051003 -13.80116463 -0.5545474291 0.9075006247 
-18.15263557 -13.79051971 -0.5211245418 0.9128248692 
-16.55616379 -13.78107643 -0.4924200475 0.917422235 
-14.84468937 -13.51854229 -0.4589671195 0.9228099585 
-14.70738029 -17.51000214 -0.5227321982 0.9125680923 
-13.41973114 -17.50238037 -0.5041642785 0.9155383706 
-12.21812725 -17.49526978 -0.4878042638 0.9181636572 
-10.0243988 -17.48227692 -0.4606718421 0.9225344062 
-9.385446548 -26.31148529 -0.6385864019 0.8942495584 
-12.8756218 -41.89957809 -1.002006769 0.8391389847 
-8.887980461 -41.87597656 -0.9785868526 0.8425856233 
-10.30494881 -62.0231514 -1.437244892 0.7775873542 
-9.867609978 -81.73538208 -1.881994843 0.7193540931 
-6.23986578 -82.3295517 -1.887398601 0.7186728716 
-2.708107948 -86.91425323 -1.987771988 0.7061577439 
1.160251498 -86.90557098 -1.986784935 0.7062795758 
5.022439003 -86.72399902 -1.985795498 0.7064039707 
12.05159855 -81.47959137 -1.882851362 0.7192471623 
15.7655735 -81.38623047 -1.895035386 0.7177146077 
14.82508469 -61.69062424 -1.450364947 0.7758049369 
14.71695995 -43.70070267 -1.05409658 0.8315222263 
16.91147614 -43.6877327 -1.070889592 0.8290822506 
19.18182755 -43.67429733 -1.09042275 0.8262532949 
14.48176003 -23.76233673 -0.6361237764 0.8946353197 
14.31630611 -21.29733086 -0.5866127014 0.9024207592 
17.09789848 -19.28620338 -0.589178741 0.9020162821 
17.11445999 -16.15198517 -0.5379462838 0.9101410508 
19.61759567 -15.46174049 -0.5709825158 0.9048923254 
24.57126236 -16.04504204 -0.670832634 0.8892162442 
27.11070442 -16.03002167 -0.7199652195 0.8816025257 
32.15003586 -15.33190632 -0.8142275214 0.8671771288 
36.15850449 -15.30819511 -0.8975779414 0.854616046 
42.58543777 -15.83440685 -1.038592815 0.8337818384 
47.86692429 -15.4116478 -1.14953053 0.817749083 
56.16596603 -15.36250687 -1.331078768 0.7921717167 
78.15406036 -17.68132591 -1.831701159 0.7257131338 
78.80103302 -14.17607117 -1.830265641 0.7258965969 
86.27752686 -7.698718071 -1.980085373 0.7071080208 
86.52797699 -3.852892876 -1.97993803 0.7071267366 
86.60888672 -2.441406195e-06 -1.979833841 0.7071403861 
71.90734863 3.20186758 -1.645391226 0.74976933 
79.69542694 7.11140871 -1.829033494 0.7260532379 
79.30203247 10.64974308 -1.829068899 0.7260478735 
49.54689407 11.20935726 -1.161237001 0.816074729 
39.03866196 10.67786884 -0.9251864552 0.8504983187 
26.99895859 8.692947388 -0.6483830214 0.8927173615 
36.21316528 13.46518993 -0.8831883669 0.8567727804 
36.36139679 17.34024811 -0.9208742976 0.851139009 
36.20513916 19.28741074 -0.9377422929 0.8486304283 
36.79920197 26.43715096 -1.035789728 0.8341916203 
36.03759384 28.40325356 -1.048911452 0.8322779536 
36.09414291 31.14813423 -1.089840889 0.8263362646 
36.10728455 34.07671738 -1.13493371 0.8198406696 
45.52596664 51.35266495 -1.568787456 0.7598904371 
24.34458733 32.94913101 -0.9364831448 0.8488173485 
22.14001465 32.9360733 -0.9071939588 0.8531799316 
7.341374397 13.34836197 -0.3482400477 0.9408684969 
6.770898342 15.41654778 -0.384906292 0.9348499775 
12.59080315 37.38724899 -0.9018164873 0.8539839387 
12.58537006 52.37057495 -1.231231928 0.8061361909 
16.14401054 83.3396759 -1.940516114 0.712023437 
12.45561695 84.21116638 -1.94596076 0.7113445997 
7.347763538 71.54218292 -1.644019127 0.7499496341 
-8.019133568 66.42399597 -1.529445767 0.7651410103 
-13.96821976 84.0714035 -1.948182464 0.7110698223 
-16.18854141 39.70567703 -0.9801937938 0.8423489928 
-21.63643837 34.12033463 -0.9235742688 0.8507382274 
-33.46218491 47.91482925 -1.335971951 0.7914949059 
-30.56022072 39.85748291 -1.148118138 0.8179514408 
-16.0520153 19.11085129 -0.5705215335 0.9049665332 
-16.03943825 17.45625877 -0.541911304 0.9095096588 
-39.36177444 32.76407242 -1.170714498 0.8147222996 
-51.60791016 32.40441132 -1.39301157 0.7836325169 
-51.57183456 26.30591011 -1.32341361 0.7932360768 
-38.52023697 17.53503227 -0.9674986601 0.8442230225 
-38.94770432 15.67760754 -0.9596216083 0.8453686237 
-51.52340698 18.12071419 -1.248518467 0.8037031889 
-51.49372101 13.10415268 -1.214638352 0.808483243 
-15.87465191 3.295583487 -0.3706230223 0.9371898174 
-53.55885696 8.653996468 -1.240207911 0.8048730493 
-12.70397568 0.9060277939 -0.2911427319 0.9503183365 
-12.69211006 0.3389526308 -0.2902374268 0.9504688978 
-12.66829205 -0.7902075052 -0.2901524305 0.9504830837 
-12.78395462 -1.370476007 -0.2939066887 0.9498584867 
-86.87020111 -17.22954369 -2.024486303 0.7016350031 
-86.01187134 -21.07534409 -2.024352789 0.7016521096 
-37.80233002 -14.82712078 -0.9282391667 0.8500440717 
-30.75494957 -13.67114449 -0.7693707347 0.8740116358 
-24.88382339 -13.83035374 -0.6507879496 0.8923420906 
-20.33839607 -13.8034544 -0.5618894696 0.906334877 
-18.49477768 -13.79254627 -0.5273991227 0.9118225574 
-16.86133575 -13.78287315 -0.4978297353 0.9165543318 
-15.00171852 -13.41920662 -0.4601118267 0.9226253033 
-14.83880615 -14.51222897 -0.4744614959 0.9203105569 
-14.82211399 -17.33096886 -0.5213050842 0.9127959609 
-12.45214081 -17.4966526 -0.4909120202 0.9176642895 
-10.23286629 -17.48351288 -0.4630846977 0.9221448302 
-9.211032867 -17.47746849 -0.4516158998 0.9239981771 
-9.618971825 -20.40371704 -0.5156492591 0.9136998057 
-8.927341461 -24.34033394 -0.592653513 0.9014682174 
-13.28570557 -41.90201187 -1.004852057 0.8387210369 
-11.25769234 -41.89000702 -0.9915596843 0.8406744599 
-8.889694214 -50.70897293 -1.176855445 0.8138469458 
-6.948927879 -81.99310303 -1.881027937 0.7194745541 
-3.481994629 -86.89533234 -1.987969041 0.7061333656 
0.3866967559 -86.92106628 -1.986982584 0.7062552571 
11.33244801 -81.62864685 -1.883882284 0.7191162109 
15.01818085 -81.40035248 -1.892168283 0.7180736065 
14.26482105 -61.77316284 -1.449247241 0.7759544253 
18.72104645 -43.67700958 -1.086282015 0.8268516064 
21.28261375 -44.12200165 -1.119808197 0.8220137358 
14.50051022 -26.9300499 -0.6991754174 0.8848162889 
14.48464584 -24.2502079 -0.6457055807 0.8931359649 
13.99931812 -19.304533 -0.5451107621 0.9090000391 
15.34835625 -19.29655075 -0.5636251569 0.9060592055 
16.79524612 -19.28800011 -0.5846412778 0.9027326703 
19.63775635 -18.86668205 -0.6225144863 0.8967686892 
19.62815666 -17.24557304 -0.5972710848 0.9007392526 
19.61929321 -15.74806881 -0.575088799 0.904242456 
26.5735569 -16.03320503 -0.7094572186 0.8832249045 
31.61546135 -15.42372322 -0.8041281104 0.8687106371 
35.6464386 -15.46700382 -0.8882564902 0.8560126424 
42.58799744 -16.2682972 -1.042152524 0.8332635164 
54.30220413 -15.37354183 -1.290099859 0.797873795 
79.22554779 -11.35830498 -1.829564214 0.7259848714 
86.20690155 -8.466545105 -1.980120182 0.7071042061 
86.49156952 -4.623010159 -1.979964137 0.7071229815 
86.6063385 -0.7709399462 -1.979851127 0.7071378827 
86.55185699 3.082634211 -1.97978127 0.7071464658 
86.32775879 6.929636002 -1.979754448 0.7071501017 
51.42270279 8.779206276 -1.192498803 0.8116212487 
49.59654999 10.75765324 -1.160108805 0.8162355423 
40.49699402 10.69039726 -0.9574484825 0.8457083106 
36.18712616 11.29677963 -0.8665876389 0.8592654467 
36.30913925 14.99242878 -0.8979793191 0.8545573354 
36.14838028 20.94180107 -0.9549836516 0.8460734487 
13.73132133 8.793214798 -0.3727325499 0.9368434548 
53.33268356 37.59988022 -1.491685152 0.7702150941 
36.13831329 30.62925911 -1.082902789 0.8273409009 
36.05441666 33.42510223 -1.123875737 0.8214289546 
36.12097168 36.60658264 -1.175601959 0.8140260577 
46.47713852 51.49525452 -1.585707784 0.7576425672 
27.19276047 32.96599197 -0.9768756032 0.8428375721 
24.80283356 32.95183945 -0.9427987933 0.847880125 
22.56976509 32.93862152 -0.9127598405 0.8523493409 
6.821264267 15.16316605 -0.380078882 0.9356398582 
6.736601353 16.95297241 -0.4170127809 0.9296113849 
12.65917969 50.68746948 -1.19427824 0.8113691807 
16.88352776 83.18447113 -1.940331101 0.7120472789 
5.751813889 86.04748535 -1.971392274 0.7081862688 
-1.945026755 87.39663696 -1.99833858 0.7048540711 
-9.45587635 84.64715576 -1.947018385 0.7112126946 
-13.218503 84.18444824 -1.947988749 0.7110925317 
-20.66875648 82.75806427 -1.94992125 0.7108532786 
-15.88642883 39.9789505 -0.9834085703 0.8418749571 
-38.51321793 76.34085846 -1.954616666 0.7102690339 
-16.04251862 19.44831085 -0.576312542 0.9040498734 
-19.48962784 18.06830788 -0.6075211763 0.8991245627 
-20.20366859 17.12377739 -0.6054150462 0.8994566798 
-42.9018364 33.1985321 -1.240049362 0.804894805 
-51.63154984 36.40057373 -1.44409883 0.7766560316 
-51.6117363 33.05089951 -1.400987267 0.7825376391 
-51.57528305 26.88888359 -1.329592228 0.7923787236 
-52.65340805 19.04646111 -1.279951692 0.7992926836 
-51.55420685 8.801652908 -1.19555068 0.8111881614 
-12.70634842 1.019904733 -0.291394949 0.9502766132 
-12.67068481 -0.6772534251 -0.290058285 0.9504988194 
-87.66950989 -12.56888866 -2.024572372 0.7016249895 
-86.19787598 -20.30932808 -2.024383307 0.7016468644 
-37.80461884 -14.44108582 -0.925098598 0.8505109549 
-31.14713097 -13.5147438 -0.7761463523 0.8729764819 
-27.66016769 -13.49411392 -0.7035267353 0.8841424584 
-25.41979027 -13.83352757 -0.661557734 0.890661478 
-22.90311623 -13.81863499 -0.6114710569 0.8985042572 
-20.73673058 -13.80581284 -0.5694776773 0.9051320553 
-18.84511375 -13.79462147 -0.5338685513 0.9107906818 
-15.27486515 -13.42082214 -0.4648071229 0.9218671322 
-14.83250237 -15.57694054 -0.4916862249 0.9175399542 
-14.82393074 -17.02409363 -0.5160221457 0.9136404991 
-10.44364929 -17.48475838 -0.465562731 0.9217451215 
-9.411403656 -17.47864914 -0.4537902772 0.9236460924 
-9.621671677 -19.94715118 -0.5062565207 0.9152033925 
-9.607057571 -22.4136982 -0.5574479699 0.9070398808 
-13.69815636 -41.90444183 -1.007792234 0.8382891417 
-11.65913296 -41.89238358 -0.994032979 0.8403105736 
-9.670978546 -41.88061523 -0.9825600982 0.8419995308 
-8.943185806 -48.47432327 -1.126798272 0.8210090995 
-4.152522087 -84.76964569 -1.940105796 0.7120736837 
3.47888422 -86.81777191 -1.986191392 0.7063527107 
10.62891293 -81.90740204 -1.888067722 0.7185909748 
18.02289772 -81.34346771 -1.904558182 0.7165181041 
14.03094006 -52.20923615 -1.235820532 0.8054908514 
13.93292713 -43.94332123 -1.053835869 0.8315654397 
16.02534294 -43.69296646 -1.063861847 0.8301033974 
18.26370239 -43.6797142 -1.082264185 0.8274334669 
14.48762417 -24.75281906 -0.6556272507 0.8915858865 
15.07129574 -19.29818535 -0.5597369075 0.9066764712 
18.03489876 -19.28066063 -0.6035063267 0.8997568488 
19.63977242 -19.20754623 -0.6279702783 0.8959127069 
19.62100792 -16.03870392 -0.5793057084 0.9035760164 
23.64925575 -16.05050087 -0.6533567905 0.8919402361 
26.05156898 -16.03629112 -0.6993093491 0.884795785 
31.61753654 -15.77469444 -0.8077200651 0.8681645989 
35.64867401 -15.84650612 -0.8917925358 0.8554831147 
46.2077713 -15.79068565 -1.116254091 0.8225248456 
52.55049515 -15.38391781 -1.251690745 0.8032564521 
77.85112762 -19.07538223 -1.832278371 0.7256410122 
78.56069183 -15.5811348 -1.830837846 0.7258242369 
86.12989807 -9.233371735 -1.980156541 0.7070993185 
78.99131012 12.76335621 -1.829116464 0.7260423899 
51.40998077 10.67275143 -1.200262308 0.8105198741 
41.70141983 10.61218929 -0.9836503267 0.841838479 
36.23013687 12.74209118 -0.8779312968 0.8575616479 
36.41866302 14.65959454 -0.8974230289 0.8546402454 
45.1708107 28.3628006 -1.219255686 0.8078294396 
36.0766716 27.4073658 -1.035680056 0.8342068791 
36.14141464 30.0834465 -1.074932933 0.8284958601 
36.1083374 32.88256836 -1.116388202 0.8225055933 
23.00507355 32.94119644 -0.9184707999 0.8514979482 
6.948885441 15.08647919 -0.3796925247 0.9357031584 
6.747884274 16.55054855 -0.4085722268 0.9309852719 
18.97990799 53.20886612 -1.291388273 0.7976944447 
21.28704834 82.11875153 -1.939231277 0.7121829391 
13.9174242 83.76538086 -1.941074729 0.7119529247 
8.6515522 71.6625061 -1.650066137 0.7491568923 
6.517136097 85.98783875 -1.9712677 0.7082005739 
1.508966088 48.42819214 -1.1075809 0.823775351 
-3.365973949 58.12102509 -1.33084619 0.7922054529 
-12.46736526 84.2899704 -1.947794795 0.7111178637 
-19.9294548 82.93095398 -1.949728847 0.7108761072 
-18.98147202 56.36382675 -1.359553218 0.7882351279 
-15.91143799 41.10378647 -1.007555842 0.8383244276 
-37.82890701 76.67324066 -1.954434752 0.7102920413 
-21.62556267 35.48420334 -0.9499170184 0.8468241096 
-30.4317627 41.18778229 -1.170652866 0.8147321343 
-49.86748123 61.56248856 -1.811059713 0.728341341 
-8.122401237 9.161956787 -0.2798908949 0.9521918893 
-16.37006187 16.88807297 -0.5376524329 0.9101879001 
-42.08436584 33.16904449 -1.224906683 0.8070309162 
-51.63567352 37.09592056 -1.453396916 0.7753937244 
-38.48208237 16.29191208 -0.9552698135 0.8460316062 
-42.49488068 15.80072975 -1.03638947 0.8341042399 
-51.51432419 16.58599854 -1.237123728 0.8053076863 
-53.50494003 12.1048069 -1.254008412 0.8029314876 
-48.08070374 8.649581909 -1.116745472 0.822455287 
-51.05154037 6.855900764 -1.177484751 0.8137572408 
-12.70872688 1.134025812 -0.2916691601 0.9502309561 
-87.77839661 -11.78809834 -2.02458334 0.7016236186 
-86.37569427 -19.54134941 -2.024411678 0.7016454935 
-52.31189346 -14.30832291 -1.239752293 0.8049377799 
-37.79537582 -16.00135994 -0.9382221103 0.8485593796 
-25.97359085 -13.83680344 -0.6727415323 0.8889200091 
-21.14583015 -13.80822468 -0.5773158073 0.9038912058 
-19.20437241 -13.7967453 -0.5405476093 0.9097269177 
-17.49222374 -13.78661346 -0.5091286898 0.9147432446 
-14.8257122 -16.7232151 -0.5108799338 0.9144628644 
-13.05825424 -16.12069511 -0.4742426872 0.9203460813 
-9.613630295 -17.47984505 -0.4560262859 0.9232850671 
-9.319850922 -24.07613564 -0.5901635885 0.901860714 
-12.06242847 -41.89477539 -0.9965967536 0.8399335742 
-10.06503677 -41.88294983 -0.9846785665 0.8416875005 
-9.208518028 -62.25803757 -1.438667893 0.7773945928 
-8.393733025 -81.72621155 -1.878041148 0.7198514938 
-4.839680195 -83.56798553 -1.913513899 0.7153956294 
-1.160598159 -86.93143463 -1.987377524 0.7062065005 
13.529109 -81.4283905 -1.886932492 0.7187333107 
17.2677803 -81.35781097 -1.901229382 0.7169369459 
14.04349804 -45.69936371 -1.092875838 0.8258980513 
20.01835251 -43.4611702 -1.093824387 0.8257614374 
13.80162811 -21.76496315 -0.5891301036 0.9020231366 
14.87107658 -21.29405022 -0.5937222242 0.9012989402 
16.20373726 -19.29149055 -0.5759136677 0.9041128159 
17.71748734 -19.28253555 -0.5986082554 0.9005290866 
19.62275505 -16.33366394 -0.5836293101 0.902892828 
20.27406502 -15.40217018 -0.5820228457 0.9031462669 
25.54451942 -16.03928375 -0.6894965768 0.8863158822 
28.23495293 -16.02336121 -0.7421273589 0.8781893849 
31.37677383 -16.00478745 -0.8051747084 0.8685513735 
35.65093994 -16.228899 -0.895428896 0.8549392223 
42.59319305 -17.14502716 -1.049576163 0.8321807981 
50.89917755 -15.39369392 -1.215574741 0.8083503246 
60.84210968 -15.4831419 -1.435150146 0.7778739929 
78.43144989 -16.28242302 -1.831125855 0.7257870436 
79.01598358 -12.76733589 -1.829682827 0.7259697914 
86.39780426 -6.161769867 -1.980021477 0.7071167231 
71.60094452 4.466286659 -1.639939427 0.7504851818 
54.71272278 10.85154533 -1.275063872 0.7999770641 
24.7946167 13.78077888 -0.648452282 0.8927065134 
36.04861069 22.19004822 -0.9676596522 0.8441984653 
39.04251862 26.49774551 -1.078628063 0.8279600739 
36.12921143 26.94348526 -1.030263424 0.8349983096 
36.13986206 29.54159927 -1.0670228 0.8296436071 
36.07919693 32.27325439 -1.106562853 0.8239215016 
25.73850822 32.95737839 -0.9559128881 0.8459359407 
23.44569206 32.94380569 -0.9243251085 0.8506261706 
7.813607216 13.35005093 -0.3536012173 0.9399858713 
6.944981575 14.73164845 -0.3723033071 0.9369142652 
12.59851456 56.86129761 -1.33133781 0.7921361327 
11.05213642 85.16868591 -1.963232517 0.7091977 
7.281813622 85.92080688 -1.971140742 0.7082164884 
3.495739698 87.23741913 -1.995801926 0.7051667571 
-2.846181631 58.10187912 -1.329774141 0.7923539877 
-7.960534573 84.93758392 -1.950138211 0.7108254433 
-11.71587086 84.38919067 -1.947600842 0.7111418843 
-15.46575928 83.82649994 -1.948570013 0.7110204101 
-19.18886375 83.09674835 -1.949536085 0.7109001279 
-18.94922638 57.96818161 -1.394124389 0.7834792137 
-15.91228008 42.21843719 -1.031366229 0.8348380327 
-37.14161301 77.00010681 -1.954252124 0.7103135586 
-27.40128136 50.88909912 -1.32122016 0.7935413122 
-31.69495201 39.84815216 -1.16391623 0.8156927824 
-8.007409096 9.195865631 -0.2787361145 0.9523840547 
-18.93512344 18.19146729 -0.6002297997 0.9002719522 
-19.56274033 17.18810272 -0.5952819586 0.9010531306 
-48.27843475 26.27326775 -1.256464362 0.8025867939 
-38.37828827 18.72297859 -0.9761400223 0.8429464698 
-38.36919022 16.64840126 -0.9561074376 0.8459074497 
-41.51278305 15.85757542 -1.015838385 0.8371096849 
-51.51733398 17.09453392 -1.240797043 0.8047894835 
-51.50246048 14.58087635 -1.223589182 0.8072170615 
-12.79230404 1.256354928 -0.2938313186 0.949871242 
-12.69922924 0.6787768602 -0.2907124162 0.9503901005 
-12.68736267 0.1128881797 -0.2900367677 0.9505022764 
-12.66348648 -1.016511202 -0.290410459 0.9504401088 
-87.88027954 -11.00670147 -2.024592161 0.7016223073 
-87.30117035 -14.90461159 -2.02453661 0.7016294003 
-53.27157974 -14.06263351 -1.259476423 0.8021630645 
-37.79771042 -15.60707283 -0.9347935319 0.8490686417 
-23.86262131 -13.8243084 -0.6304133534 0.8955295086 
-19.57275391 -13.79892349 -0.5474395752 0.9086305499 
-15.83862972 -13.42415237 -0.4746151567 0.9202861786 
-14.84325886 -13.7609005 -0.4626924098 0.9222086072 
-14.83571053 -15.03516293 -0.4828469753 0.9189610481 
-11.98693562 -17.49389839 -0.4847733974 0.918651104 
-10.87203598 -17.48729706 -0.4707083106 0.9209153056 
-9.817966461 -17.48105621 -0.4583196938 0.922914505 
-8.966252327 -17.77289772 -0.4550521672 0.9234423637 
-9.56771183 -24.07760048 -0.5922640562 0.9015293121 
-10.46081734 -41.88529205 -0.9868842959 0.8413627148 
-9.702472687 -61.79238129 -1.429846048 0.7785958052 
5.793610573 -86.66730499 -1.985597491 0.7064281702 
12.78788757 -81.44229126 -1.884544134 0.7190338969 
16.51564217 -81.37205505 -1.898053288 0.7173355818 
15.37525082 -61.56274414 -1.450515747 0.7757840753 
14.63217449 -49.16954041 -1.17270875 0.8144389987 
15.15049553 -43.69814301 -1.057248354 0.8310639858 
17.35912323 -43.68507767 -1.074573517 0.8285484314 
19.64594841 -43.67155075 -1.094674349 0.8256385922 
14.49385929 -25.80657387 -0.6765945554 0.8883196712 
15.91457748 -19.29320526 -0.5717138648 0.9047774673 
17.40530968 -19.28438187 -0.5938288569 0.9012818336 
12.54673576 -12.7153244 -0.4083459377 0.9310222268 
19.6245327 -16.63292122 -0.5880581737 0.9021928906 
25.05096817 -16.0422039 -0.6800065637 0.8877896667 
49.34108353 -15.40291691 -1.181590796 0.8131728768 
58.04730225 -15.32333183 -1.37238276 0.7864659429 
78.29597473 -16.98228645 -1.831414342 0.7257498503 
79.41155243 -9.94560051 -1.829485416 0.7259955406 
86.34085083 -6.930675983 -1.98005259 0.707112968 
68.92526245 0.6132397056 -1.575660944 0.7589768171 
71.31522369 3.811813831 -1.632555842 0.7514559031 
38.24219513 10.82696342 -0.9085516334 0.8529769778 
36.12302399 15.67377853 -0.9001329541 0.8542351723 
36.23940659 17.67970848 -0.9217401743 0.8510109186 
56.04723358 37.31429672 -1.539185166 0.7638377547 
36.28118896 26.55777359 -1.027816653 0.8353557587 
36.27952194 31.8759346 -1.103964925 0.8242963552 
36.12391663 37.93695068 -1.197477579 0.81091398 
43.4131546 49.85606384 -1.511204839 0.7675873637 
26.21634865 32.96020889 -0.9627255201 0.844927907 
23.89240837 32.94645309 -0.9303300977 0.8497322798 
9.045808792 13.71897793 -0.3756460547 0.9363664389 
6.613190651 13.71026421 -0.3479647636 0.9409140944 
6.715727329 17.81838608 -0.4352864027 0.9266422391 
12.60577583 54.58871841 -1.280700803 0.7991874814 
15.40299511 83.48790741 -1.940701962 0.7120007277 
8.045407295 85.84693909 -1.971011877 0.7082327008 
0.2135204971 47.9925766 -1.097095966 0.825288415 
-2.328825712 58.12322235 -1.329728007 0.7923594117 
-10.96342468 84.48170471 -1.947406769 0.7111659646 
-18.44699478 83.25592804 -1.949343324 0.7109242082 
-17.25980759 54.43523407 -1.305414438 0.7957392931 
-15.88548756 43.31167984 -1.054569602 0.831453383 
-36.45135498 77.32036591 -1.954068899 0.7103364468 
-35.34037781 67.0558548 -1.732706904 0.7383969426 
-28.25839043 48.28131866 -1.278828382 0.7994505763 
-30.24559975 42.4984169 -1.192396998 0.8116354942 
-7.950164795 9.29592514 -0.2796151638 0.9522379041 
-19.2209053 17.19331932 -0.5895143151 0.9019632936 
-52.2814064 38.98902512 -1.490869403 0.7703245878 
