# .PCD v0.7 - Point Cloud Data file format
VERSION 0.7
FIELDS x y z intensities
SIZE 4 4 4 4
TYPE F F F F
COUNT 1 1 1 1
WIDTH 920
HEIGHT 1
VIEWPOINT 0 0 0 1 0 0 0
POINTS 920
DATA ascii
10.85469913 40.39041519 -1.338707566 0.8458781838 
10.94592094 49.40261459 -1.619654059 0.8166811466 
9.992291451 56.99828339 -1.852255225 0.7932723761 
5.284235954 62.35041046 -2.002898932 0.778470695 
2.50431633 62.49602509 -2.002021074 0.7785571814 
-0.2152038515 48.38055038 -1.548603177 0.8239682913 
-5.828520298 62.19179535 -1.999396205 0.7788122892 
-12.68384266 54.92683792 -1.804394364 0.7980334759 
-17.64131165 41.15794754 -1.433326364 0.8359309435 
-28.89344025 48.37338257 -1.803535461 0.7981191278 
-23.26535034 35.2845192 -1.352823138 0.8443873525 
-24.08407402 33.21104813 -1.313139915 0.8485872149 
-31.97290611 40.19760132 -1.644044042 0.8141948581 
-17.61972427 18.50403976 -0.8178506494 0.9027980566 
-9.667253494 9.287671089 -0.4291027784 0.9477629662 
-17.71360588 15.56342983 -0.7547443509 0.9099494219 
-21.87112427 16.00950432 -0.8675741553 0.897202909 
-51.09486389 24.92678833 -1.819722414 0.7965062857 
-42.93242264 16.39987564 -1.471057534 0.8319968581 
-12.997509 1.276506305 -0.418033123 0.94907552 
-12.94865227 0.6921117902 -0.4150596559 0.9494284391 
-12.93781471 0.1151635721 -0.4141366482 0.9495379329 
-12.92691612 -0.4604077041 -0.4140347242 0.9495501518 
-12.91591167 -1.036774874 -0.4147495925 0.9494652152 
-61.0550766 -10.42370796 -1.982567549 0.7804529071 
-55.92784882 -12.13093472 -1.831798315 0.7953041792 
-54.41000748 -14.36314678 -1.801242232 0.7983478904 
-39.49955368 -14.28827858 -1.344498515 0.845266223 
-32.80450821 -13.54532433 -1.136020303 0.8675893545 
-26.57496071 -13.85490417 -0.9592892528 0.8869732618 
-23.88327026 -13.83627701 -0.8834921122 0.8954191804 
-21.58161163 -13.82035828 -0.8203003407 0.9025217891 
-19.58354187 -13.80654049 -0.7669599652 0.9085606933 
-16.51675987 -16.73880577 -0.7527054548 0.9101815224 
-14.4442358 -17.51086617 -0.7265773416 0.9131597877 
-11.30826378 -20.13456345 -0.7391688228 0.9117234945 
-11.29271221 -22.38440132 -0.802509129 0.9045317173 
-10.83432579 -24.08394814 -0.8453056216 0.8997045159 
-16.48693085 -41.49011612 -1.429048777 0.8363779187 
-12.46821976 -41.89778137 -1.399211645 0.8395040035 
-10.48886967 -41.99759674 -1.385571837 0.8409366012 
-11.50583744 -56.68888474 -1.851521373 0.7933446765 
-4.169597149 -62.37366867 -2.000948668 0.778660953 
-1.391218185 -62.52490234 -2.001825809 0.7785752416 
1.392072678 -62.55118942 -2.002673388 0.7784932852 
6.952219009 -62.23513412 -2.004454136 0.7783201933 
8.978722572 -57.18296814 -1.852777243 0.7932213545 
11.54705334 -56.89202118 -1.858156681 0.7926868796 
12.99295139 -52.02401352 -1.716365218 0.8068659902 
15.14114952 -43.67119217 -1.479485393 0.8311203122 
17.34755135 -43.65593719 -1.5036484 0.8286132812 
12.5030489 -27.793396 -0.9755025506 0.8851773739 
12.80901623 -25.39003181 -0.9102641344 0.8924269676 
13.21348858 -19.28394318 -0.7482513189 0.9106884599 
10.62921143 -12.88589287 -0.5346745253 0.9353349805 
17.37890816 -19.2551384 -0.8302423954 0.9014004469 
17.94421196 -18.18530083 -0.8177566528 0.9028089643 
24.99388313 -16.00550079 -0.9499980211 0.8880043626 
29.92436218 -15.60114002 -1.080197215 0.8736658096 
40.90071487 -16.88834763 -1.416390181 0.8377029896 
42.11691284 -15.23506069 -1.433597684 0.8359029889 
49.14788818 -15.34283447 -1.648031831 0.8137893677 
56.42683411 -14.89555836 -1.868009329 0.791711092 
57.01527405 -12.36676693 -1.86741221 0.7917704582 
62.66731262 -7.848593712 -2.021556854 0.7766566277 
62.95654297 -5.05332756 -2.021625042 0.7766499519 
63.15670776 0.5621777177 -2.021641731 0.7766494155 
63.06781006 3.370983839 -2.021590471 0.776653707 
62.8523407 6.172843933 -2.021499395 0.7766633034 
57.75251007 8.279755592 -1.86747396 0.7917642593 
57.25772476 10.82749271 -1.865220428 0.7919877768 
38.53115463 10.9085741 -1.281803131 0.8519186378 
34.44701385 11.43024349 -1.161715031 0.8648061156 
34.59543991 13.21520805 -1.185389757 0.8622498512 
34.61649704 15.02009773 -1.207832575 0.8598339558 
24.87639427 16.56184959 -0.9565865993 0.8872731924 
34.50428772 27.6961937 -1.416223407 0.8377203941 
34.38083267 30.20769882 -1.464913249 0.8326360583 
34.3185463 36.04096985 -1.592957735 0.8194119334 
26.24723625 32.99901581 -1.349625826 0.8447244763 
23.91863251 32.98289871 -1.304122329 0.8495448828 
19.68317032 32.95358276 -1.228636622 0.8576009274 
18.52711678 34.40815735 -1.250864863 0.8552200794 
6.444473743 13.36034489 -0.4747965932 0.9423636794 
5.725162029 13.35704422 -0.4651582241 0.9434999228 
5.229035378 13.8736496 -0.4745721221 0.9423902631 
4.976473808 17.88090324 -0.5940946937 0.9284117222 
-5.275400162 62.24649811 -1.999570131 0.7787956595 
-7.423881531 57.20903778 -1.846534252 0.7938402295 
-9.878061295 56.34677505 -1.831080079 0.7953750491 
-17.02597809 53.69844437 -1.803137064 0.7981590033 
-19.39209366 52.87242126 -1.802611351 0.798211813 
-18.51187134 39.26731873 -1.389564514 0.8405175805 
-36.68714142 42.89702225 -1.806744337 0.7977995872 
-17.63646317 15.77602673 -0.7574142218 0.9096460938 
-48.32925797 29.74949837 -1.816542029 0.7968228459 
-49.64266586 27.59127617 -1.81793046 0.7966846228 
-50.8625679 25.37640762 -1.819414139 0.7965362072 
-53.93530273 18.43140793 -1.8244133 0.7960387468 
-55.47400284 13.59244347 -1.828173757 0.7956651449 
-12.93998528 0.2303344607 -0.4142550528 0.9495238066 
-12.9291048 -0.3452856243 -0.4139892459 0.9495554566 
-12.91812134 -0.9213036895 -0.4145405591 0.9494900107 
-61.14455795 -9.87967968 -1.982534885 0.7804557085 
-55.46560287 -14.11492443 -1.83196044 0.7952880263 
-47.32967758 -14.31416702 -1.582727909 0.8204610944 
-39.50228119 -13.89290237 -1.340331435 0.8457069993 
-27.16981697 -13.8590107 -0.9762749076 0.8850918412 
-17.69226074 -13.44077396 -0.7111890912 0.9149184823 
-13.42081261 -17.50378227 -0.7060055137 0.9155116081 
-11.08929634 -17.48765373 -0.6628078818 0.9204694629 
-10.73029041 -26.3182106 -0.9097346067 0.892485857 
-14.95129108 -41.91495895 -1.424436331 0.8368602991 
-12.87594414 -41.90059662 -1.403077841 0.8390984535 
-10.76486588 -50.71902084 -1.659606576 0.8126119971 
-9.475939751 -57.03341675 -1.850584626 0.7934383154 
-7.16204834 -59.324646 -1.912685752 0.7873014808 
0.8351586461 -62.55570984 -2.00250411 0.7785100937 
8.754133224 -59.18579865 -1.915062189 0.7870674133 
12.54283905 -52.19369888 -1.718209743 0.8066797256 
14.70801926 -43.67417908 -1.47509253 0.8315769434 
12.20780468 -27.79544067 -0.9717199206 0.8855956793 
12.96911812 -21.28031921 -0.797683537 0.9050776362 
15.60717487 -19.2673893 -0.7936679721 0.9055319428 
17.0722332 -19.25726318 -0.8237481713 0.9021326303 
15.41834164 -15.90624714 -0.7090678215 0.9151608348 
17.93551445 -16.92686272 -0.7893878818 0.906016767 
17.92543602 -15.46912289 -0.7578855753 0.9095932841 
27.04522705 -15.99130535 -1.005681038 0.8818430305 
29.92672539 -15.94276047 -1.085360765 0.8731018305 
33.95914078 -16.19464493 -1.204261541 0.8602183461 
56.9044342 -12.87388897 -1.86746335 0.7917657495 
57.42275238 -10.33019733 -1.867523789 0.7917594314 
49.68813324 8.93873024 -1.61597836 0.8170569539 
48.04056549 10.86856651 -1.576576233 0.8210924268 
39.27653885 10.74290276 -1.303367138 0.8496248722 
34.54850769 11.12368488 -1.161758065 0.8648018837 
34.567276 12.85320663 -1.180462956 0.8627815247 
34.84824371 14.75363255 -1.211290121 0.8594623208 
23.11051941 13.66479111 -0.859369278 0.8981236219 
12.21321774 8.774170876 -0.481351465 0.9415914416 
22.16331291 32.97075272 -1.271620631 0.8530033231 
5.866663456 13.35769272 -0.4669815004 0.9432849884 
5.246628284 13.55369854 -0.4652055204 0.9434944987 
10.7970295 44.9288826 -1.479046345 0.8311651945 
11.00909042 56.83192444 -1.85292685 0.7932060361 
2.802865028 18.94980431 -0.6131544113 0.9262018204 
-1.492916226 47.9137001 -1.534391165 0.8254339695 
-4.721533298 62.29654312 -1.999744415 0.7787783146 
-9.457033157 56.91957474 -1.846892715 0.7938048244 
-11.70617199 55.15397263 -1.804727912 0.7980006933 
-18.11137962 39.32103729 -1.385702133 0.8409229517 
-34.32275772 44.76467133 -1.805557251 0.7979176641 
-33.64582825 40.05734634 -1.674459696 0.8111044168 
-17.57731819 19.12999535 -0.8315588236 0.9012523293 
-17.61648369 17.53829193 -0.7956767082 0.9053045511 
-17.60941124 16.0362606 -0.7623499036 0.9090846181 
-18.68932343 15.55668926 -0.7783424854 0.9072687626 
-46.62354279 32.25276566 -1.814630508 0.7970127463 
-48.055233 30.17368317 -1.816254854 0.7968508005 
-49.3876152 28.02752113 -1.817644954 0.7967125177 
-44.28048706 15.57338619 -1.502458215 0.8287364244 
-54.60085678 16.51321411 -1.825878263 0.7958933115 
-55.33916855 14.08274174 -1.827782989 0.7957034111 
-53.45745087 11.09779072 -1.747582555 0.8037227988 
-21.98428345 2.554914474 -0.7084212899 0.9152351022 
-12.95297813 0.9237865806 -0.4156608582 0.9493572116 
-12.94215584 0.3456274271 -0.4144062698 0.949505806 
-12.93128777 -0.2301830947 -0.4139785767 0.9495568871 
-12.92032909 -0.8059301376 -0.4143644571 0.9495108724 
-39.49124146 -15.4895525 -1.357815266 0.8438603878 
-27.78649902 -13.86328316 -0.9939593077 0.8831368685 
-24.90724564 -13.84336662 -0.9121094942 0.8922209144 
-22.46160889 -13.82644272 -0.8442593813 0.8998221755 
-18.50351715 -13.79905987 -0.7388340831 0.9117617011 
-16.53025055 -14.78650093 -0.7099049091 0.9150653481 
-16.52077293 -16.15719032 -0.7396611571 0.9116671681 
-16.39203835 -17.52434731 -0.7680738568 0.908434391 
-12.45245075 -17.49708748 -0.6874107122 0.9176425338 
-11.30967999 -17.48917198 -0.6666558981 0.9200270772 
-11.31381607 -19.33039284 -0.716925025 0.9142625332 
-11.28202629 -23.93138313 -0.8468630314 0.8995290995 
-11.00516319 -26.32011414 -0.9131487608 0.8921049237 
-10.74235535 -48.48388672 -1.589534521 0.8197625875 
-7.428161621 -57.24203873 -1.847595453 0.7937345505 
3.061984777 -62.50775146 -2.003181458 0.7784433961 
10.52046108 -57.02222443 -1.856006265 0.7929007411 
12.7140255 -45.68266678 -1.517810345 0.8271470666 
12.16131592 -28.37287712 -0.9880844951 0.883785665 
12.71179867 -21.28209686 -0.7934792638 0.9055537581 
13.98053932 -19.27863884 -0.762262404 0.9090946913 
15.32670116 -19.26933289 -0.7880968451 0.9061629176 
17.94880104 -18.84963608 -0.8331280947 0.901075542 
17.93763351 -17.23330688 -0.7962017655 0.9052452445 
19.98319626 -16.04015923 -0.8202044964 0.9025325775 
21.89495277 -16.02692986 -0.868517518 0.8970968723 
24.05053902 -16.01202774 -0.9248262048 0.8908032179 
26.51027489 -15.99500656 -0.991047442 0.883458674 
31.68774986 -15.45899105 -1.12854147 0.8684003949 
40.90666962 -17.74942017 -1.42730999 0.8365598917 
40.8919487 -15.62041187 -1.401136994 0.8393017054 
46.29767609 -15.3625555 -1.561379552 0.8226538897 
57.3276825 -10.84073448 -1.867498159 0.7917621732 
62.8556633 -6.173176289 -2.021602631 0.7766529322 
63.06946182 -3.371091127 -2.021646738 0.7766485214 
63.11852264 2.248027325 -2.021615744 0.7766515017 
62.95344543 5.053347111 -2.021540642 0.7766595483 
49.73423767 10.78751469 -1.628935933 0.8157339096 
34.70048904 10.83269787 -1.163574338 0.8646048903 
25.7905407 12.01855087 -0.9107555151 0.892372191 
34.49940109 17.98632812 -1.245340109 0.8558109999 
27.40099525 15.87418652 -1.013578057 0.8809686899 
25.88598061 16.5767765 -0.9839059114 0.884247601 
34.43756104 29.18778992 -1.44495821 0.834716022 
34.49046326 31.97516441 -1.505429029 0.8284290433 
34.27927017 34.7401123 -1.56218791 0.8225708604 
34.58182907 38.31558609 -1.652105927 0.8133766055 
24.83096695 32.98921204 -1.321636915 0.8476862907 
20.49105644 32.95917511 -1.24224174 0.8561426997 
18.8014698 33.47633743 -1.228967428 0.857565403 
6.740854263 13.36170578 -0.4790347219 0.9418646097 
5.009670258 16.83433342 -0.562196672 0.9321218729 
10.83733845 43.39281082 -1.431603551 0.8361107111 
2.984076977 19.00468063 -0.6157656908 0.9258995652 
2.1263237 19.03442764 -0.6130570769 0.9262135029 
-3.92003417 58.64031982 -1.881186604 0.7904086113 
-10.14660645 49.99197006 -1.632794261 0.8153403997 
-13.65694046 54.68258667 -1.804081082 0.7980657816 
-9.991903305 33.57645798 -1.121319532 0.8691858053 
-18.450037 53.21490097 -1.802806854 0.7981924415 
-20.79244423 52.32514572 -1.802241445 0.7982486486 
-31.99550438 42.50771332 -1.702962399 0.8082181811 
-17.618433 17.85515022 -0.8029088974 0.9044863582 
-9.887275696 9.166228294 -0.4315563738 0.9474722147 
-20.75300026 16.05919838 -0.8399339318 0.900308907 
-46.32619858 32.66027069 -1.814302325 0.7970461249 
-47.77673721 30.59507561 -1.81595695 0.7968811989 
-49.1285553 28.46160316 -1.817363381 0.7967406511 
-50.38606262 26.26887321 -1.818809271 0.7965965867 
-40.05051804 18.66378212 -1.414325714 0.8379192352 
-40.08019638 16.54954147 -1.387978435 0.8406843543 
-43.2138176 15.63184738 -1.470932245 0.8320099115 
-54.44076157 16.9951725 -1.825506806 0.7959297895 
-21.73361588 3.710490704 -0.7057279944 0.915543437 
-21.75687408 2.724873066 -0.7018470764 0.91598773 
-61.30890656 -8.789650917 -1.982473969 0.7804613709 
-58.98322296 -11.15381527 -1.921429992 0.7864412665 
-55.70534134 -13.1249094 -1.831876636 0.7952968478 
-39.49403 -15.08642769 -1.353240371 0.8443431854 
-31.1851902 -13.53124714 -1.088110209 0.8728018403 
-28.42598152 -13.86770725 -1.012378693 0.881105423 
-25.4447155 -13.84708691 -0.9272413254 0.8905344605 
-22.92134285 -13.82962608 -0.8568758368 0.898403585 
-18.85451126 -13.80148125 -0.7479172945 0.9107269049 
-16.51259422 -17.34135437 -0.7664637566 0.9086173773 
-10.68227768 -12.26773453 -0.5206768513 0.9369733334 
-11.53275585 -17.49072075 -0.6706008911 0.919573307 
-10.65581322 -17.83996391 -0.6651368737 0.9202013612 
-11.2822628 -26.32202911 -0.9166632891 0.8917130232 
-15.80010986 -41.92082977 -1.433970928 0.835863471 
-11.1147871 -48.13309479 -1.581214666 0.8206158876 
-10.4966135 -56.89429474 -1.851842165 0.7933138013 
-5.83149147 -62.22372818 -2.000423193 0.7787123322 
-0.2782690227 -62.5501442 -2.00216651 0.7785428762 
2.505529642 -62.52708817 -2.003011942 0.7784603238 
5.286818504 -62.38129807 -2.003891468 0.7783741355 
10.00666237 -57.08050537 -1.854930282 0.7930074334 
13.84949398 -43.68012619 -1.466738105 0.8324463367 
18.16435242 -43.4421196 -1.50718224 0.8282473683 
12.82149601 -27.1968956 -0.9624246955 0.8866259456 
12.47371292 -19.28907013 -0.7352647185 0.9121684432 
15.05025101 -19.27124786 -0.7826701999 0.906778276 
18.81509972 -15.37993336 -0.7778537869 0.9073248506 
34.35721207 -15.27241898 -1.20347178 0.8603018522 
56.67480469 -13.88668633 -1.867739797 0.7917380333 
57.2278595 -11.35015392 -1.86747086 0.7917656898 
61.52481461 -9.379973412 -1.992081285 0.7795250416 
57.57460022 9.302846909 -1.866784215 0.7918329835 
41.84924698 10.64981651 -1.382224679 0.8412883878 
36.23684311 10.95928955 -1.211776495 0.8594102859 
34.5533905 12.15237808 -1.172415137 0.8636502028 
34.39513016 13.84505367 -1.186785102 0.8620997071 
34.55975723 21.70012665 -1.306199908 0.8493239284 
23.94172096 16.5621624 -0.9318383336 0.8900231123 
36.42741776 43.36892319 -1.812892318 0.7971865535 
19.04185104 33.20847702 -1.225302935 0.85795784 
6.891097069 13.36240005 -0.481238097 0.9416049719 
6.15320158 13.35900879 -0.4707820117 0.9428367615 
5.027154446 16.35924721 -0.5478027463 0.9338009357 
10.85795975 41.88660431 -1.385052443 0.8409922719 
10.80229378 50.89529037 -1.665383816 0.8120261431 
9.483190536 57.07686234 -1.851996779 0.7932984829 
1.947726965 62.51051712 -2.001845598 0.7785737514 
-0.6397265196 47.91607285 -1.533860087 0.8254888058 
-3.612714767 62.38161469 -2.000093222 0.7787442803 
-8.440253258 57.06361389 -1.846400857 0.7938538194 
-17.97667503 53.38012695 -1.802911997 0.798181951 
-20.32747459 52.51163101 -1.802368402 0.7982364297 
-24.54156876 33.2157402 -1.321912527 0.8476572037 
-35.51678467 43.846241 -1.806131124 0.7978608608 
-46.02554703 33.06551361 -1.813977599 0.7970779538 
-48.86573029 28.89331818 -1.817085624 0.7967685461 
-40.25613785 17.04297829 -1.399264336 0.8394986391 
-54.27638626 17.47529411 -1.825139165 0.7959666848 
-55.05655289 15.05906963 -1.827011347 0.7957800031 
-55.73131561 12.60847378 -1.828963995 0.7955861688 
-21.70815468 2.915263653 -0.7010858059 0.9160750508 
-12.957304 1.156213403 -0.41639328 0.9492701888 
-12.92472458 -0.5755078197 -0.4141117632 0.9495409131 
-12.91369343 -1.152316928 -0.4149903655 0.9494365454 
-61.3839035 -8.243474007 -1.982445836 0.7804639935 
-55.81892395 -12.62829304 -1.83183682 0.7953001857 
-52.46300507 -14.34967995 -1.740950108 0.8043894768 
-31.97387886 -13.53671074 -1.111382842 0.8702659011 
-28.53661156 -13.60870361 -1.01196301 0.8811508417 
-23.39483643 -13.83289719 -0.8699424267 0.8969371915 
-19.2144413 -13.80397701 -0.7572901249 0.9096602201 
-17.04777527 -13.43631554 -0.6947883368 0.9167967439 
-16.53383255 -14.26819992 -0.6990382075 0.9163092375 
-16.52466011 -15.59537792 -0.7272955179 0.9130781889 
-10.8055563 -12.18852043 -0.5213764906 0.936891377 
-10.65824223 -17.48852348 -0.6555479169 0.9213055372 
-11.30535126 -20.55580711 -0.7509089708 0.9103861451 
-11.28927994 -22.88183212 -0.8167055249 0.9029273987 
-16.22866821 -41.92379761 -1.438953519 0.8353428245 
-14.11362553 -41.90916824 -1.415477276 0.8377981782 
-12.06249237 -41.89498138 -1.395480633 0.8398960829 
-11.12741947 -46.30376816 -1.524315715 0.826474905 
-8.45258522 -57.14694214 -1.849091172 0.7935862541 
-6.384587288 -62.16401291 -2.000248432 0.7787290812 
-3.614577532 -62.41368866 -2.001123905 0.7786441445 
-0.8349584937 -62.5402832 -2.001997948 0.778558135 
4.730871677 -62.41969681 -2.003697872 0.778393507 
7.506320477 -62.17638397 -2.00462842 0.7783027291 
9.492677689 -57.13415909 -1.853853703 0.7931141257 
12.02657413 -56.66362 -1.854125381 0.793087244 
13.42388916 -43.68306732 -1.462761402 0.8328596354 
17.79784393 -43.65282059 -1.508930326 0.828065455 
12.80076885 -27.79133987 -0.9793807864 0.884747088 
12.23265839 -19.29073524 -0.7311472297 0.9126380086 
10.68449688 -12.72052479 -0.5317378044 0.9356784225 
17.69032478 -19.252985 -0.8369029164 0.900650084 
17.94198036 -17.86234665 -0.8103803992 0.9036419988 
18.47976685 -15.38224792 -0.7696163654 0.9082592726 
21.10366821 -16.03240967 -0.8483205438 0.8993654251 
25.48528481 -16.0021019 -0.9632236958 0.8865371943 
30.00011826 -15.30256557 -1.077979445 0.873908937 
40.89776993 -16.46256638 -1.411154151 0.8382512331 
62.73490143 -7.290763855 -2.021573782 0.7766558528 
62.99901199 -4.493020058 -2.021633863 0.7766499519 
63.14905167 1.124079585 -2.021634817 0.7766498923 
57.67108154 8.792663574 -1.867304325 0.7917817235 
42.94633865 10.52309799 -1.415313959 0.8378152251 
37.22036743 10.8962841 -1.241374969 0.856235683 
25.32627106 8.654800415 -0.856688261 0.8984251618 
34.52018738 13.53977394 -1.18689239 0.8620877266 
24.05943298 12.00376034 -0.8606368303 0.8979815245 
27.40544701 15.23186207 -1.003578544 0.882073462 
34.40578842 21.17881393 -1.293203831 0.8507051468 
34.42053986 28.13618279 -1.42300415 0.8370103836 
34.30041504 33.54553986 -1.535690308 0.8253006935 
34.56463623 36.95219803 -1.61956048 0.8166893125 
36.81463623 43.04603958 -1.81301713 0.7971736789 
25.7684288 32.99570084 -1.340061188 0.8457359076 
21.31731796 32.96489334 -1.256562352 0.8546113968 
7.170003414 13.60470772 -0.4922430217 0.9403102994 
5.584683895 13.35639858 -0.4633860588 0.9437089562 
5.037889481 15.8890686 -0.5335375667 0.93546772 
2.50431633 62.49602509 -2.002021074 0.7785571814 
-0.2152038515 48.38055038 -1.548603177 0.8239682913 
-3.057524443 62.41663742 -2.000267982 0.7787276506 
-10.27534676 55.69358444 -1.812753439 0.7971996069 
-15.10832977 54.28559494 -1.803646803 0.7981085777 
-17.5021019 53.5411911 -1.803022146 0.7981710434 
-17.64131165 41.15794754 -1.433326364 0.8359309435 
-28.89344025 48.37338257 -1.803535461 0.7981191278 
-23.26535034 35.2845192 -1.352823138 0.8443873525 
-17.61972427 18.50403976 -0.8178506494 0.9027980566 
-17.71360588 15.56342983 -0.7547443509 0.9099494219 
-20.59375763 16.53023911 -0.8452674747 0.8997091055 
-47.20742035 31.42907906 -1.815299392 0.7969471812 
-48.59950256 29.32255554 -1.816811919 0.7967954874 
-49.8941803 27.15255547 -1.818219662 0.7966560721 
-42.93242264 16.39987564 -1.471057534 0.8319968581 
-54.10772324 17.95407867 -1.824774623 0.7960035205 
-21.69114876 3.10978508 -0.7014019489 0.9160387516 
-12.997509 1.276506305 -0.418033123 0.94907552 
-12.94865227 0.6921117902 -0.4150596559 0.9494284391 
-12.92691612 -0.4604077041 -0.4140347242 0.9495501518 
-12.91591167 -1.036774874 -0.4147495925 0.9494652152 
-43.6299324 -13.6202507 -1.462995887 0.8328351378 
-32.80450821 -13.54532433 -1.136020303 0.8675893545 
-21.58161163 -13.82035828 -0.8203003407 0.9025217891 
-17.36633682 -13.43852234 -0.7028680444 0.9158710837 
-16.5355854 -14.01485538 -0.693813324 0.9169083834 
-16.52655411 -15.3214674 -0.721349299 0.9137571454 
-16.51675987 -16.73880577 -0.7527054548 0.9101815224 
-14.54048538 -16.11042213 -0.6946476698 0.9168127775 
-13.1737957 -17.5020771 -0.7011792064 0.9160642624 
-10.87131786 -17.48614502 -0.6590653658 0.9209012985 
-11.30826378 -20.13456345 -0.7391688228 0.9117234945 
-11.29271221 -22.38440132 -0.802509129 0.9045317173 
-10.83432579 -24.08394814 -0.8453056216 0.8997045159 
-14.53124237 -41.91204834 -1.419890761 0.8373363614 
-12.46821976 -41.89778137 -1.399211645 0.8395040035 
-10.48886967 -41.99759674 -1.385571837 0.8409366012 
-11.50583744 -56.68888474 -1.851521373 0.7933446765 
-8.96450901 -57.09236145 -1.849838376 0.7935125828 
-4.169342995 -62.37369156 -2.000948668 0.7786608934 
6.952219009 -62.23513412 -2.004454136 0.7783201933 
8.978722572 -57.18296814 -1.852777243 0.7932213545 
13.00036335 -43.68599701 -1.458930016 0.8332590461 
12.80901623 -25.39003181 -0.9102641344 0.8924269676 
12.11432838 -21.56976318 -0.7918639183 0.905737102 
12.09976768 -19.46207809 -0.7335304022 0.9123661518 
14.50827312 -19.27498817 -0.7722073197 0.907965064 
17.37890816 -19.2551384 -0.8302423954 0.9014004469 
17.93343544 -16.6257534 -0.7827532887 0.9067683816 
20.72160912 -16.03505135 -0.8386675715 0.9004516006 
22.72488976 -16.02118874 -0.8899874091 0.8946921229 
24.99365425 -16.00550461 -0.949991405 0.8880050182 
27.59656906 -15.98749733 -1.020856023 0.8801721334 
29.92435646 -15.60096359 -1.080194712 0.8736661077 
40.90070343 -16.88814163 -1.416386962 0.8377032876 
42.11691284 -15.23506069 -1.433597684 0.8359029889 
49.14857483 -15.34282398 -1.648052931 0.8137872219 
56.42683411 -14.89555836 -1.868009329 0.791711092 
62.95653152 -5.05359602 -2.021625042 0.7766499519 
63.11972427 -2.247805119 -2.021653414 0.7766477466 
62.85236359 6.172585487 -2.021499395 0.7766633034 
57.75251007 8.279755592 -1.86747396 0.7917642593 
57.25776291 10.82725334 -1.865220785 0.7919878364 
47.9366188 11.29450893 -1.576396346 0.8211103678 
38.53098679 10.90871048 -1.281798959 0.851919055 
34.59572983 13.21548462 -1.18539989 0.8622485995 
27.40763664 14.91532326 -0.9987338185 0.8826053739 
34.47609711 20.8014164 -1.288836956 0.8511695266 
24.87639427 16.56184959 -0.9565865993 0.8872731924 
34.50413513 27.69582939 -1.416211843 0.8377215862 
34.38083267 30.20769882 -1.464913249 0.8326360583 
34.53498077 33.17868423 -1.532901287 0.8255877495 
34.3185463 36.04096985 -1.592957735 0.8194119334 
26.24723625 32.99901581 -1.349625826 0.8447244763 
23.91884804 32.98289871 -1.30412674 0.8495444059 
6.44440794 13.36034393 -0.4747956693 0.942363739 
5.725162029 13.35704422 -0.4651582241 0.9434999228 
10.50041866 56.91478348 -1.852513194 0.7932476401 
2.627413273 18.92543983 -0.6115867496 0.9263835549 
5.839240551 62.30626678 -2.003074169 0.7784540057 
3.060771465 62.47684479 -2.00219655 0.7785397172 
0.2781689465 62.52368927 -2.001318932 0.7786253095 
-5.275400162 62.24649811 -1.999570131 0.7787956595 
-7.424101353 57.20901108 -1.846534252 0.7938402295 
-10.11245823 45.64003754 -1.496265531 0.8293744922 
-17.02620506 53.69835663 -1.803137064 0.7981590629 
-19.39209366 52.87242126 -1.802611351 0.798211813 
-18.51187134 39.26731873 -1.389564514 0.8405175805 
-25.9099865 49.16238022 -1.778784752 0.8005930185 
-23.27001572 35.98417282 -1.37165308 0.8424014449 
-23.65596581 33.23927307 -1.30588305 0.8493580222 
-36.68694687 42.89717102 -1.806744337 0.7977996469 
-17.60909462 18.82544708 -0.8251022696 0.9019802213 
-17.61476707 17.22725105 -0.7886445522 0.9061008096 
-19.13314247 15.63977242 -0.7909960747 0.905834794 
-21.47127151 16.01226807 -0.8573315144 0.8983524442 
-46.91730499 31.84197998 -1.814963341 0.7969804406 
-49.64279175 27.59105682 -1.817930579 0.7966846228 
-50.8625679 25.37640762 -1.819414139 0.7965362072 
-41.62868881 18.50451851 -1.458188653 0.8333362937 
-40.33188248 15.81928158 -1.386713982 0.840816319 
-53.93535995 18.43120384 -1.824413419 0.7960388064 
-55.47400284 13.59244347 -1.828173757 0.7956651449 
-17.50608063 3.472092152 -0.5712580681 0.931066215 
-21.67447472 3.30446291 -0.7017853856 0.9159947634 
-56.88822937 6.098835468 -1.831344843 0.7953491211 
-12.95081425 0.807839334 -0.4153440893 0.9493948221 
-12.93998718 0.2303857356 -0.4142550528 0.9495238066 
-12.91812229 -0.9213549495 -0.4145407081 0.9494900107 
-61.519207 -7.149469852 -1.982394099 0.7804692984 
-61.14450073 -9.879939079 -1.982534885 0.7804557681 
-55.46554565 -14.11515808 -1.83196044 0.7952880263 
-39.50228119 -13.89308834 -1.340333581 0.8457067609 
-39.48843765 -15.89527035 -1.362528682 0.8433633447 
-29.53534126 -13.44511414 -1.038728476 0.8782070279 
-22.0153656 -13.82335663 -0.8320766091 0.9011938572 
-16.53730583 -13.76536846 -0.6887177825 0.9174925685 
-16.52841568 -15.05170631 -0.7155473232 0.9144198298 
-16.51878548 -16.44545555 -0.7460961938 0.9109339118 
-16.09998703 -17.5223217 -0.7616730332 0.9091619253 
-14.70965576 -17.51270294 -0.7320583463 0.9125342965 
-13.42068863 -17.50378227 -0.7060030699 0.9155119061 
-12.21827126 -17.49546623 -0.6830508113 0.9181430936 
-11.08918953 -17.48765373 -0.6628060937 0.9204696417 
-11.3110857 -19.72623825 -0.7278469205 0.9130151272 
-10.73015881 -26.3182106 -0.9097329974 0.8924860358 
-12.87594414 -41.90059662 -1.403077841 0.8390984535 
-9.476193428 -57.03339767 -1.850584984 0.7934382558 
-4.724225998 -62.32853317 -2.000773191 0.7786782384 
0.8354223371 -62.55572128 -2.00250411 0.7785100341 
6.397687912 -62.28915024 -2.004279375 0.7783370614 
8.754133224 -59.18579865 -1.915062189 0.7870674133 
11.03400612 -56.95931625 -1.857082009 0.7927941084 
12.54283905 -52.19369888 -1.718209743 0.8066797256 
16.90058327 -43.65902328 -1.498518348 0.8291451931 
12.2076683 -27.79543686 -0.9717200994 0.8855958581 
12.81301975 -25.96997833 -0.9269292951 0.8905690908 
12.79432392 -23.26311684 -0.8498055935 0.8991982341 
15.6070385 -19.2673893 -0.7936653495 0.9055322409 
15.41847897 -15.90624237 -0.7090707421 0.9151604772 
17.92543602 -15.46899605 -0.757877171 0.9095935822 
20.34829712 -16.0376339 -0.829297781 0.9015067816 
27.0454998 -15.99130535 -1.005688548 0.8818422556 
29.92672539 -15.94276047 -1.085360765 0.8731018305 
33.95914078 -16.19446945 -1.204254866 0.8602185845 
47.68393326 -15.35297108 -1.603458524 0.8183369637 
55.92258835 -15.29593945 -1.85575819 0.7929257154 
56.90438461 -12.8741188 -1.86746347 0.7917657495 
57.42275238 -10.33019733 -1.867523789 0.7917594314 
62.59400177 -8.406229973 -2.021538496 0.7766595483 
62.90859222 -5.613469124 -2.021614552 0.7766515017 
63.15949249 7.324218586e-06 -2.021647215 0.7766485214 
57.82450867 7.76570034 -1.86750102 0.7917622924 
49.68813324 8.93873024 -1.61597836 0.8170569539 
48.04050827 10.86877155 -1.576575875 0.8210924864 
39.27653885 10.74290276 -1.303367138 0.8496248722 
34.54850769 11.12368488 -1.161758065 0.8648018837 
34.56731796 12.85304737 -1.180462241 0.8627815843 
27.4203701 13.07624435 -0.9723752141 0.8855228424 
27.40980721 14.60192394 -0.9940818548 0.8831235766 
23.11057472 13.6646862 -0.859369278 0.8981236219 
25.36851311 16.56565094 -0.9697751403 0.8858081102 
12.21338081 8.774218559 -0.4813567996 0.9415908456 
34.43769836 27.14228439 -1.403513789 0.8390522003 
34.37243652 29.66261864 -1.453253031 0.8338508606 
34.62101364 35.71686172 -1.59218049 0.8194912076 
37.57999802 42.3897171 -1.813263774 0.7971493006 
22.16310501 32.9707489 -1.271616697 0.8530037403 
20.08498764 32.95635986 -1.235349894 0.8568806052 
6.5920434 13.3610239 -0.4768877923 0.942117393 
5.866663456 13.35769272 -0.4669815004 0.9432849884 
5.246638298 13.55355453 -0.4652017057 0.9434949756 
10.7970295 44.9288826 -1.479046345 0.8311651945 
2.000739813 19.48114777 -0.6268447638 0.9246180058 
3.616862774 62.45270538 -2.002372265 0.7785223722 
0.8344970345 62.52408981 -2.001494169 0.7786086798 
-1.492916226 47.9137001 -1.534391165 0.8254339695 
-14.14205265 54.55466843 -1.803931117 0.7980796099 
-16.54840469 53.85139084 -1.803257108 0.7981472611 
-17.5904274 43.14463806 -1.491369009 0.8298864365 
-18.11137962 39.32103729 -1.385702133 0.8409229517 
-25.8144722 50.05693436 -1.802765012 0.7981965542 
-33.64582825 40.05734634 -1.674459696 0.8111044168 
-17.61648369 17.53829193 -0.7956767082 0.9053045511 
-18.68932343 15.55668926 -0.7783424854 0.9072687626 
-21.10314178 16.03186989 -0.8482971787 0.8993681073 
-48.055233 30.17368317 -1.816254854 0.7968508005 
-50.62631607 25.82362556 -1.819109917 0.7965664864 
-40.03671265 16.11595726 -1.38144815 0.8413708806 
-55.33923721 14.08251667 -1.827783108 0.7957033515 
-53.45745087 11.09779072 -1.747582555 0.8037227988 
-12.95297718 0.9237328768 -0.4156607091 0.9493572712 
-12.94215584 0.3456274271 -0.4144062698 0.949505806 
-12.93128395 -0.2302368134 -0.4139787257 0.9495568871 
-12.92032909 -0.8059301376 -0.4143644571 0.9495108724 
-30.42885399 -13.52602291 -1.065876842 0.8752314448 
-22.46160889 -13.82644272 -0.8442593813 0.8998221755 
-20.35056877 -13.81184292 -0.7872521281 0.9062588811 
-18.50351715 -13.79905987 -0.7388340831 0.9117617011 
-16.53025055 -14.78650093 -0.7099049091 0.9150653481 
-16.52077866 -16.15733147 -0.739664197 0.9116668105 
-13.67127419 -17.50551414 -0.7109555006 0.9149451852 
-11.30978775 -17.4891777 -0.6666576862 0.9200268388 
-11.31381607 -19.33039284 -0.716925025 0.9142625332 
-11.28202629 -23.93138313 -0.8468630314 0.8995290995 
-15.37428951 -41.91788101 -1.429129004 0.8363693357 
-13.28596878 -41.90343475 -1.407076955 0.8386791945 
-9.987234116 -56.96961975 -1.851330638 0.7933647633 
-5.278102875 -62.27846527 -2.000598192 0.7786957026 
-2.503386259 -62.47928619 -2.001474619 0.778609395 
0.278303206 -62.55529022 -2.002335072 0.7785268426 
3.062258244 -62.50774384 -2.003181458 0.7784433365 
10.52020741 -57.02226257 -1.856005788 0.7929008007 
13.03724861 -56.45728302 -1.85467267 0.7930327058 
12.71381092 -45.68267441 -1.517808795 0.8271472454 
16.4561882 -43.66209793 -1.493529916 0.829662025 
12.81717968 -26.57161713 -0.9442963004 0.8886374831 
12.7978096 -23.76781845 -0.8640499115 0.8975983858 
12.71191597 -21.28209686 -0.7934818864 0.9055535197 
12.71740437 -19.28738022 -0.7394850254 0.9116873145 
15.32670116 -19.26933289 -0.7880968451 0.9061629176 
17.92738914 -15.75140381 -0.7638575435 0.9089133143 
21.89474869 -16.02692986 -0.8685122728 0.8970974684 
26.51001167 -15.99501228 -0.9910393953 0.8834594488 
31.68743324 -15.45900154 -1.128533006 0.8684013486 
62.85570145 -6.172895432 -2.021602631 0.7766528726 
63.06946182 -3.371091127 -2.021646738 0.7766485214 
63.15698242 -0.5619360209 -2.02165103 0.776648581 
63.11853409 2.247768402 -2.021615744 0.7766515017 
57.89227295 7.250544071 -1.86752665 0.7917594314 
49.7344017 10.78732872 -1.628940344 0.8157334924 
34.70048904 10.83252811 -1.16357255 0.8646050692 
34.45809174 12.46461964 -1.172897816 0.8635978699 
34.46306229 14.23033428 -1.193457007 0.8613811135 
23.476408 16.5510273 -0.9194104075 0.8914057612 
34.51269531 26.70705414 -1.396831989 0.8397535682 
34.43756104 29.18778992 -1.44495821 0.834716022 
34.49030304 31.97529221 -1.505429387 0.8284291029 
36.03769302 43.68837738 -1.812766671 0.7971987128 
22.59404564 32.97373199 -1.279446363 0.8521695733 
6.740854263 13.36170578 -0.4790347219 0.9418646097 
5.306929588 13.35512924 -0.459993422 0.9441095591 
5.219616413 15.05500126 -0.5100326538 0.9382214546 
10.83714962 43.39289093 -1.431595445 0.8361105919 
10.9527235 53.96358109 -1.762518764 0.8022232652 
2.983990431 19.00465584 -0.6157644391 0.9258996844 
2.1263237 19.03442764 -0.6130570769 0.9262135029 
4.172688007 62.42343521 -2.002547741 0.7785055637 
-1.066285372 47.91226959 -1.533983588 0.8254762888 
-3.919782639 58.64032745 -1.881186128 0.7904086709 
-10.14660645 49.99197006 -1.632794261 0.8153403997 
-13.65671825 54.68264389 -1.804081082 0.7980657816 
-18.45026398 53.21482468 -1.802806854 0.7981923819 
-20.79244423 52.32514572 -1.802241445 0.7982486486 
-25.36681366 50.28212738 -1.80267334 0.7982054949 
-27.58635139 49.11745071 -1.803177953 0.7981555462 
-31.02136421 37.60712433 -1.560435295 0.8227505088 
-17.6126194 19.51424599 -0.8414102197 0.9001425505 
-17.618433 17.85515022 -0.8029088974 0.9044863582 
-9.887153625 9.166195869 -0.431553036 0.9474726319 
-20.75297546 16.05931854 -0.83993572 0.9003086686 
-49.1285553 28.46160316 -1.817363381 0.7967406511 
-50.38618088 26.26867294 -1.818809509 0.7965965867 
-43.2138176 15.63184738 -1.470932245 0.8320099115 
-54.4408493 16.99492836 -1.825507164 0.7959297895 
-55.19984436 14.57167244 -1.827395558 0.7957421541 
-21.75687408 2.724873066 -0.7018470764 0.91598773 
-12.95514011 1.039924264 -0.4160095155 0.9493156672 
-12.9114666 -1.268000484 -0.4152650237 0.9494039416 
-61.30890656 -8.789650917 -1.982473969 0.7804613709 
-58.98169708 -11.15377617 -1.921381474 0.7864460349 
-55.70534134 -13.1249094 -1.831876636 0.7952968478 
-31.1851902 -13.53124714 -1.088110209 0.8728018403 
-28.42566109 -13.86771202 -1.012369633 0.8811063766 
-25.4447155 -13.84708691 -0.9272413254 0.8905344605 
-22.92112541 -13.82962132 -0.8568698168 0.8984043002 
-20.7499485 -13.81460667 -0.7979117632 0.9050519466 
-16.5320549 -14.52541256 -0.7044044137 0.9156948924 
-16.51259422 -17.34135437 -0.7664637566 0.9086173773 
-10.68230247 -12.2676487 -0.5206753612 0.9369735122 
-13.92517281 -17.507267 -0.716029942 0.9143648148 
-12.68966007 -17.4987278 -0.6918848753 0.9171295166 
-10.6558075 -17.84013367 -0.6651462913 0.9202008247 
-11.28571033 -23.39720345 -0.8314833045 0.9012607932 
-11.2822628 -26.32202911 -0.9166632891 0.8917130232 
-15.79990482 -41.92082977 -1.433969378 0.8358637094 
-11.1147871 -48.13214874 -1.581187606 0.8206189275 
-10.4966135 -56.89429474 -1.851842165 0.7933138013 
-5.83149147 -62.22372818 -2.000423193 0.7787123322 
-3.05936265 -62.44892502 -2.001299143 0.7786268592 
-0.2782690227 -62.5501442 -2.00216651 0.7785428762 
5.286818504 -62.38129807 -2.003891468 0.7783741355 
8.060451508 -62.11260605 -2.004802704 0.7782853246 
10.00666237 -57.08050537 -1.854930282 0.7930074334 
12.53258038 -56.56264496 -1.854399085 0.7930600047 
18.16456795 -43.44210815 -1.507185221 0.8282470703 
12.82149601 -27.1968956 -0.9624246955 0.8866259456 
12.8014183 -24.28980255 -0.8788484931 0.8959388733 
12.47371292 -19.28907013 -0.7352647185 0.9121684432 
17.95115852 -19.19114494 -0.8411268592 0.9001744986 
17.92937279 -16.03802872 -0.7699939013 0.908216536 
18.81525993 -15.37992859 -0.7778533697 0.9073243737 
23.59739876 -16.01515388 -0.9128454924 0.8921387196 
25.99035835 -15.99860096 -0.9768936038 0.8850231767 
30.66208267 -15.29798508 -1.096817851 0.8718515038 
34.35759354 -15.27241898 -1.203487992 0.8603006601 
61.52481461 -9.379973412 -1.992081285 0.7795250416 
63.14974594 -1.124360323 -2.021653652 0.776647687 
62.99685287 4.493114948 -2.021559 0.7766566277 
36.23684311 10.95928955 -1.211776495 0.8594102859 
26.40472031 12.01999092 -0.9286352396 0.8903799653 
27.40322876 15.55149746 -1.008550048 0.8815279603 
34.33453369 28.57945824 -1.429907322 0.8362880945 
34.56515121 34.41168213 -1.561193824 0.8226730824 
34.28567886 37.31458282 -1.622009397 0.8164406419 
20.90172577 32.96201706 -1.249310017 0.8553865552 
6.891026497 13.36239815 -0.4812370241 0.9416050911 
6.15320158 13.35900879 -0.4707820117 0.9428367615 
5.4452672 13.35576248 -0.4616642594 0.9439121485 
5.027154446 16.35924721 -0.5478027463 0.9338009357 
10.80229378 50.89529037 -1.665383816 0.8120261431 
1.947726965 62.51051712 -2.001845598 0.7785737514 
-0.6399206519 47.91604233 -1.533859372 0.825488925 
-10.15944576 52.44462585 -1.709886551 0.8075196743 
-17.97667503 53.38012695 -1.802911997 0.798181951 
-20.32747459 52.51163101 -1.802368402 0.7982364297 
-19.49757195 39.51850128 -1.410508394 0.8383188248 
-9.729705811 9.182535172 -0.428226918 0.9478664398 
-18.02230072 15.55257893 -0.761967957 0.9091279507 
-46.02570343 33.06531525 -1.813977718 0.7970778942 
-47.49414825 31.01366806 -1.815639138 0.7969130278 
-48.86584854 28.89312172 -1.817085862 0.7967685461 
-50.14197159 26.71190071 -1.818512678 0.7966265082 
-17.60005569 3.16619873 -0.5723956227 0.9309339523 
-21.70812988 2.915358782 -0.7010855079 0.9160751104 
-12.957304 1.156213403 -0.41639328 0.9492701888 
-47.83483124 -6.423937798 -1.986703038 0.8243001699 
-47.50457764 -8.545983315 -1.986824632 0.8242905736 
-47.08105469 -10.65153503 -1.986975551 0.8242782354 
-43.01961899 -11.76678944 -1.835865378 0.8364818692 
-42.26446152 -13.60791683 -1.827689171 0.8371475339 
-31.9740181 -13.53670597 -1.429242849 0.8702250123 
-28.53669548 -13.60869884 -1.301388383 0.8811132908 
-26.00019646 -13.85092545 -1.212641358 0.8887515664 
-11.13233852 -6.58231163 -0.5323519707 0.9495427012 
-10.64775085 -6.952973366 -0.5234646201 0.9503636956 
-19.21448517 -13.80397224 -0.9738761783 0.9096312523 
-16.53389359 -14.26823902 -0.8989697695 0.916282177 
-16.52472878 -15.59543133 -0.9353047609 0.9130501151 
-14.1828537 -17.50905991 -0.9275150895 0.9137420654 
-11.7584734 -17.49227715 -0.8675951362 0.9190823436 
-10.65829849 -17.48867798 -0.8430441618 0.9212796688 
-16.22357178 -41.91048813 -1.849908113 0.8353402019 
-14.34780979 -42.60436249 -1.850506902 0.8352919221 
-10.5112915 -43.73971558 -1.85172236 0.835193038 
-4.965515137 -48.3470993 -2.000581503 0.8231883049 
-2.810886145 -48.53654099 -2.001262665 0.8231340647 
-0.6492260695 -48.63002014 -2.001945019 0.8230797648 
1.515187979 -48.62739182 -2.002627373 0.8230249286 
3.678073645 -48.52842712 -2.003308535 0.8229701519 
5.835119724 -48.33304596 -2.003987074 0.8229162097 
11.32544613 -43.68972397 -1.857848763 0.8346957564 
13.22990417 -43.05210876 -1.853946328 0.8350123763 
15.13677979 -42.43464661 -1.854542017 0.8349639177 
17.01544189 -41.73403168 -1.855195284 0.8349107504 
12.80507088 -24.83015251 -1.149993539 0.8941830397 
14.77743816 -19.2731266 -0.9997011423 0.9073494673 
17.69034958 -19.252985 -1.076258183 0.9006184936 
17.94190598 -17.86223793 -1.042143941 0.9036117792 
17.93131638 -16.32938194 -0.9983019233 0.9074726105 
18.47980118 -15.38224316 -0.9897243381 0.9082299471 
23.15548515 -16.01820946 -1.158985496 0.8934013844 
33.59712982 -15.29402065 -1.519509912 0.862618506 
42.71143341 -15.02160358 -1.863694429 0.8342206478 
48.88044739 -3.486037493 -2.017173767 0.821860671 
48.98739243 -1.308227539 -2.017189503 0.8218598366 
48.99678421 0.8722167611 -2.017174482 0.8218608499 
48.90820312 3.050825119 -2.017128468 0.8218650222 
48.72225571 5.223237038 -2.017051935 0.8218711019 
44.39463806 8.804977417 -1.863013983 0.8342761397 
43.27933502 10.60459232 -1.834206343 0.8366166353 
25.32463837 8.654196739 -1.1016289 0.8983992338 
24.05945587 12.00376225 -1.106785893 0.8979491591 
36.44459534 24.73455811 -1.813051701 0.8383402228 
31.46127701 30.76895142 -1.811430454 0.8384723663 
25.76855469 32.99570465 -1.723316669 0.8456882238 
21.31740761 32.96490097 -1.615946054 0.8545662761 
10.99540043 20.86312866 -0.9707686305 0.909907043 
6.298510551 13.360322 -0.608003974 0.9425820708 
10.85471058 40.39036179 -1.721579075 0.845830977 
9.733738899 43.93167496 -1.852221012 0.835152626 
8.406569481 47.953125 -2.004002333 0.8229147792 
1.947259426 48.59577179 -2.001960278 0.8230783939 
-2.37802124 48.54335022 -2.000596762 0.8231878281 
-4.533532619 48.37327194 -1.99991858 0.8232415915 
-6.678636551 48.10757828 -1.999244452 0.8232952952 
-9.972194672 43.18447113 -1.824386716 0.8374164701 
-11.83845997 42.53692627 -1.817497253 0.8379775882 
-13.71520615 41.95678711 -1.817003846 0.8380178809 
-9.86658287 23.01921844 -1.030914783 0.9045991302 
-19.16550064 39.73298264 -1.815860868 0.8381111026 
-22.62363052 37.87647247 -1.816060305 0.8380947709 
-24.06188393 33.18040848 -1.687140584 0.8486691713 
-29.02062607 33.32780457 -1.819085479 0.8378484845 
-9.667292595 9.287672997 -0.5518272519 0.9477458596 
-17.73604012 15.58320522 -0.9718359709 0.9098117948 
-19.32109261 15.50876331 -1.019839883 0.9055742621 
-39.95315933 19.49134254 -1.829875112 0.8369700313 
-40.80879974 17.70696259 -1.831128955 0.8368672729 
-41.58606339 15.88558292 -1.832453251 0.8367597461 
-42.28360367 14.03058815 -1.833845139 0.8366466165 
-42.90001678 12.14545155 -1.835302353 0.8365277648 
-43.43370056 10.23351765 -1.83682251 0.8364043236 
-12.98190498 1.274958491 -0.5369454622 0.949118495 
-12.93559265 0.6913891435 -0.5332301259 0.9494616985 
-12.90289307 -1.035700679 -0.5328307748 0.949498415 
-47.88954926 -5.997936726 -1.986682296 0.8243020177 
-47.17302704 -10.23190689 -1.986943007 0.8242814541 
-43.12175751 -11.38321972 -1.835830092 0.8364849687 
-32.80452728 -13.54532433 -1.46091795 0.8675481081 
-26.57494354 -13.85489941 -1.233645558 0.8869377375 
-10.69270706 -6.847370625 -0.5226579309 0.950438261 
-19.583498 -13.80653 -0.986309588 0.9085316658 
-16.53564644 -14.01495361 -0.8922507167 0.9168813229 
-16.52661896 -15.32144737 -0.9276562333 0.9137294888 
-16.51682091 -16.73879623 -0.9679812193 0.9101527333 
-13.17383289 -17.50206757 -0.9017195702 0.9160373211 
-11.98693371 -17.49385452 -0.8729331493 0.9186056256 
-11.30833244 -20.13464546 -0.9505779147 0.9116949439 
-11.29278564 -22.38451767 -1.032031894 0.9045009017 
-10.83433342 -24.08394241 -1.087060094 0.8996726871 
-10.48899174 -41.99816132 -1.781865954 0.8408859372 
-7.302102089 -46.50521469 -1.937752485 0.8282340765 
-1.081916451 -48.61923599 -2.001808405 0.8230898976 
1.082272887 -48.63570023 -2.002490997 0.8230356574 
5.404386997 -48.37981415 -2.003851652 0.8229269385 
8.95345974 -44.11370087 -1.85287869 0.8350989223 
10.93134975 -43.76939392 -1.857022762 0.8347625136 
14.75761414 -42.56490326 -1.854422569 0.8349736929 
16.64216423 -41.88082886 -1.855065584 0.8349214792 
12.50306892 -27.793396 -1.254497528 0.8851411939 
12.80893326 -25.38981056 -1.170589685 0.8923938274 
12.11425495 -21.56959152 -1.01831615 0.9057078362 
12.09969902 -19.46191025 -0.9433133006 0.9123387933 
10.62911606 -12.88572025 -0.6875814795 0.9353147745 
17.37883568 -19.25513458 -1.067689896 0.9013693333 
27.59651566 -15.98749733 -1.312818408 0.8801347017 
29.92426491 -15.60108566 -1.389128685 0.8736267686 
32.83071899 -15.29933357 -1.490950108 0.865018189 
40.90058136 -16.88829803 -1.821471334 0.8376538157 
42.1170311 -15.23505592 -1.843607783 0.8358525038 
43.76534271 -11.55312729 -1.863227606 0.8342588544 
48.97379684 -1.744152784 -2.017188787 0.8218598366 
49.00277328 0.4361376762 -2.017179966 0.8218603134 
48.93371964 2.615463734 -2.01714015 0.8218640685 
48.76722717 4.789457798 -2.017069578 0.8218697309 
44.47773361 8.410754204 -1.86328733 0.834254086 
38.56404495 10.91788769 -1.649805307 0.8517563939 
34.57019043 13.20554638 -1.523302555 0.8623004556 
22.03514862 11.9916172 -1.032609224 0.9044464827 
34.45389175 20.78786659 -1.656374216 0.8512122631 
19.36231804 12.8908186 -0.9574931264 0.9110817313 
12.02214527 8.800162315 -0.6132810712 0.9420982003 
19.31384659 15.50294781 -1.019452691 0.9056079388 
33.06820297 29.0543232 -1.811951399 0.8384296894 
29.26434517 33.60768127 -1.834361434 0.8366045952 
26.24728203 32.99901962 -1.73562634 0.844676733 
23.91863441 32.98289871 -1.677100539 0.8494985104 
18.52706528 34.40807724 -1.608613253 0.855175674 
6.444789886 13.36099434 -0.6106200814 0.9423422217 
5.225797176 13.86510754 -0.6099243164 0.9424059987 
5.047426701 15.44078064 -0.6686871052 0.9370353222 
4.968043327 17.85069084 -0.762714684 0.9285052419 
10.12583447 43.84994125 -1.85249567 0.8351299167 
8.661239624 46.94555664 -1.965040684 0.8260391355 
2.564640999 18.47357941 -0.767722249 0.9280532598 
1.843989253 19.67541122 -0.8134510517 0.9239350557 
-1.946065664 48.56610107 -2.000732899 0.8231762648 
-6.250673771 48.16830826 -1.99937892 0.823284626 
-11.46010494 42.64312363 -1.817607522 0.8379688263 
-9.959091187 31.41005325 -1.356370211 0.876414597 
-18.81184196 39.90346909 -1.815929055 0.8381055593 
-23.41028595 36.20126724 -1.774590135 0.8414819241 
-23.60883904 33.17290878 -1.67600739 0.8495884538 
-27.18618393 34.81096268 -1.818129063 0.837926209 
-28.65047073 33.50006866 -1.814495683 0.8382222652 
-17.7944603 19.02365112 -1.072251916 0.9009697437 
-17.58593559 17.19893074 -1.012536168 0.9062175751 
-18.84379196 15.40337944 -1.001839399 0.907160759 
-21.1470623 15.77049732 -1.085885167 0.8997759223 
-37.79203415 23.2632122 -1.826739669 0.8372247815 
-40.6437912 18.06687927 -1.830872655 0.8368885517 
-42.15055466 14.40408897 -1.83356154 0.8366696835 
-43.33364105 10.61786366 -1.836513638 0.8364294171 
-22.63167191 2.42619133 -0.9369256496 0.9129058719 
-12.93774128 0.8070361018 -0.533593297 0.9494280815 
-12.92695904 0.2301147431 -0.5321977139 0.9495568871 
-47.64800644 -7.698898792 -1.986772418 0.8242944479 
-47.26156235 -9.811501503 -1.986911774 0.8242836595 
-42.69273376 -12.9118185 -1.835977912 0.8364728689 
-39.50240707 -13.89299488 -1.723672867 0.8456590772 
-29.47322464 -13.41676521 -1.332998633 0.8784089088 
-27.16996574 -13.8590107 -1.255498171 0.885055244 
-10.7811203 -6.769445419 -0.5240133405 0.9503129721 
-19.96209145 -13.8091526 -0.9991512299 0.9073979259 
-17.6923027 -13.44077873 -0.9145930409 0.9148911238 
-16.52847862 -15.05186749 -0.9202007055 0.9143918753 
-14.79802418 -16.10519218 -0.9002956748 0.9161641002 
-13.42080498 -17.50378227 -0.9079251885 0.9154846072 
-12.21826839 -17.4954567 -0.8784034252 0.9181169271 
-11.08926487 -17.48765373 -0.8523736596 0.9204440117 
-11.29610062 -21.90413857 -1.01447773 0.9060462713 
-11.09393787 -24.08573914 -1.091558814 0.8992795348 
-15.10184288 -42.33675766 -1.850266218 0.8353114128 
-12.8760376 -41.90059662 -1.804358363 0.8390491605 
-9.331189156 -43.96396255 -1.850002646 0.8353324533 
-5.824406624 -48.24436569 -2.000309944 0.8232104778 
-1.514436007 -48.60428619 -2.001672029 0.8231011033 
2.813376427 -48.57959747 -2.003036261 0.8229919672 
7.124777794 -48.16981506 -2.004392385 0.8228836656 
8.601881981 -44.40509796 -1.861829162 0.8343723416 
10.53671074 -43.84542847 -1.856195927 0.8348296285 
12.20773125 -27.79543686 -1.249632359 0.8855597973 
12.81294155 -25.96995735 -1.192033291 0.8905347586 
12.79424572 -23.26285362 -1.092841029 0.8991672397 
12.96908379 -21.28031921 -1.025821567 0.9050474763 
14.24272156 -19.27682304 -0.9865857959 0.9085075855 
17.07223892 -19.25725746 -1.059343219 0.9021015167 
15.40531445 -15.89278984 -0.9110934138 0.9152023196 
20.34832764 -16.03762436 -1.06648159 0.9014754295 
22.3047924 -16.02409935 -1.13050735 0.8958795071 
24.51582146 -16.00880623 -1.205244899 0.8893908858 
27.04529572 -15.99130058 -1.29331255 0.8818057775 
29.92662239 -15.94265842 -1.395768523 0.8730626702 
32.09260941 -15.3044405 -1.463555217 0.8673257828 
40.90354538 -17.31716919 -1.828397036 0.837090075 
40.95116425 -15.22684288 -1.798428655 0.8395327926 
43.09075928 -13.87398148 -1.863418818 0.8342432976 
43.66003799 -11.94192314 -1.863197565 0.834261477 
44.15135574 -9.988715172 -1.863336444 0.8342500925 
48.22644424 -8.675815582 -2.01701045 0.8218737841 
48.56658173 -6.522223949 -2.017099857 0.8218673468 
48.81005859 -4.355427265 -2.017158747 0.821862638 
44.11485291 9.980446815 -1.861796975 0.8343751431 
34.59863663 11.13975716 -1.496187091 0.864577651 
34.62055969 12.87292671 -1.520413995 0.8625427485 
25.16273689 11.99969101 -1.147526026 0.8943979144 
12.21328831 8.774205208 -0.6190214157 0.9415722489 
19.33813095 15.24146461 -1.013537169 0.9061293006 
33.3269043 28.76011848 -1.812035322 0.8384233117 
32.00701523 30.20703506 -1.811607361 0.8384581208 
