# .PCD v0.7 - Point Cloud Data file format
VERSION 0.7
FIELDS x y z intensities
SIZE 4 4 4 4
TYPE F F F F
COUNT 1 1 1 1
WIDTH 920
HEIGHT 1
VIEWPOINT 0 0 0 1 0 0 0
POINTS 920
DATA ascii
-17.11075592 -16.73418999 -0.7660778761 0.9086612463 
-11.40236282 -12.18999767 -0.5342723131 0.9353816509 
-14.97788811 -17.51310921 -0.7376219034 0.9118999839 
-12.45105457 -17.49513054 -0.6873365641 0.9176513553 
-11.90016079 -20.33221054 -0.7540780306 0.9100251198 
-11.3546381 -24.08540535 -0.8523133397 0.8989163041 
-17.35026741 -41.49515533 -1.439631343 0.8352719545 
-13.28560543 -41.90168762 -1.407018661 0.8386851549 
-11.23783684 -50.72017288 -1.662853003 0.8122823238 
-7.741523266 -59.65684509 -1.925546527 0.7860369682 
-5.279887676 -62.29996872 -2.001285553 0.7786284685 
0.2782666087 -62.55082703 -2.002183676 0.7785407305 
3.061108351 -62.48975372 -2.002614021 0.7784994841 
12.05193806 -52.19044876 -1.71449852 0.8070534468 
12.15808105 -43.68514252 -1.451448202 0.8340393305 
16.45356369 -43.65459061 -1.49328196 0.8296884298 
12.71291924 -19.2805748 -0.7392243743 0.9117170572 
13.9754343 -19.27159119 -0.7619856596 0.9091263413 
10.10486031 -12.7042284 -0.5195910335 0.9371005297 
17.33972549 -16.65889549 -0.7696626782 0.9082540274 
17.50622559 -15.38120556 -0.74590832 0.9109553099 
19.97300339 -16.03197289 -0.8197876811 0.9025797844 
21.88327026 -16.01839828 -0.8680549264 0.8971488476 
26.49466705 -15.9855957 -0.990462482 0.8835231066 
29.33286095 -15.96303654 -1.068932652 0.8748971224 
40.31122971 -17.491045 -1.406531692 0.8387358189 
40.29631805 -15.39290047 -1.380729795 0.8414461017 
57.06374741 -10.79084206 -1.858901024 0.7926137447 
62.22644806 -8.921188354 -2.012145758 0.777571559 
62.56310272 -6.14442873 -2.012185335 0.7775672078 
62.82377243 2.237536669 -2.012179613 0.7775687575 
62.66090775 5.029860497 -2.012136459 0.7775723338 
57.62444687 7.217253208 -1.858889222 0.792615056 
49.06115723 10.6415081 -1.606895685 0.8179854155 
41.05054092 10.83653259 -1.358978748 0.8437373042 
33.94645309 17.69807243 -1.225383162 0.8579493761 
26.82386208 15.53983974 -0.9921780825 0.8833233714 
23.49184608 16.56190491 -0.9200250506 0.891338408 
11.40202522 8.823181152 -0.4614714086 0.9439347982 
33.72838593 28.58672714 -1.415206432 0.8378273249 
33.74647141 31.2854023 -1.472947836 0.8317995071 
33.9995079 34.45658112 -1.549439073 0.8238831758 
35.93294907 43.56177521 -1.80751586 0.7977231145 
24.83798027 32.99852371 -1.322008133 0.8476467729 
22.59989738 32.98259735 -1.279789209 0.8521333337 
18.57047653 33.0650444 -1.213865161 0.8591858745 
17.58846092 34.86381912 -1.249905705 0.8553224206 
6.011219501 13.3625021 -0.4690025151 0.9430467486 
4.656153679 13.42960739 -0.454964906 0.9447031021 
4.388067722 17.5698719 -0.5796601772 0.9300887585 
2.115869045 18.94089127 -0.6100395322 0.9265624285 
4.171816349 62.4105835 -2.002126455 0.7785456777 
-6.937785625 62.10582352 -2.000287294 0.7787255645 
-8.954391479 57.02792358 -1.847750664 0.7937197685 
-13.67443562 54.75265884 -1.806386471 0.7978351116 
-20.83145714 52.42329407 -1.805625677 0.797911346 
-18.186409 40.42705154 -1.418921828 0.8374378085 
-27.64980888 49.23094177 -1.807343006 0.7977402806 
-29.82780647 47.97700119 -1.8082757 0.7976472378 
-23.86617661 34.83058929 -1.351492643 0.844527781 
-36.01647568 43.66268921 -1.811702371 0.7973049879 
-23.90770721 26.48877716 -1.142145514 0.8669250607 
-18.46992683 15.65433788 -0.7749762535 0.9076507688 
-21.18745995 16.39539337 -0.8575179577 0.8983317018 
-22.65136719 15.96934986 -0.8871123195 0.895014286 
-40.65750885 18.94665527 -1.435757399 0.8356766105 
-43.58048248 15.7644825 -1.483412743 0.8307125568 
-50.45500565 13.31911564 -1.670313954 0.8115246892 
-22.32070923 3.81072998 -0.7247933149 0.9133637547 
-13.07430649 0.4656054676 -0.4187557995 0.9489898682 
-13.06360817 -0.1162866205 -0.4181651175 0.9490599632 
-13.05282688 -0.6976757646 -0.4183987379 0.9490321279 
-13.03844929 -1.280532241 -0.4193510413 0.9489192367 
-61.59172058 -8.830184937 -1.991628408 0.7795695662 
-58.93893814 -11.14542007 -1.919981956 0.7865831256 
-40.60778809 -13.47453117 -1.369483113 0.8426297307 
-31.18916512 -13.53298759 -1.088249087 0.8727867007 
-28.42840004 -13.86889172 -1.012460589 0.8810958862 
-20.74944115 -13.81426239 -0.7978904843 0.905054152 
-18.85353279 -13.80078125 -0.7478776574 0.9107313156 
-17.13196182 -13.75164032 -0.7031798959 0.9158353209 
-17.12277222 -15.04442883 -0.7295742631 0.9128177762 
-17.11283875 -16.44091797 -0.7595927119 0.9093983769 
-15.3491354 -16.11950111 -0.7124584913 0.9147732854 
-12.68838882 -17.49682617 -0.691812098 0.9171379209 
-11.53135204 -17.48858452 -0.6705224514 0.9195827246 
-11.90303707 -19.92805672 -0.7429927588 0.9112876654 
-11.61870098 -24.08728409 -0.8560079932 0.8985013962 
-15.79962826 -41.91957092 -1.433925033 0.835868001 
-11.65850544 -41.89011002 -1.391806006 0.8402818441 
-11.19601536 -48.48487854 -1.59277153 0.8194310665 
-10.50047302 -56.91521454 -1.852519751 0.7932462692 
-7.946874619 -57.24378967 -1.849860191 0.7935097218 
-3.059653282 -62.46004868 -2.001654387 0.7785921693 
2.504916906 -62.51193237 -2.002527714 0.7785075307 
5.284496784 -62.3539238 -2.00301671 0.7784597278 
8.054906845 -62.07187271 -2.003493786 0.778413415 
10.00373554 -57.06376648 -1.854379892 0.7930613756 
12.51984882 -56.50627899 -1.852556705 0.7932434082 
13.84726048 -43.67313004 -1.46649766 0.8324708343 
16.01242065 -43.65772247 -1.488446593 0.8301893473 
11.62097168 -27.79288483 -0.9642437696 0.8864238262 
12.20088387 -23.15055656 -0.8376296759 0.9005684853 
12.4533205 -21.27710915 -0.7891273499 0.9060462117 
12.46934509 -19.28230858 -0.7350049615 0.9121978283 
16.46665573 -19.25388718 -0.81093961 0.9035788178 
14.87455082 -15.90202141 -0.6969700456 0.9165465832 
17.3315239 -15.50325203 -0.7443151474 0.9111367464 
19.61589813 -16.03451538 -0.8109519482 0.9035769105 
21.48329544 -16.02124023 -0.8578152061 0.898298502 
23.58413506 -16.00629807 -0.9123351574 0.892195642 
31.00580025 -15.46946239 -1.10911572 0.8705123067 
40.29926682 -15.80649376 -1.385596275 0.840934217 
56.4161644 -13.82330036 -1.859217167 0.7925822139 
56.96503448 -11.2980175 -1.858887553 0.7926151752 
61.414711 -9.363178253 -1.988510132 0.7798725963 
62.50547791 -6.700766563 -2.012178898 0.7775686979 
62.74239731 -3.913713217 -2.012202024 0.777566433 
62.8416748 1.678239703 -2.012185812 0.7775672674 
57.68682098 6.704079628 -1.858902574 0.7926137447 
57.31163025 9.260355949 -1.858253717 0.7926775813 
24.69321251 8.684569359 -0.8378535509 0.9005432129 
33.82807159 13.61680889 -1.16722095 0.8642113209 
26.80549812 15.21229839 -0.9865729809 0.8839558959 
23.94466209 16.56419754 -0.9319173098 0.8900104165 
33.71879959 30.7064724 -1.459761262 0.8331724405 
33.69474411 33.54514313 -1.521875858 0.8267267942 
18.89721107 32.95624924 -1.215993762 0.8589567542 
6.155131817 13.36319065 -0.4709281921 0.9428194165 
5.446971416 13.35980415 -0.4618051052 0.9438955784 
4.764357567 13.35654259 -0.4539089799 0.9448279738 
4.61942482 15.03241444 -0.5033793449 0.9390026927 
10.17413712 47.93567657 -1.568538904 0.8219182491 
9.477432251 57.04241562 -1.850882411 0.7934093475 
2.291530132 18.98118782 -0.6119732261 0.9263387918 
1.450572491 19.13901901 -0.6143710017 0.926061213 
1.947639108 62.50767517 -2.001757383 0.7785826325 
-10.80093479 55.75740051 -1.817891598 0.7966881394 
-13.18715286 54.87481689 -1.806471229 0.7978265882 
-15.61183834 54.22245026 -1.8060956 0.7978645563 
-18.00584602 53.46675491 -1.805837989 0.7978900075 
-20.36495399 52.60842514 -1.805685997 0.7979049087 
-18.24014473 41.53019333 -1.451887727 0.8339933753 
-29.3967762 48.23558426 -1.808080196 0.7976655364 
-24.541996 33.21630859 -1.32193172 0.8476547599 
-37.55140686 42.35746002 -1.81188798 0.7972868085 
-18.21362305 17.18933678 -0.8016300797 0.9046312571 
-47.67902374 31.13438416 -1.82270658 0.7962091565 
-51.54077148 24.57882309 -1.827738166 0.7957082987 
-43.54377747 18.43483925 -1.513538003 0.8275892735 
-43.53123856 16.1860733 -1.486578822 0.830383718 
-50.48425293 16.25433159 -1.697689176 0.8087589145 
-53.93406296 14.75204563 -1.789761901 0.799494803 
-53.90152359 12.19450188 -1.7689116 0.8015818596 
-13.07643986 0.5822656155 -0.4189736843 0.9489639997 
-13.04411697 -1.163955092 -0.4191825688 0.9489391446 
-61.66756058 -8.28153801 -1.991612673 0.7795705199 
-56.07242584 -12.68563938 -1.840165377 0.7944734097 
-42.27641678 -13.61185074 -1.421616673 0.8371551633 
-26.00141716 -13.85163021 -0.9430008531 0.8887816072 
-17.12466431 -14.77806568 -0.7240224481 0.9134517908 
-15.52946758 -17.51703072 -0.7493101358 0.9105681777 
-12.92884731 -17.49852943 -0.6964014769 0.9166117311 
-11.89099789 -21.62064934 -0.7898077965 0.9059692025 
-16.22820282 -41.92261505 -1.438912034 0.8353470564 
-8.453183174 -57.15100479 -1.849225402 0.7935732007 
-6.387309551 -62.19057465 -2.001101255 0.7786458731 
-3.615356445 -62.42753601 -2.00156188 0.7786009312 
-0.8349658251 -62.54071045 -2.002012968 0.7785568237 
1.948315382 -62.52934265 -2.002441406 0.7785151005 
4.728999138 -62.39512634 -2.002905846 0.7784702778 
9.490258217 -57.11956787 -1.853381038 0.7931610346 
15.57427216 -43.66083908 -1.483772397 0.8306749463 
11.56971645 -28.3770752 -0.9809036255 0.8845795393 
12.22498035 -26.54125404 -0.9353343844 0.8896338344 
12.20454121 -23.66562462 -0.8523007035 0.8989177942 
12.22840786 -19.28402328 -0.7308943868 0.9126670361 
13.46121597 -19.2752533 -0.7525351644 0.9102010131 
14.77191353 -19.26594162 -0.7770829797 0.9074118733 
16.17389107 -19.25596619 -0.8049311042 0.904257834 
17.34405708 -17.26708984 -0.7833737135 0.9066983461 
18.47028351 -15.37435532 -0.7692195177 0.9083041549 
21.09261131 -16.02401352 -0.847873807 0.8994154334 
23.14292908 -16.00943375 -0.9007440805 0.8934898376 
25.4706192 -15.99288559 -0.9626687169 0.8865986466 
28.1476841 -15.97384262 -1.035940289 0.878513515 
29.98036957 -15.29249954 -1.077260613 0.8739864826 
50.64964294 -15.31822205 -1.693749905 0.8091509342 
58.21209717 -9.40586853 -1.887454152 0.7897891998 
62.70508194 -4.472050667 -2.012199163 0.777566433 
62.74097824 3.913620472 -2.012156248 0.7775709033 
60.92408371 6.531215668 -1.961267829 0.7825337648 
57.40698242 8.752407074 -1.858755946 0.7926287055 
55.49588776 11.00687504 -1.810946822 0.7973803282 
34.07771301 13.36621571 -1.171684027 0.8637291193 
26.807724 14.89965153 -0.9816958904 0.8844908476 
22.48983574 13.84381676 -0.8453236818 0.899702847 
24.41160583 16.5678997 -0.9443454742 0.8886319995 
45.3081665 33.78871918 -1.809126139 0.7975620031 
33.72012711 36.04935455 -1.580012202 0.8207399845 
34.75341797 44.50072479 -1.807314873 0.7977426052 
23.47774315 32.98884583 -1.296035886 0.8504034877 
18.0475235 34.24422836 -1.239016175 0.8564879894 
6.300173283 13.36388683 -0.4729119837 0.9425858855 
5.586389065 13.36046982 -0.4635287225 0.9436922669 
4.899041653 13.35718727 -0.4553945959 0.9446524382 
4.349864483 13.71909618 -0.4606713653 0.9440291524 
4.423255444 16.45896721 -0.5455207825 0.9340673089 
2.470384359 19.03701401 -0.6144559979 0.9260510802 
1.611481905 19.01451683 -0.6108094454 0.9264734983 
-0.2781225443 62.52595901 -2.001388311 0.7786182165 
-12.69904232 54.99269104 -1.806560516 0.7978176475 
-15.12941647 54.36143494 -1.806160808 0.7978571653 
-18.94355774 39.27279282 -1.395667791 0.8398761749 
-24.10769463 33.24359131 -1.31442368 0.8484506607 
-35.22360229 44.28451157 -1.811192036 0.7973556519 
-18.17066193 19.08263397 -0.8434247971 0.8999160528 
-10.41337395 9.149331093 -0.4436944425 0.9460352063 
-19.32512474 15.51193714 -0.7931922078 0.9055857062 
-21.87134743 16.00965309 -0.8675855994 0.8972019553 
-51.31026077 25.03185463 -1.827392697 0.7957426906 
-42.20096588 16.1204586 -1.445987463 0.8346081376 
-50.51151276 16.7607708 -1.703484178 0.8081659675 
-55.1563797 15.61534119 -1.834869504 0.7949991226 
-55.85837936 13.16095161 -1.836911917 0.7947965264 
-18.07326508 3.417680502 -0.5887527466 0.9290321469 
-22.23971939 3.18842268 -0.7191380262 0.9140093327 
-13.14369965 1.290869117 -0.4227354228 0.9485177398 
-13.05715179 -0.4650439322 -0.4182054102 0.949055016 
-13.04630089 -1.047243595 -0.4189378321 0.9489682913 
-61.33604813 -10.47165489 -1.991680264 0.7795631886 
-56.18263626 -12.18618584 -1.840144157 0.7944747806 
-54.43423843 -14.3695507 -1.802054048 0.7982678413 
-43.63396454 -13.62151337 -1.463133454 0.8328210711 
-23.88376236 -13.83656216 -0.8835089207 0.8954171538 
-17.36504364 -13.43752384 -0.7028158307 0.9158770442 
-17.12652969 -14.51571274 -0.7186086774 0.914070189 
-17.10647392 -17.33646011 -0.7795797586 0.9071282744 
-15.81184006 -17.51904297 -0.7553831339 0.9098769426 
-11.98551464 -17.4918251 -0.6787144542 0.9186407924 
-11.24778271 -18.09166908 -0.6818845868 0.918277204 
-11.87733364 -23.54322624 -0.8440529704 0.8998453617 
-16.66000366 -41.92569733 -1.44404757 0.8348104954 
-12.46763611 -41.89586639 -1.399148583 0.8395107388 
-11.51595211 -56.73875046 -1.853153348 0.7931831479 
-8.965527534 -57.09881592 -1.850049973 0.7934918404 
-4.170463562 -62.38991928 -2.001469851 0.7786102295 
1.391840816 -62.54138565 -2.002355337 0.7785238624 
4.173471451 -62.43132782 -2.002795458 0.7784808278 
6.948276043 -62.19981384 -2.003311157 0.7784309387 
12.99831486 -43.67916107 -1.458703399 0.8332828283 
14.50289059 -19.26785088 -0.7719206214 0.9079975486 
17.33555603 -16.07147026 -0.7566591501 0.9097318649 
18.14234734 -15.37668896 -0.7612290978 0.9092119336 
20.71085358 -16.0267334 -0.8382321596 0.9005005956 
27.57996559 -15.97788048 -1.02023685 0.8802397251 
29.34140015 -15.29705048 -1.059154987 0.8759678006 
32.91540527 -15.33878899 -1.162356019 0.8647367358 
42.08283997 -15.22275352 -1.432431459 0.8360241652 
56.75391388 -12.30983353 -1.858858585 0.7926185131 
57.24740982 -9.773634911 -1.858925581 0.7926116586 
62.37585831 -7.812094688 -2.012163877 0.7775701284 
62.66255188 -5.029999733 -2.012195349 0.7775671482 
62.82472992 -2.237316847 -2.012205839 0.7775657773 
62.86187744 0.5592968464 -2.012195826 0.7775663733 
47.29494858 11.14332008 -1.555295944 0.8232795596 
37.98455429 10.75400829 -1.263621092 0.8538574576 
33.92239761 11.25615692 -1.144023895 0.8667212725 
33.94423676 12.96660995 -1.163081765 0.8646585345 
34.12543488 14.80702591 -1.190698504 0.8616779447 
24.67614174 12.03846169 -0.8788294792 0.8959411383 
33.73598862 22.4602623 -1.297264338 0.8502727747 
33.83704758 32.50814438 -1.501922369 0.8287917972 
34.1305542 35.84353256 -1.584235549 0.8203064203 
37.08758926 42.59171295 -1.807712793 0.7977022529 
35.1494751 44.19124985 -1.807382345 0.7977359295 
23.92547798 32.9920311 -1.304481506 0.8495060802 
8.022231102 57.78479385 -1.86734879 0.7917769551 
3.060368538 62.46887589 -2.001941919 0.7785645723 
-5.278015137 62.27747726 -2.000561237 0.778698802 
-7.907878399 60.93679428 -1.966855407 0.7819871902 
-9.970221519 56.87252808 -1.848178267 0.7936778069 
-12.2099123 55.10638428 -1.806654453 0.7978082299 
-10.64404392 39.60655594 -1.312709928 0.8486303687 
-17.05252457 53.78146362 -1.805926442 0.7978806496 
-21.76006699 52.04101562 -1.805519342 0.797922194 
-26.31855392 49.93758774 -1.806834817 0.7977902889 
-23.88464737 33.56056595 -1.318497419 0.8480185866 
-34.25748825 40.05641556 -1.687093735 0.8098239303 
-19.12760735 15.63524914 -0.7907651067 0.9058606625 
-21.46436691 16.0071106 -0.8570565581 0.8983834386 
-48.52216721 29.86825562 -1.823789835 0.7961007953 
-51.07582092 25.48286629 -1.82705009 0.7957767844 
-41.0606308 16.10510635 -1.411776423 0.8381863236 
-55.7268486 13.65440845 -1.83649838 0.7948365808 
-54.05405045 10.72089863 -1.763897657 0.8020849228 
-23.3924427 2.507839203 -0.7530485392 0.9101424813 
-13.08070374 0.8159399033 -0.419508338 0.9489004612 
-61.80430222 -7.182587624 -1.991583467 0.7795733213 
-56.28805923 -11.68542004 -1.840123653 0.7944774628 
-55.71615982 -14.17894459 -1.840232968 0.794465363 
-40.09526062 -14.10165024 -1.360454321 0.8435819745 
-33.67080307 -13.5535059 -1.161792278 0.8647978306 
-27.1719265 -13.85996056 -0.9763470888 0.8850836754 
-22.01524162 -13.8232708 -0.8320716619 0.9011943936 
-19.96135139 -13.80865669 -0.7769181728 0.9074307084 
-17.6911869 -13.43984318 -0.7111431956 0.9149236679 
-17.11889648 -15.58943367 -0.7411130071 0.9115018845 
-17.10863304 -17.03268433 -0.7727403641 0.9079046249 
-14.70838833 -17.51119041 -0.7319963574 0.9125414491 
-12.21687031 -17.49346733 -0.6829696298 0.9181520939 
-11.25026798 -17.74165916 -0.6724354625 0.9193623662 
-11.88091755 -23.03832054 -0.8297098279 0.9014607072 
-11.20347118 -24.3235054 -0.8571767211 0.8983697295 
-16.93442345 -41.53560638 -1.435751319 0.8356776237 
-14.95098114 -41.91353607 -1.424397111 0.8368651271 
-12.87537098 -41.89876556 -1.403010726 0.8391049504 
-11.72319794 -45.22362518 -1.495391488 0.8294691443 
-9.477695465 -57.04241943 -1.850874305 0.7934091687 
-7.492416859 -62.0612793 -2.000917435 0.7786639333 
-4.725639343 -62.34749985 -2.001377583 0.7786189914 
-1.947719693 -62.51045609 -2.001838684 0.7785739899 
0.8353369236 -62.5486908 -2.002269506 0.7785319686 
3.617407084 -62.4629097 -2.002700567 0.7784905434 
6.394311428 -62.2563858 -2.003219604 0.778439641 
8.463042259 -57.21775436 -1.851382971 0.7933589816 
11.02978992 -56.93748093 -1.856375813 0.7928646803 
12.57725048 -43.68215561 -1.455004573 0.8336678743 
14.70561028 -43.66701889 -1.474850416 0.831602037 
12.20471668 -27.78874016 -0.9714873433 0.8856218457 
12.21226501 -24.75234413 -0.8834709525 0.895421505 
12.95931625 -19.27882195 -0.7435486913 0.9112243056 
14.2375145 -19.26973534 -0.7668918371 0.9085687399 
15.60107422 -19.26003838 -0.7933653593 0.9055665135 
17.06546783 -19.24962807 -0.8234215379 0.902169466 
17.33762169 -16.36260796 -0.7630708218 0.9090025425 
17.82112312 -15.37897396 -0.753465116 0.9100952744 
22.29295921 -16.01547813 -0.878619194 0.8959649801 
27.02940941 -15.9817915 -1.005095243 0.8819081783 
29.33046341 -15.62511158 -1.06373477 0.8754656315 
33.36318588 -15.91027355 -1.183121443 0.8624945879 
40.30820847 -17.06522369 -1.401075959 0.8393084407 
40.96188354 -15.2307272 -1.398834467 0.839543581 
47.64249802 -15.33962822 -1.602065206 0.818479538 
55.76016998 -15.25150871 -1.850368619 0.7934602499 
62.30357742 -8.367236137 -2.012155294 0.7775709033 
62.61531448 -5.58729744 -2.01219058 0.7775672078 
62.80235291 -2.796164513 -2.012205362 0.7775657177 
62.80115509 2.796662569 -2.012172699 0.7775694132 
62.61278534 5.587109089 -2.012125254 0.7775750756 
57.55747604 7.729843616 -1.858875275 0.7926164865 
49.09066772 8.831244469 -1.596543908 0.8190444112 
47.36340332 10.71558094 -1.554351449 0.823376894 
34.06355286 10.96756172 -1.145445347 0.8665668964 
33.87158203 12.59435844 -1.15670228 0.8653483987 
33.84693146 14.32972145 -1.176486969 0.8632104993 
25.20757675 12.02101421 -0.8939207196 0.8942536116 
34.04412842 20.12941933 -1.265941858 0.8536100984 
25.38376427 16.57560539 -0.9703938961 0.8857434988 
11.38392353 8.972311974 -0.4639545977 0.9436419606 
33.88949585 31.98361969 -1.491558909 0.8298662305 
33.68426132 34.75045776 -1.54910779 0.8239172101 
35.54256439 43.87843323 -1.807449341 0.7977291942 
24.3786869 32.99525452 -1.313135028 0.8485876322 
22.20404816 33.03162766 -1.273969889 0.8527533412 
20.09010506 32.96474075 -1.235665917 0.8568469286 
18.33158112 33.33114243 -1.21759057 0.8587852716 
17.35590935 35.1776886 -1.255577564 0.8547166586 
5.868469238 13.36181831 -0.467125535 0.9432680011 
4.634757042 13.76249218 -0.4648290873 0.9435390234 
4.36850214 18.1783371 -0.5984295607 0.9279088378 
3.616208315 62.44219589 -2.002034187 0.7785551548 
0.8345239162 62.52681351 -2.001572609 0.7786001563 
-1.492820978 47.91067123 -1.534297466 0.8254439831 
-4.444711685 58.64048767 -1.88238585 0.7902900577 
-7.489728928 62.03887177 -2.000196218 0.7787342668 
-16.57335091 53.93258667 -1.805978179 0.7978760004 
-18.23230743 39.5835762 -1.394957542 0.8399507403 
-25.87050247 50.16556549 -1.806673884 0.7978062034 
-28.08975792 48.98779297 -1.807520866 0.7977221608 
-30.25725365 47.71477509 -1.808475018 0.797627151 
-23.86057091 34.16619873 -1.333903432 0.8463873267 
-36.40881348 43.34680557 -1.811963439 0.7972787619 
-18.21946907 18.13860893 -0.8229141831 0.9022270441 
-18.66777611 15.53874874 -0.7774438858 0.9073705673 
-21.30810738 16.18758583 -0.8565345407 0.8984420896 
-46.80171204 32.37598419 -1.821569443 0.7963221073 
-48.24539948 30.29309464 -1.823447824 0.7961350083 
-50.83779144 25.93149757 -1.826710939 0.7958100438 
-54.84600067 16.58735847 -1.834070802 0.7950779796 
-36.11234283 7.496948242 -1.180547595 0.8627719879 
-22.35070038 2.597495079 -0.7202282548 0.9138849378 
-13.07217216 0.3491015434 -0.4185714722 0.9490117431 
-13.05065918 -0.8140624762 -0.4185449183 0.9490147829 
-40.08374023 -15.72197247 -1.378186345 0.8417137265 
-30.16235924 -13.40756321 -1.056539774 0.8762535453 
-22.46160126 -13.82644463 -0.8442593217 0.8998221755 
-18.02501488 -13.44221115 -0.7197268605 0.9139423966 
-17.13017464 -14.00273895 -0.7081924081 0.9152613282 
-12.45105457 -17.49513054 -0.6873365641 0.9176513553 
-11.30838394 -17.48700142 -0.6665750146 0.9200363159 
-11.88439465 -22.54978943 -0.8158934712 0.9030191302 
-17.35047722 -41.49515152 -1.439633965 0.8352717161 
-15.37378883 -41.91653824 -1.429087281 0.836374104 
-13.28540516 -41.90168381 -1.407016873 0.8386853933 
-11.25696278 -41.88725662 -1.388326645 0.840647459 
-7.741494179 -59.65858078 -1.925601721 0.7860316038 
-5.279887676 -62.29996872 -2.001285553 0.7786284685 
5.839379787 -62.30807495 -2.003127337 0.7784483433 
12.05193806 -52.19044876 -1.71449852 0.8070534468 
12.15787601 -43.68514633 -1.451446295 0.8340395093 
14.27531719 -43.67008209 -1.470607877 0.8320435286 
11.5201025 -21.39490128 -0.7777872086 0.9073320031 
11.52145481 -19.28904343 -0.7191688418 0.914006114 
12.71291924 -19.2805748 -0.7392243743 0.9117170572 
13.97555161 -19.27159119 -0.7619879246 0.9091261029 
17.50606918 -15.38122082 -0.7459046245 0.9109557271 
19.97300339 -16.03197289 -0.8197876811 0.9025797844 
21.88307571 -16.01839828 -0.8680500388 0.897149384 
24.03711319 -16.00307655 -0.9243127704 0.8908607364 
26.49441338 -15.98560047 -0.9904558063 0.8835238814 
29.33286095 -15.96303654 -1.068932652 0.8748971224 
40.31122971 -17.491045 -1.406531692 0.8387358189 
40.29632187 -15.39269543 -1.380727649 0.8414463401 
46.25823212 -15.34947205 -1.560045481 0.8227907419 
56.53238297 -13.31976986 -1.859064102 0.7925969958 
57.06378937 -10.79060268 -1.858901024 0.7926137447 
62.77496338 -3.355353832 -2.01220417 0.7775657177 
33.94631195 17.69816399 -1.225380182 0.8579496741 
33.72838593 28.58672714 -1.415206432 0.8378273249 
33.74637604 31.2855835 -1.472949505 0.8317993283 
24.83798027 32.99852371 -1.322008133 0.8476467729 
18.57059288 33.0649147 -1.213863611 0.8591860533 
4.515276909 15.17297554 -0.5067138672 0.9386104941 
4.388056755 17.57013893 -0.5796682835 0.9300878048 
10.33213139 50.90597534 -1.662648916 0.8123027682 
1.391386628 62.51996994 -2.001664877 0.7785906196 
-1.066982388 47.94360733 -1.534983754 0.8253727555 
-6.937785625 62.10582352 -2.000287294 0.7787255645 
-8.954147339 57.02796936 -1.847750664 0.7937197685 
-16.0933857 54.07966232 -1.806034327 0.7978700995 
-18.25862312 52.662117 -1.784079075 0.8000633121 
-18.1863842 40.42655563 -1.418907166 0.8374393582 
-19.85659218 39.35972214 -1.411091566 0.8382577896 
-27.65002823 49.2308197 -1.807343125 0.7977402806 
-29.82780647 47.97700119 -1.8082757 0.7976472378 
-23.86617661 34.83029556 -1.351485014 0.8445285559 
-24.99810982 33.21130371 -1.330534458 0.8467438221 
-36.01647568 43.66268921 -1.811702371 0.7973049879 
-23.90775299 26.48905182 -1.142152667 0.8669242859 
-18.21949005 18.4642849 -0.8303007483 0.9013940096 
-18.21168709 16.88371277 -0.7948995233 0.9053925276 
-18.46992683 15.65433788 -0.7749762535 0.9076507688 
-21.18746567 16.39554214 -0.8575208783 0.8983314037 
-22.65136719 15.96934986 -0.8871123195 0.895014286 
-47.96431351 30.71549225 -1.823091865 0.7961705923 
-49.32802963 28.57716751 -1.824743748 0.7960059047 
-50.59569168 26.37792397 -1.826375127 0.7958436608 
-40.65750885 18.94665527 -1.435757399 0.8356766105 
-40.62432861 16.77400398 -1.406812906 0.8387063742 
-43.58048248 15.7644825 -1.483412743 0.8307125568 
-54.68423843 17.07089806 -1.833675742 0.7951180339 
-22.29583168 2.792377949 -0.71923244 0.913998723 
-13.08496666 1.050346613 -0.4201782048 0.9488210082 
-13.07430649 0.4656054676 -0.4187557995 0.9489898682 
-13.05282688 -0.6976757646 -0.4183987379 0.9490321279 
-61.59172058 -8.830184937 -1.991628408 0.7795695662 
-58.9372673 -11.14538574 -1.919929504 0.7865883112 
-50.66026306 -14.34270477 -1.685297847 0.8100059628 
-31.18916512 -13.53298759 -1.088249087 0.8727867007 
-28.42809105 -13.86888599 -1.012451649 0.8810968995 
-25.44578552 -13.84767056 -0.9272821546 0.890530169 
-22.92128563 -13.82971668 -0.8568786979 0.898403585 
-17.13196182 -13.75152302 -0.7031776309 0.915835619 
-17.12277222 -15.04442883 -0.7295742631 0.9128177762 
-17.11284637 -16.44078636 -0.7595896125 0.909398675 
-15.3491354 -16.11950111 -0.7124584913 0.9147732854 
-15.25158215 -17.51505852 -0.7433902621 0.9112422466 
-12.68827152 -17.49682045 -0.6918100119 0.9171381593 
-11.53135204 -17.48858452 -0.6705224514 0.9195827246 
-11.90303421 -19.92824745 -0.7429978251 0.9112870693 
-11.88774872 -22.07767487 -0.8026072979 0.9045205116 
-13.69820309 -41.90461731 -1.411156178 0.8382514715 
-11.65832043 -41.89011002 -1.391804338 0.840282023 
-10.50047302 -56.91521454 -1.852519751 0.7932462692 
-7.94693327 -57.24240112 -1.84981668 0.7935140729 
-3.059868097 -62.45981216 -2.001654148 0.7785928845 
-0.2782568336 -62.54800797 -2.002098322 0.778549552 
8.055171013 -62.07183456 -2.003493786 0.778413415 
12.52009296 -56.50626755 -1.852556825 0.793243289 
11.7409277 -43.68809509 -1.448012352 0.8343972564 
13.84745598 -43.67312241 -1.466499567 0.8324705958 
16.01242065 -43.65772247 -1.488446593 0.8301893473 
11.62110806 -27.79288483 -0.9642432928 0.8864235878 
12.45319843 -21.27710915 -0.7891255021 0.9060464501 
13.71665955 -19.27343178 -0.7571985722 0.9096704125 
10.02609062 -12.83800983 -0.5213925242 0.93688941 
16.4665184 -19.25388718 -0.8109369278 0.9035791159 
17.34187508 -16.96036148 -0.7764263749 0.9074860811 
19.61606979 -16.03451538 -0.8109564185 0.9035764337 
21.48329544 -16.02124023 -0.8578152061 0.898298502 
23.58434105 -16.00629807 -0.9123407602 0.8921950459 
25.9752388 -15.98929691 -0.9763259888 0.8850860596 
43.78160095 -14.96137142 -1.480954528 0.8309677243 
52.28549576 -15.3065815 -1.74382484 0.8041002154 
56.4161644 -13.82330036 -1.859217167 0.7925822139 
56.96503448 -11.29827118 -1.858887553 0.792615056 
61.414711 -9.363178253 -1.988510132 0.7798725963 
62.50544357 -6.701032639 -2.012178898 0.7775686979 
62.8416748 1.678239703 -2.012185812 0.7775672674 
62.7034111 4.472160339 -2.01214695 0.7775716186 
57.68682098 6.704079628 -1.858902574 0.7926137447 
57.31158447 9.26060009 -1.858253598 0.7926775813 
24.69317245 8.68467617 -0.8378530741 0.9005432129 
26.82617378 13.68358707 -0.9639735818 0.886459589 
26.41163445 16.58374786 -0.9982418418 0.8826648593 
23.94466209 16.56419754 -0.9319173098 0.8900104165 
11.52562714 8.755913734 -0.4633006155 0.9437188506 
33.71895599 30.70636368 -1.459762573 0.8331722617 
33.69474411 33.54514313 -1.521875858 0.8267267942 
25.30354881 33.00183487 -1.331108093 0.8466829658 
23.03615379 32.98570251 -1.287811995 0.8512786627 
20.90714836 32.97055435 -1.249634624 0.8553519249 
18.89721107 32.95624924 -1.215993762 0.8589567542 
5.446910381 13.3598032 -0.4618041813 0.9438956976 
4.764415264 13.35654259 -0.4539099038 0.9448278546 
4.404174805 16.98960686 -0.5617892146 0.932169497 
10.17413712 47.93567657 -1.568538904 0.8219182491 
1.45063293 19.13873291 -0.6143620014 0.9260622263 
1.947639108 62.50767517 -2.001757383 0.7785826325 
-0.7284985185 54.54861069 -1.746183991 0.803863585 
-3.614047766 62.40477371 -2.000836372 0.7786719799 
-15.61211681 54.22257614 -1.806095243 0.7978639603 
-18.00584602 53.46675491 -1.805837989 0.7978900075 
-18.24015236 41.53067398 -1.451902151 0.8339918852 
-19.3656826 39.25117493 -1.400965691 0.8393195271 
-27.20800209 49.47060394 -1.807168961 0.7977567315 
-18.21022224 18.7863102 -0.8374609351 0.9005872011 
-21.19589233 16.70566559 -0.8638442755 0.8976215124 
-22.27224541 16.00060272 -0.8777973056 0.8960564137 
-50.34954071 26.82250404 -1.826042175 0.7958770394 
-51.54077148 24.57882309 -1.827738166 0.7957082987 
-43.5437851 18.43506241 -1.513541579 0.8275889754 
-50.48425293 16.25457001 -1.697643518 0.8087586761 
-53.93406296 14.75204563 -1.789761901 0.799494803 
-13.08709526 1.167790532 -0.420564115 0.9487752914 
-13.07643986 0.5822119117 -0.4189736843 0.9489639997 
-13.04183769 -0.5807275176 -0.537373364 0.9490789771 
-47.67459869 -8.576572418 -1.993932962 0.8237206936 
-47.2477951 -10.68926239 -1.994015932 0.8237142563 
-42.27668762 -13.61186504 -1.828214407 0.8371044993 
-31.97847366 -13.53859329 -1.429440737 0.8702081442 
-29.09222984 -13.87361336 -1.326726675 0.8789449334 
-12.14338112 -6.469067097 -0.5663633347 0.9464069009 
-11.67975044 -6.905986309 -0.5585270524 0.9471282959 
-21.15958786 -13.81718731 -1.04024744 0.9037783146 
-19.21359634 -13.80333424 -0.9738320708 0.9096352458 
-17.13375473 -13.50406742 -0.8980026841 0.9163684249 
-17.12469864 -14.77809525 -0.9310946465 0.913424015 
-17.11493111 -16.1524353 -0.9687097073 0.9100885391 
-16.98977661 -17.52741623 -1.004803896 0.9068992734 
-15.52945805 -17.51703072 -0.9636121392 0.9105396867 
-14.18154716 -17.50744629 -0.9274278283 0.9137496352 
-12.92882061 -17.49853516 -0.8955715895 0.9165850282 
-11.75706959 -17.49019432 -0.8674919009 0.9190915823 
-11.90585899 -19.53573608 -0.9417218566 0.9124802947 
-11.89103699 -21.62059021 -1.015692711 0.9059394002 
-16.24438477 -41.96423721 -1.852280259 0.8351474404 
-14.36402321 -42.65251923 -1.852597356 0.8351219893 
-12.06196308 -41.89297867 -1.794499755 0.8398540616 
-10.51398373 -43.75089645 -1.852196336 0.835154593 
-8.542743683 -44.09982681 -1.849027395 0.8354116082 
-2.811381817 -48.54509354 -2.001614571 0.8231058717 
15.11802673 -42.38202667 -1.852241635 0.8351506591 
11.56966782 -28.37708855 -1.261442184 0.8845432997 
12.22493172 -26.54123878 -1.202842116 0.8895991445 
12.20450211 -23.66561508 -1.09605813 0.8988858461 
12.20135689 -21.27889633 -1.009683251 0.9064689279 
12.22839355 -19.28402328 -0.939933002 0.9126391411 
14.8433342 -16.15448761 -0.9030516148 0.9159185886 
17.33348656 -15.78496552 -0.9650230408 0.9104148746 
18.47032738 -15.37435532 -0.9892198443 0.9082747698 
23.14278221 -16.00942802 -1.158353806 0.8934566379 
25.47046852 -15.99288082 -1.237987638 0.8865634203 
28.14754295 -15.97384739 -1.332218647 0.8784759045 
29.98023796 -15.29249477 -1.385347009 0.8739475012 
33.34880447 -15.1809864 -1.508280635 0.8635612726 
40.30214691 -16.22286987 -1.788321137 0.8403589725 
42.56439972 -14.96989727 -1.857279658 0.834741354 
43.71235657 -11.12396431 -1.856690645 0.8347899914 
48.50020981 -5.636437893 -2.009852171 0.8224464655 
48.70341873 -3.473442316 -2.009873152 0.8224447966 
48.80984879 -1.30348146 -2.009878159 0.8224443793 
48.81924057 0.8690551519 -2.009867191 0.8224452734 
48.54694366 5.20443821 -2.009796858 0.8224514127 
44.59150696 6.798427582 -1.85673213 0.8347859979 
44.23843765 8.773988724 -1.856459141 0.8348081708 
43.75837326 10.72193623 -1.854513645 0.8349663615 
33.8519783 11.56824398 -1.472570777 0.866565764 
34.03814697 13.35064697 -1.505036712 0.8638337851 
21.62068748 12.01670837 -1.01819694 0.905718565 
19.47736549 11.98946381 -0.941470325 0.9125026464 
24.41162872 16.56790161 -1.214397907 0.8885968328 
22.22464371 16.57411575 -1.141217589 0.894946754 
31.38148117 30.69091034 -1.806836486 0.8388471007 
28.89357376 33.78431702 -1.829892516 0.8369681239 
21.32297325 32.97351456 -1.616366744 0.8545311689 
4.899283409 13.35781193 -0.5856666565 0.9446319342 
4.609652996 14.53841496 -0.6278063655 0.9407682419 
4.418232441 16.4402523 -0.7007447481 0.9341184497 
9.730466843 43.91691208 -1.851595998 0.8352031708 
8.067000389 46.01616669 -1.923057914 0.8294188976 
2.405391216 18.53621864 -0.769405961 0.9279013276 
1.947126389 48.59279251 -2.001838207 0.8230882287 
-0.2163647413 48.622715 -2.001479387 0.8231165409 
-2.378654718 48.55622864 -2.001121521 0.82314533 
-8.144560814 44.14501953 -1.847816467 0.8355105519 
-13.732584 42.00994873 -1.819303513 0.8378302455 
-10.51281261 24.52689171 -1.098409891 0.8986781836 
-20.89942551 38.81399155 -1.814592123 0.8382143974 
-23.90288353 36.2513504 -1.787406325 0.8404340148 
-29.09055138 33.40806961 -1.823459625 0.8374915123 
-18.3948288 19.31798935 -1.098025799 0.8987141252 
-18.16372681 17.45048332 -1.036818743 0.9040797353 
-10.41334724 9.149345398 -0.5705928206 0.9460176826 
-19.18880653 15.40258312 -1.012855053 0.9061894417 
-21.5417347 15.76844215 -1.098902702 0.8986375928 
-39.14101791 21.30072212 -1.834297538 0.8366097808 
-40.08510971 19.55569458 -1.835912585 0.8364782929 
-40.94661713 17.76676178 -1.837310195 0.83636415 
-43.05172348 12.18839359 -1.841793418 0.8359999061 
-18.03856468 3.411108255 -0.7556845546 0.9291406274 
-13.12788773 1.28929925 -0.5429837108 0.9485613108 
-13.06536388 0.6983251572 -0.5385786295 0.9489678144 
-13.04399967 -0.4645507634 -0.5372707844 0.9490884542 
-29.13143921 -13.57543468 -1.322950125 0.879267633 
-12.34902573 -6.438188553 -0.5732588172 0.9457723498 
-11.71775818 -6.788444519 -0.5574354529 0.9472290874 
-11.76340294 -7.533022404 -0.5749939084 0.9456128478 
-19.58270264 -13.80596638 -0.9862718582 0.9085352421 
-17.36501884 -13.43751907 -0.9038196206 0.9158502221 
-17.10651398 -17.33641624 -1.002542853 0.9070987105 
-15.81191826 -17.51903725 -0.9714244604 0.9098480344 
-14.44299793 -17.50930214 -0.9342981577 0.9131392837 
-11.98553181 -17.49182129 -0.8728273511 0.9186146855 
-11.2478075 -18.09166908 -0.8769003749 0.918250978 
-11.87737274 -23.54327583 -1.085453868 0.8998134136 
-11.84195805 -26.32385635 -1.18816483 0.8908697367 
-12.46761227 -41.89586639 -1.799305081 0.8394616246 
-8.937919617 -44.03708267 -1.8496629 0.8353603482 
-7.53979969 -48.01909637 -2.000827789 0.8231684566 
-5.397206783 -48.31549835 -2.001184702 0.823140204 
-1.081967711 -48.62144089 -2.001901388 0.8230826855 
1.08215332 -48.63016891 -2.00225997 0.8230538964 
3.244931459 -48.54260635 -2.002618074 0.8230251074 
5.402026176 -48.3587532 -2.002974272 0.8229967952 
8.95177269 -44.10536194 -1.8525244 0.8351274133 
16.61955452 -41.8238945 -1.852540374 0.8351262808 
12.22950649 -27.1852932 -1.227045655 0.8875072002 
12.20829105 -24.19923782 -1.115700126 0.8971706629 
11.95198727 -21.28067398 -1.004680872 0.9069101214 
13.20879841 -19.27705002 -0.9619099498 0.9106903672 
15.88547325 -19.25801659 -1.027610064 0.9048898816 
17.35798836 -19.23203659 -1.066412449 0.9014816284 
18.14228439 -15.37668419 -0.9789409637 0.9091832042 
22.71249962 -16.01248932 -1.143902063 0.8947130442 
24.97960854 -15.99637699 -1.220998645 0.8880292773 
29.34108734 -15.29704571 -1.362054706 0.8759300113 
32.80800629 -15.28873539 -1.489917994 0.8651049733 
42.08300018 -15.22274876 -1.842119694 0.8359736204 
43.05990982 -13.44226074 -1.856839657 0.8347774744 
43.61138153 -11.51249027 -1.856676102 0.8347908258 
48.67057037 -3.90674305 -2.009870291 0.8224448562 
48.79632187 -1.737844229 -2.009878397 0.8224443793 
48.82521057 0.4345629811 -2.009870768 0.822444737 
48.75680923 2.6060009 -2.009846687 0.8224471807 
44.32001877 8.380927086 -1.856678009 0.834790349 
43.86131668 10.33429432 -1.854902148 0.8349345922 
38.08918762 10.78345394 -1.629492044 0.8534408808 
34.21204758 14.84464836 -1.535125136 0.8613093495 
24.64669418 12.02400017 -1.128799319 0.8960258365 
19.86064148 11.98297119 -0.9548018575 0.9113201499 
18.77010727 12.49654961 -0.9282096624 0.9136803746 
18.747118 13.72281551 -0.9564637542 0.9111838937 
20.62570763 16.55596352 -1.088696599 0.8995295763 
31.65418434 30.41122055 -1.806883335 0.838843286 
27.65537453 34.76932526 -1.828736663 0.8370621204 
21.74352264 32.97650909 -1.625928283 0.853736341 
10.44838333 19.40451622 -0.9071798325 0.915550828 
16.98936081 35.22146225 -1.609675288 0.8550871611 
10.12670135 43.85368729 -1.852662921 0.8351170421 
2.583322048 18.60813713 -0.7733156681 0.9275486469 
0.2163708508 48.62453079 -2.001551151 0.8231105208 
-6.254100323 48.19474411 -2.000481606 0.8231967688 
-7.849946022 44.77804565 -1.871306777 0.8336032629 
-9.716505051 43.85385513 -1.848940492 0.835419178 
-10.64404678 39.60655975 -1.688179731 0.8485837579 
-17.04827118 40.77275848 -1.819140315 0.8378438354 
-22.32061768 38.1360817 -1.818913698 0.8378624916 
-18.132061 19.38457108 -1.092598677 0.8991889358 
-18.16094208 17.76129532 -1.045642138 0.9033043385 
-10.29843998 9.2120924 -0.5687670708 0.946185708 
-36.80312729 24.97788811 -1.830886602 0.8368872404 
-37.90921402 23.3353405 -1.832399964 0.8367637396 
-38.92148972 21.63248825 -1.83296454 0.8367185593 
-40.7806015 18.12770653 -1.837029338 0.8363870978 
-42.29719162 14.45419884 -1.839941263 0.8361507654 
-42.9342308 12.5689106 -1.841479421 0.8360254169 
-43.48835754 10.65576649 -1.843069315 0.835896194 
-13.06748581 0.8151269555 -0.5389439464 0.9489341378 
-13.05686092 0.2324267477 -0.5375460982 0.9490631223 
-13.03532028 -0.9296655059 -0.5379366875 0.9490270615 
-47.81907654 -7.726567268 -1.993904114 0.8237227798 
-29.71174049 -13.52534103 -1.343788862 0.8774878383 
-11.77726746 -6.683637619 -0.5574120879 0.9472309947 
-19.96139145 -13.80866146 -0.9991141558 0.9074010849 
-17.11893082 -15.58957005 -0.9530790448 0.911473155 
-17.10867691 -17.03267479 -0.9937447906 0.9078751802 
-11.27636242 -12.27245045 -0.6860380173 0.9354550838 
-14.70838833 -17.5111866 -0.94134444 0.9125135541 
-13.41945267 -17.5020256 -0.9078319073 0.9154927135 
-11.25030231 -17.74158669 -0.8647505045 0.9193366766 
-11.88095951 -23.03822708 -1.067003369 0.9014296532 
-11.20351028 -24.32364273 -1.102339029 0.8983370662 
-15.11987305 -42.38724136 -1.852469921 0.8351321816 
-12.87547302 -41.89876938 -1.804279447 0.8390555978 
-11.29661083 -43.57840347 -1.853113532 0.8350800872 
-9.332690239 -43.97105408 -1.850297689 0.8353081942 
-7.872866154 -47.38462448 -1.977232933 0.8250597119 
2.812690258 -48.56773376 -2.002546549 0.8230311275 
4.971244812 -48.40309525 -2.002903223 0.8230028152 
7.120751858 -48.14266586 -2.003257751 0.8229740858 
12.44702148 -43.23036957 -1.851783514 0.8351877332 
14.36010742 -42.64097595 -1.852095604 0.8351627588 
16.24601555 -41.96836853 -1.852466106 0.8351325989 
12.21222115 -24.75239182 -1.136144638 0.8953883052 
11.75450611 -19.28739166 -0.929749608 0.9135433435 
15.6011858 -19.26003838 -1.020267248 0.9055362344 
17.34850121 -17.89747429 -1.026017904 0.9050300121 
17.82098579 -15.37896919 -0.9689531326 0.9100669622 
20.33787537 -16.02938461 -1.065935731 0.9015234709 
22.29280281 -16.01547813 -1.129902244 0.8959324956 
27.02920341 -15.98179626 -1.292540669 0.8818717599 
40.96163177 -15.23072243 -1.79889679 0.8394952416 
43.99493408 -9.953325272 -1.85673058 0.8347859383 
48.39186478 -6.498725414 -2.009839058 0.822447598 
48.63373947 -4.339687347 -2.009866714 0.8224452734 
48.77846146 -2.172101974 -2.00987792 0.8224458694 
43.96074677 9.945585251 -1.85529089 0.8349030614 
34.02610397 10.95541859 -1.47142756 0.8666619658 
34.09872818 14.43623257 -1.52421689 0.862223804 
25.18255234 12.00913143 -1.148429632 0.8943193555 
22.52938843 12.00195789 -1.050767779 0.9028544426 
20.27114868 11.9858923 -0.9693780541 0.9100297689 
25.38383675 16.57560539 -1.247920394 0.8857073784 
11.38389492 8.97228241 -0.5966423154 0.9436237812 
18.70181656 16.13911438 -1.016856194 0.9058378935 
30.56399155 31.5311718 -1.807600021 0.8387842774 
29.49979973 33.27543259 -1.830483913 0.8369200826 
24.37863159 32.99525833 -1.688690424 0.8485411406 
22.20413017 33.0315361 -1.638323307 0.8527079821 
20.08999634 32.96474075 -1.589064598 0.8568028212 
18.33160591 33.33105469 -1.5658288 0.8587417603 
5.868786335 13.36245823 -0.6007527113 0.943246901 
5.171317101 13.35911179 -0.5896658301 0.9442645311 
4.631821156 13.7537241 -0.5973892212 0.9435555935 
2.811915159 48.55408096 -2.001981497 0.8230761886 
-5.825147629 48.25031281 -2.000552177 0.8231907487 
-7.843091965 47.20533752 -1.9697541 0.8256602287 
-9.321163177 43.91649246 -1.848005891 0.8354946971 
-10.65648937 41.10902786 -1.748108983 0.8436521292 
-12.98325729 42.24946213 -1.819381118 0.8378241062 
-14.84844589 41.62631607 -1.819215298 0.8378375769 
-20.2540493 39.27437592 -1.818973899 0.8378574252 
-21.98103142 38.33444595 -1.818968773 0.8378577232 
-23.67420387 37.33416367 -1.819719791 0.8377965689 
-26.93260193 35.12620926 -1.822004199 0.8376105428 
-18.16185188 18.08125496 -1.054920912 0.9024896622 
-10.27145195 9.35383606 -0.5718511939 0.9459019303 
-40.65264893 16.36400032 -1.803873897 0.8390887976 
-42.81354904 12.9483099 -1.841167569 0.8360503912 
-43.38426971 11.04044437 -1.842747331 0.8359221816 
-43.87116623 9.107670784 -1.844376206 0.8357898593 
-21.90169334 2.54531002 -0.9076070189 0.915512681 
-13.06960297 0.9321044683 -0.5393528342 0.9488964677 
-13.05899239 0.3487451077 -0.537740171 0.9490451813 
-47.88544464 -7.300634384 -1.993890643 0.8237244487 
-43.4690094 -10.65102005 -1.842241883 0.835962832 
-42.95433807 -12.57477474 -1.842338324 0.8359553218 
-40.09816742 -13.70273399 -1.744275928 0.8439661264 
-40.08380508 -15.7219038 -1.772349477 0.8416650891 
-11.83799267 -6.579516411 -0.5574951172 0.9472235441 
-20.3501358 -13.81142521 -1.012381315 0.9062311649 
-18.02501869 -13.44221687 -0.9255715609 0.9139148593 
-17.13021469 -14.00266552 -0.9107347131 0.9152342677 
-17.12088013 -15.3148241 -0.945559442 0.912139833 
-11.30833244 -17.48700142 -0.8572195768 0.9200108051 
-11.90019989 -20.33215714 -0.9697472453 0.9099965096 
-17.35705948 -41.51140976 -1.852092266 0.8351627588 
-15.49593258 -42.24953842 -1.852406383 0.8351374269 
-13.2856102 -41.90168762 -1.809425831 0.8386358023 
-11.25696754 -41.88725662 -1.785387874 0.8405986428 
-9.726986885 -43.90117645 -1.850931406 0.8352570534 
-7.915234089 -45.150383 -1.88687098 0.8323426843 
-6.255868912 -48.2082901 -2.001041889 0.8231517673 
-4.105937481 -48.4475441 -2.001399517 0.8231230378 
-1.947001934 -48.59095001 -2.00175786 0.8230943084 
0.2164794803 -48.63806534 -2.002116919 0.8230659366 
6.69179678 -48.20234299 -2.00318718 0.8229800463 
8.171156883 -44.28922272 -1.853848934 0.8350202441 
10.13858891 -43.9052124 -1.854833961 0.8349402547 
11.91182613 -27.79081917 -1.24461472 0.885992527 
12.21630383 -25.32621574 -1.157450557 0.8935351372 
11.5200634 -21.3948288 -1.00022471 0.9073027968 
12.71291447 -19.28057098 -0.9506425858 0.9116889238 
13.9754343 -19.27159119 -0.9799131751 0.9090973735 
16.76377869 -19.2517662 -1.05079329 0.9028520584 
17.35079575 -18.2215519 -1.03570199 0.9041779041 
17.33969116 -16.65877914 -0.989780128 0.9082251787 
19.97291374 -16.03197289 -1.054240346 0.902549088 
24.0369873 -16.00307655 -1.188661456 0.8908266425 
31.35989189 -15.2990427 -1.436290741 0.869628489 
40.31116486 -17.49103546 -1.808802247 0.8386867046 
40.2962532 -15.3928709 -1.775621176 0.8413977623 
42.81892395 -14.20822239 -1.857061625 0.834759593 
43.39896011 -12.28671074 -1.856645465 0.8347929716 
43.90420914 -10.34441662 -1.856717944 0.8347872496 
48.59305191 -4.772316933 -2.009862423 0.8224457502 
48.82516861 -0.4345141649 -2.009875774 0.8224449158 
48.79575729 1.737810016 -2.009858131 0.8224462271 
48.66929626 3.906633139 -2.009824514 0.8224490285 
34.45988083 10.75757885 -1.485987186 0.8654356599 
33.79491806 13.95429134 -1.505026102 0.8638345599 
20.72369576 12.00583839 -0.985847652 0.9085713029 
25.89041519 16.57961845 -1.265532613 0.8841925859 
11.40199184 8.823194504 -0.5934538245 0.9439166188 
18.70713615 15.85544872 -1.00941956 0.9064920545 
30.82872009 31.24304771 -1.806741595 0.8388544321 
29.79969406 33.01701355 -1.83078289 0.8368955255 
24.83807564 32.99852753 -1.700105667 0.8475996852 
18.57045174 33.06501007 -1.561028838 0.8591423631 
5.308774471 13.35977268 -0.5917577744 0.944072485 
4.515832424 15.17485809 -0.651717186 0.9385831952 
4.379985332 17.53751755 -0.7440729141 0.9301903844 
8.943169594 44.06319427 -1.850755453 0.8352712989 
7.547063828 48.06557846 -2.002769232 0.8230134845 
1.277800918 19.11532021 -0.7886010408 0.9261705875 
-5.395643234 48.30183029 -2.000623226 0.8231855035 
-7.537744999 48.00561523 -2.00026989 0.8232134581 
-8.929138184 43.99357224 -1.847837448 0.8355088234 
-14.47760487 41.75733185 -1.819241166 0.8378357291 
-16.31998444 41.06998825 -1.819150329 0.8378429413 
-19.903759 39.45323563 -1.818979621 0.8378568888 
-23.34244728 37.54533005 -1.819821596 0.8377884626 
-23.8514595 26.42659378 -1.465347528 0.867174685 
-18.16430664 18.40844727 -1.064535141 0.901646018 
-18.19355011 16.86681938 -1.021224141 0.9054522514 
-18.37154198 15.57100296 -0.9913146496 0.9080899954 
-38.53826141 22.32633018 -1.833338022 0.8366878629 
-40.43922424 18.84492874 -1.836474895 0.836432457 
-42.68924332 13.3266058 -1.840857863 0.8360761404 
-43.78066635 9.496068954 -1.844046593 0.8358162642 
-18.12068558 3.093642473 -0.7566942573 0.929049015 
-21.85111809 2.736726046 -0.9064874649 0.9156125784 
-13.05044937 -0.1161425784 -0.5372184515 0.9490934014 
-13.02597904 -1.279301763 -0.5387681723 0.9489502311 
-43.06401825 -12.1918993 -1.842317939 0.8359571099 
-40.51913452 -13.44512653 -1.757316828 0.8428966403 
-40.0867157 -15.31282234 -1.766382813 0.8421536684 
-31.18916512 -13.53298283 -1.399487853 0.8727469444 
-28.4282589 -13.86888599 -1.302024007 0.8810590506 
-11.94800758 -6.502177715 -0.559928298 0.9469993711 
-17.11288071 -16.44087791 -0.9768356085 0.9093694687 
-15.33544922 -16.10506248 -0.9154025316 0.9148188829 
-15.25145435 -17.5150528 -0.9559972286 0.9112142324 
-11.5313549 -17.48858833 -0.8622891903 0.9195569158 
-11.90306854 -19.92811966 -0.955491364 0.9112591147 
-11.28133297 -26.31986809 -1.178733945 0.8916872144 
-11.65841293 -41.8901062 -1.789860487 0.8402330279 
-8.147099495 -44.15876007 -1.848391056 0.8354638219 
-6.684399128 -48.14902878 -2.000970364 0.8231573701 
-4.536738396 -48.40717697 -2.001327753 0.8231293559 
-2.379345655 -48.56988144 -2.001686096 0.8231002688 
-0.2164746076 -48.63637161 -2.002044916 0.8230715394 
1.947724581 -48.60657501 -2.002403259 0.8230427504 
4.108730316 -48.48053741 -2.002760649 0.8230139613 
8.01451683 -45.7167511 -1.910547614 0.8304288983 
9.743461609 -43.97559357 -1.854065061 0.8350022435 
15.49518013 -42.24747086 -1.852316737 0.8351447582 
12.22053242 -25.92199135 -1.179658651 0.8916070461 
12.20084 -23.15038109 -1.077184677 0.9005375504 
12.46929169 -19.28230476 -0.9452188015 0.9121698737 
10.02606392 -12.838027 -0.6705111265 0.9368689656 
16.46658707 -19.25388718 -1.04286623 0.9035483003 
17.34183502 -16.96018028 -0.9984781146 0.9074571729 
23.58412552 -16.00628853 -1.173262358 0.8921616673 
30.67398834 -15.30392075 -1.411063552 0.8717651367 
40.31422424 -17.92031288 -1.816020966 0.8380978703 
42.69326019 -14.58954525 -1.857171178 0.8347508907 
43.28751373 -12.67231941 -1.856629252 0.8347942829 
43.81014252 -10.73463821 -1.856704712 0.8347882032 
48.5482254 -5.204707146 -2.009857655 0.8224471211 
48.73239517 -3.039794922 -2.009875536 0.8224448562 
48.81937027 -0.868991673 -2.009877205 0.8224449158 
48.80941772 1.303508282 -2.0098629 0.8224458098 
48.70227051 3.473369122 -2.009832621 0.8224486113 
44.528862 7.194936275 -1.856719494 0.8347872496 
44.14929962 9.165419579 -1.856069565 0.8348398805 
41.64621353 10.59815121 -1.768927932 0.8419455886 
36.26411438 10.96755314 -1.559517741 0.8592686653 
33.89718628 13.644701 -1.50411272 0.8639113307 
18.7832756 11.79398918 -0.9129565954 0.9150365591 
11.52558231 8.755921364 -0.595805943 0.9437007308 
33.74411392 28.08803368 -1.807243109 0.8388137221 
31.10627365 30.96815872 -1.80678916 0.8388510346 
28.58714294 34.03466797 -1.829600215 0.8369920254 
25.30377388 33.00183868 -1.711811066 0.8466353416 
17.81896782 34.55263138 -1.600281 0.8558684587 
6.155387878 13.36383533 -0.6056446433 0.9427981973 
5.447198391 13.36043644 -0.5939086676 0.943874836 
