# .PCD v0.7 - Point Cloud Data file format
VERSION 0.7
FIELDS x y z intensities
SIZE 4 4 4 4
TYPE F F F F
COUNT 1 1 1 1
WIDTH 908
HEIGHT 1
VIEWPOINT 0 0 0 1 0 0 0
POINTS 908
DATA ascii
39.16331482 -16.58041763 -0.1944079548 0.8435670137 
55.19487762 -15.0969553 -0.2615776062 0.7954147458 
107.3513031 -14.41669655 -0.4951300025 0.6483888626 
102.826973 9.175578117 -0.4719087183 0.6616976857 
98.17255402 13.18405533 -0.4528039396 0.6728588939 
98.40402222 17.70268822 -0.4570411444 0.6703609824 
46.60588837 10.54404545 -0.2184268087 0.8260194659 
33.10284424 10.65816021 -0.158971861 0.8701350093 
23.55257797 8.757533073 -0.1148661748 0.9043731689 
32.54167557 13.77702999 -0.1615351886 0.8681827188 
47.72830582 37.61733627 -0.2777957022 0.7842051387 
10.2449522 8.841091156 -0.06185699254 0.9473090768 
32.47673798 30.6503334 -0.204133302 0.8364179134 
32.53243256 33.56188965 -0.2136668414 0.8294705749 
40.43491745 49.91788101 -0.2936506569 0.7733970881 
24.38742638 33.00719833 -0.1875976473 0.8486072421 
22.17696953 32.9911499 -0.1817134023 0.8529875875 
20.09689331 32.97604752 -0.1765263379 0.8568680882 
16.89740372 34.2485733 -0.1745696962 0.8583338261 
15.60540295 35.53149796 -0.1774006635 0.8562170863 
4.499124527 13.35969734 -0.06443893164 0.9451720119 
3.514704466 14.62541389 -0.0687591508 0.941606462 
3.283797503 16.95185471 -0.07893066108 0.9332625866 
16.24585342 109.836113 -0.507547617 0.6413826942 
11.35974121 110.6048584 -0.5082488656 0.6409836411 
-14.79817867 89.06601715 -0.4127174318 0.696873188 
-18.89650917 89.03052521 -0.416040957 0.6948501468 
-27.33643913 88.95689392 -0.4253953397 0.6891794801 
-22.87644196 56.10932541 -0.2769784629 0.7847602367 
-24.8188076 53.88346863 -0.2710372806 0.7887541056 
-45.79471588 88.80003357 -0.4567092657 0.6705506444 
-50.8927536 88.75588989 -0.4676765203 0.6641474962 
-56.25739288 88.71708679 -0.4801892042 0.6569110751 
-67.69210815 96.92905426 -0.5404227972 0.6231859922 
-41.20981216 53.74694061 -0.3095925748 0.7626836896 
-74.68244934 88.91387177 -0.5307816863 0.6284664273 
-33.85942459 33.70914841 -0.2183987349 0.8260373473 
-19.73779297 17.97451782 -0.1220292673 0.8987196088 
-22.44235992 18.68056679 -0.1334738135 0.8897630572 
-56.05315399 25.51644707 -0.2815183997 0.7816459537 
-42.08548355 16.94075966 -0.2073744088 0.8340429068 
-54.96728897 13.98810291 -0.2592637539 0.7970170379 
-57.48638153 11.93420124 -0.2683775127 0.7906888127 
-73.23621368 8.511164665 -0.3369903564 0.7445914745 
-13.34780407 0.3564672768 -0.06103515625 0.9479904771 
-13.33736038 -0.2374340743 -0.06097442657 0.9480401278 
-111.9155045 -17.06268311 -0.5174899101 0.6358200908 
-102.4745865 -20.32425499 -0.4775422513 0.658436656 
-56.70359802 -13.89388371 -0.2668552995 0.791736722 
-48.94750214 -14.32925034 -0.2331361324 0.8154547215 
-34.56309128 -13.55652046 -0.1697102338 0.8619930744 
-30.42961693 -13.52652073 -0.152218163 0.8752867579 
-27.7798481 -13.85996819 -0.1419096291 0.8832181692 
-22.45326042 -13.82130623 -0.1205215454 0.8999050856 
-20.34213066 -13.80598354 -0.1123788431 0.9063408375 
-18.27490234 -13.62856674 -0.1042080671 0.9128446579 
-12.48197937 -12.20732594 -0.07980529964 0.9325458407 
-16.38526726 -17.51716423 -0.1096418723 0.9085140228 
-12.44645023 -17.48857689 -0.09812591225 0.9177203178 
-12.69525337 -24.08845901 -0.1244647205 0.8968043923 
-13.28357887 -41.89529037 -0.2009031624 0.8387816548 
-12.84194756 -47.7849884 -0.2261891067 0.8204321265 
-19.00210381 -85.76300812 -0.4015464783 0.7037196159 
9.003520012 -96.06839752 -0.4410659671 0.6797966361 
11.88339329 -85.59843445 -0.395036608 0.7077381611 
10.55562019 -45.71115112 -0.2144360244 0.8288978934 
12.15519524 -43.67512512 -0.2072318941 0.8341500163 
14.27194786 -43.65976334 -0.2099705487 0.8321563601 
10.38527775 -19.28731728 -0.100132294 0.916105926 
11.51541996 -19.27911758 -0.1026541144 0.9140897989 
12.70626926 -19.27047539 -0.1055143699 0.9118034244 
13.96799278 -19.26132965 -0.1087599173 0.9092158675 
16.21237183 -18.61853218 -0.1128524765 0.9059669375 
16.19013596 -15.55435753 -0.1026301533 0.9141085744 
19.95908737 -16.02088547 -0.1169915721 0.9026904702 
21.86766624 -16.00703812 -0.1238789335 0.8972669244 
24.01948166 -15.99143314 -0.1319084167 0.8909876347 
26.47467804 -15.97361088 -0.1413462758 0.8836603761 
28.18671799 -15.33930397 -0.1466915905 0.8795345426 
46.214077 -15.33481693 -0.2225773633 0.8230243325 
53.96661377 -15.27852249 -0.2563896179 0.7990329266 
102.1534958 -24.06871223 -0.4797547758 0.6571736336 
102.1928329 -19.32478714 -0.4754292071 0.6596669555 
118.594841 9.519494057 -0.543849349 0.621319294 
98.41056061 16.80103683 -0.4563624561 0.6707613468 
50.08219147 10.86286354 -0.2342610061 0.814656198 
40.13378906 10.59452152 -0.1897460967 0.8470155597 
32.84493637 13.56202507 -0.1624356061 0.8674994111 
21.36713982 13.68301105 -0.1159825101 0.9034881592 
53.459198 37.68926239 -0.2990019023 0.7697883844 
48.68212128 37.67162323 -0.2813873291 0.7817460895 
32.67796326 30.29499245 -0.2036964297 0.8367384076 
32.61094284 36.13175583 -0.2224960327 0.823089242 
42.55593491 51.59067154 -0.3056524694 0.7652804255 
20.50338554 32.97900009 -0.1775129586 0.8561294675 
18.51403809 32.96455765 -0.1728291214 0.8596474528 
15.84376717 35.21957779 -0.1765362471 0.856861949 
4.632137299 13.36034393 -0.06463912874 0.9450070858 
3.974900961 13.35714054 -0.06370361149 0.9457805157 
3.299251556 16.25547218 -0.07582168281 0.9358048439 
-3.220746994 48.18128204 -0.2207363844 0.824352324 
-6.503149033 58.21612549 -0.2677633464 0.7911123037 
-18.07150269 89.03767395 -0.4153042436 0.6952969432 
-22.22812843 89.00170898 -0.4193331897 0.6928473115 
-26.47459984 88.96435547 -0.4242895544 0.6898479462 
-19.72664261 56.89696121 -0.2752659619 0.7859351039 
-39.97233963 88.85557556 -0.4453729093 0.6772367954 
-44.7983284 88.79917145 -0.45463866 0.6717681885 
-49.8534317 88.76487732 -0.4653613269 0.6654908657 
-55.16249847 88.72657013 -0.4775626957 0.6584216356 
-66.43759155 96.9594574 -0.5372655988 0.624905169 
-37.32031631 49.58178711 -0.2836662233 0.780177772 
-55.75577164 61.77542877 -0.3803858757 0.7168650627 
-33.82948685 34.28417587 -0.2201649398 0.8247616291 
-55.23744583 51.20934296 -0.3443060219 0.7398589849 
-42.31893158 35.86787415 -0.2535768151 0.8009958863 
-22.5341053 17.43746376 -0.1302445978 0.8922818899 
-55.12919617 35.30342102 -0.2992361486 0.7696191669 
-55.45412827 32.12619781 -0.2929534912 0.7738679051 
-55.32123947 28.84185791 -0.2851557732 0.7791469693 
-55.05195618 25.65455246 -0.2776290774 0.7843131423 
-42.75108719 17.65237808 -0.2114221156 0.8310955167 
-54.97108459 14.51114941 -0.2598835826 0.7965869904 
-55.97883987 12.14187241 -0.2618272305 0.7952296138 
-54.86478424 9.366735458 -0.2544200122 0.8004055619 
-74.18135834 9.290817261 -0.3417300284 0.741524756 
-13.36036015 1.07242918 -0.0612670891 0.9477980137 
-13.34989357 0.4754492044 -0.06106155366 0.947968483 
-13.33944893 -0.1187084913 -0.06097945943 0.9480382204 
-13.38736153 -1.314794898 -0.06148849428 0.9476143718 
-101.4958954 -14.55113029 -0.4686875939 0.6635580063 
-102.7460938 -19.42941093 -0.4779787958 0.6581828594 
-50.65742493 -14.34167671 -0.2406620681 0.8101013303 
-18.24658585 -17.53006554 -0.1156602427 0.9037405252 
-15.24608898 -17.50889778 -0.1061259434 0.9113147855 
-15.79727459 -41.9135437 -0.204750061 0.8359647989 
-19.84210396 -85.92624664 -0.4031097293 0.7027503848 
-15.82481861 -85.7734375 -0.398703903 0.7054722905 
-11.91093254 -85.79673004 -0.3959486187 0.7071716189 
9.038090706 -106.6439819 -0.4892342985 0.6517399549 
11.26103497 -50.82486343 -0.2379620373 0.8120186329 
11.08461857 -26.50997734 -0.1313497871 0.8914217949 
11.06253433 -23.46565056 -0.118586421 0.9014313817 
11.2130022 -21.27601242 -0.1099346876 0.9082816243 
11.28483391 -19.28079224 -0.1021226496 0.9145137072 
9.027292252 -12.68428898 -0.07116424292 0.9396241903 
13.63604927 -15.9442358 -0.09590530396 0.9195039868 
16.20295906 -17.32218552 -0.1084249839 0.9094845653 
16.19217682 -15.83582687 -0.1035304219 0.9133871794 
17.18557549 -15.37269783 -0.1053980961 0.9118933082 
19.60238266 -16.02347374 -0.1157339439 0.9036859274 
28.18910599 -15.66742897 -0.1474214196 0.8789710402 
32.22280121 -16.07665825 -0.1646165401 0.8658494949 
39.16933441 -17.41139412 -0.1959503144 0.8424330354 
39.15444183 -15.35735035 -0.1922553927 0.8451545238 
52.23307419 -15.29111576 -0.248790428 0.804363966 
76.98564911 -11.73725319 -0.3559864759 0.7323445082 
86.13486481 10.01017761 -0.396384418 0.7069029212 
51.71500778 10.73604679 -0.241444245 0.8095531464 
32.71945572 11.50747299 -0.1585476696 0.8704562783 
32.90452194 14.9787569 -0.1652655005 0.865355134 
32.73180771 16.69604301 -0.1679681391 0.8633130193 
32.59066391 18.49532127 -0.1713008136 0.8607994914 
32.7220993 20.54615402 -0.1766215414 0.856798172 
33.01483917 22.83857536 -0.1835108846 0.8516499996 
32.66980743 27.19377327 -0.1943022162 0.8436408043 
32.63341522 29.71807861 -0.2017628402 0.8381558657 
32.7835083 35.67940903 -0.2214875817 0.8238081932 
42.96186066 51.14854431 -0.3053401113 0.7655256987 
20.91458511 32.98198318 -0.1785259992 0.8553723097 
4.765972614 13.36099815 -0.06484466046 0.9448369145 
4.104841232 13.35777569 -0.06387771666 0.9456359744 
3.559880257 13.7327776 -0.06485061347 0.9448328018 
-13.43073654 90.80354309 -0.4195882976 0.6926921606 
-21.1469593 54.62893295 -0.267778933 0.7911094427 
-39.02891541 88.86374664 -0.4436531067 0.6782554984 
-43.81555939 88.80767059 -0.4526693523 0.6729276776 
-48.82437515 88.77379608 -0.463118732 0.6668021679 
-54.07912064 88.73595428 -0.4750170708 0.6598979831 
-72.04436493 88.94037628 -0.5232048035 0.6326490641 
-55.76325226 62.90018463 -0.3842352331 0.7144509554 
-35.16420364 33.18665314 -0.2210227847 0.8241453767 
-24.46860123 21.11569786 -0.1477738917 0.878726542 
-55.12703323 35.99779129 -0.3009590209 0.7684648037 
-55.07872391 29.3417263 -0.2852703929 0.779089272 
-55.05632019 26.25543594 -0.2788227797 0.7834972739 
-55.03486633 23.29989052 -0.2731866539 0.7873691916 
-43.0941658 16.02365875 -0.2101611346 0.8320114613 
-54.99427032 17.70657349 -0.2640891969 0.7936597466 
-56.02376175 15.32373714 -0.2654896379 0.7926852107 
-54.9560051 12.43308353 -0.2575578392 0.7982113361 
-64.30757141 8.636091232 -0.2966009378 0.7714046836 
-52.48168182 -14.35490894 -0.2487052828 0.8044148684 
-41.22823715 -15.32984066 -0.2010646015 0.83866328 
-25.99285507 -13.84699917 -0.1346241683 0.8888687491 
-23.3867054 -13.82807827 -0.1241915897 0.8970200419 
-18.2693119 -14.39906979 -0.1063314825 0.9111503959 
-18.25945473 -15.75735569 -0.1102496311 0.9080325961 
-18.24881744 -17.2225647 -0.1146983281 0.9045015574 
-16.9840641 -17.52151108 -0.111542508 0.9070031643 
-15.52404785 -17.51091957 -0.1069717407 0.9106407166 
-14.17645931 -17.50113487 -0.1029530317 0.9138481617 
-12.98840809 -26.32557869 -0.134186253 0.8892093897 
-18.22488785 -41.49571228 -0.2071722299 0.8341950774 
-16.22599983 -41.91666031 -0.2054626346 0.8354436159 
-12.21261692 -42.41639709 -0.2017748952 0.8381484747 
-12.18880367 -50.72041702 -0.2384521365 0.811671257 
-12.68260193 -85.74560547 -0.3962208331 0.707005024 
10.33552265 -85.60966492 -0.3941740394 0.7082707286 
14.21929169 -85.58148956 -0.3965707421 0.706789434 
13.41854 -43.66595459 -0.2088159174 0.8329957128 
11.08962345 -27.19971848 -0.1342671216 0.889144659 
11.06659603 -24.02646255 -0.1209213212 0.8995941877 
12.22205067 -19.27399635 -0.1043261662 0.9127521515 
14.76396465 -19.2555542 -0.1109159812 0.9075035453 
16.16500473 -19.24539185 -0.1148886085 0.9043534398 
16.20524406 -17.63672066 -0.1094847098 0.9086401463 
19.25324631 -16.02600861 -0.1145094261 0.9046542048 
21.07790565 -16.0127697 -0.1210018918 0.8995298147 
31.86505318 -16.25392342 -0.1635166854 0.8666796088 
39.17238617 -17.83200836 -0.1967417896 0.8418423533 
39.15737152 -15.7620039 -0.1929533333 0.844640255 
43.1738205 -15.18417168 -0.2092059255 0.8327128887 
50.59919739 -15.30297565 -0.2416479439 0.8094074726 
77.22546387 -19.65239906 -0.3642658889 0.7270568609 
102.2065582 -21.21816635 -0.4771630764 0.658660233 
98.42362976 15.00570488 -0.4551197588 0.6714954972 
46.12973404 11.30301952 -0.2171070874 0.8269762397 
36.8083992 10.77558327 -0.1753224134 0.8577740192 
32.81346512 11.21333122 -0.1585136354 0.8704825044 
32.79956818 20.19007492 -0.1760618538 0.8572171926 
32.63629913 22.14990997 -0.1803041101 0.8540432453 
50.49127197 37.65406036 -0.2879264653 0.7772871852 
32.18024445 34.40328598 -0.2153440863 0.8282555342 
32.53853989 38.04629517 -0.2288464308 0.8185235858 
23.48623657 33.00065231 -0.1851600558 0.8504230976 
19.29712296 32.97023773 -0.1746321023 0.8582921028 
17.42542648 33.06370163 -0.1708468646 0.861138761 
15.9196558 38.07370377 -0.1886442453 0.8478314281 
4.900672436 13.36165237 -0.06505645812 0.9446614385 
3.596612453 13.38302708 -0.06334670633 0.9460762143 
3.360903263 15.16888714 -0.07102203369 0.9397441149 
11.73237801 90.41068268 -0.4167561233 0.6944196224 
-5.60460186 59.80256653 -0.2745597661 0.7864225507 
-29.07424736 88.94185638 -0.427736342 0.6877724528 
-20.55348778 54.53242874 -0.2663874626 0.7920654416 
-38.09268951 88.87185669 -0.4419921637 0.6792470813 
-42.84117126 88.81612396 -0.4507391155 0.6740581989 
-47.80509186 88.78262329 -0.4609176517 0.6680822968 
-70.75005341 88.9497757 -0.5195316672 0.6346841455 
-33.85697556 35.55622101 -0.2244273275 0.8216908574 
-34.52111435 33.16562653 -0.2188215554 0.8257300258 
-55.21788406 48.51523209 -0.3359301686 0.7452642322 
-55.15881348 40.37582397 -0.3124659657 0.76076442 
-55.10708237 33.24894714 -0.2941932678 0.7730241418 
-55.06072235 26.86154938 -0.280040741 0.7826600075 
-42.06876755 16.06995583 -0.2058489919 0.8351563811 
-64.88996887 21.5318718 -0.3125210404 0.7607281804 
-54.97873306 15.56506538 -0.2611849904 0.7956779599 
-64.80111694 9.290309906 -0.2992387414 0.769620657 
-13.35407543 0.7137817144 -0.06112976 0.9479124546 
-13.33317757 -0.4748754799 -0.06098434329 0.9480319619 
-13.32268906 -1.069421411 -0.06109435856 0.9479412436 
-102.815094 -17.5532589 -0.4767667949 0.6588790417 
-44.85673904 -14.00323486 -0.2147996426 0.8286406398 
-34.32419205 -14.1728096 -0.169746846 0.8619636893 
-29.77306557 -13.87443066 -0.1501463354 0.8768757582 
-26.56777763 -13.85117435 -0.1369557232 0.8870552778 
-23.87525558 -13.83162785 -0.1261238009 0.8955019712 
-17.29128838 -17.52374268 -0.1125357002 0.9062183499 
-15.80636215 -17.51296043 -0.1078381315 0.9099498391 
-13.16757298 -17.49380493 -0.1000857502 0.9161424637 
-12.38927746 -18.08107185 -0.1001905799 0.9160587192 
-12.34291935 -24.46612549 -0.1252593994 0.8961797953 
-18.6685791 -41.49892426 -0.2080085725 0.8335841298 
-14.52856445 -41.90433502 -0.2027377337 0.8374382854 
-17.4148674 -85.80233002 -0.4002079666 0.7045394778 
-13.43344212 -85.55348206 -0.3958671391 0.7072221041 
10.91008759 -43.6841507 -0.2058238238 0.8351819515 
11.07082939 -24.60967064 -0.123356171 0.8976798654 
10.83061028 -19.28408813 -0.101102598 0.9153301716 
16.1963768 -16.41399193 -0.1054086313 0.9118871093 
16.58666039 -15.37704754 -0.1033904999 0.9134992957 
18.9113903 -16.02848434 -0.1133200079 0.9055961967 
22.69628334 -16.00102806 -0.1269430518 0.894867301 
24.96125031 -15.98459721 -0.1354939193 0.8881949186 
31.18589783 -16.25885391 -0.1607673615 0.8687669039 
32.74591064 -15.25980663 -0.1651509106 0.8654468656 
42.77789307 -15.4741621 -0.2079460025 0.8336309791 
49.05604935 -15.31417656 -0.2349214107 0.8141866922 
103.5404053 -27.33262444 -0.4895281792 0.6515809298 
102.2134781 -22.17041779 -0.4781081975 0.6581217051 
102.1791763 -17.44467926 -0.4738358855 0.6605814695 
117.1842194 -14.6764183 -0.5398632884 0.623501718 
67.60782623 3.613649845 -0.309489578 0.7627536654 
86.37741852 8.483268738 -0.3967469633 0.7066811919 
98.43013763 14.11156464 -0.4545396268 0.6718297005 
46.29478836 10.90767765 -0.2174215615 0.8267509937 
32.8407402 10.89725208 -0.1581713855 0.8707438111 
32.73461914 12.50438595 -0.1601847857 0.8692122102 
32.77273178 17.83502388 -0.1705564857 0.8613561988 
32.5490036 19.63847542 -0.1737756282 0.8589368463 
51.26961899 37.52928543 -0.2904423475 0.775573194 
32.95095062 26.4493618 -0.1931494027 0.8444965482 
10.27134418 9.024623871 -0.06249954179 0.9467771053 
32.56629562 31.2876091 -0.20643875 0.8347322941 
21.75115395 32.98805618 -0.180620417 0.8538019061 
16.66883469 34.55698013 -0.1753834486 0.8577264547 
15.46016121 36.06925583 -0.1793885827 0.8547267914 
5.036302567 13.36231518 -0.06527496129 0.9444804788 
3.717102051 13.35588551 -0.06337264925 0.9460549951 
-13.48984814 103.9536896 -0.4791740179 0.6575031877 
-19.72453499 89.02339935 -0.4168133438 0.6943818331 
-23.91479874 88.98709869 -0.4212031364 0.691714406 
-28.20285988 88.94940186 -0.4265398979 0.6884878278 
-36.84440231 51.77004242 -0.2904559374 0.7755579352 
-34.13412476 39.91184616 -0.2400617898 0.8105255365 
-11.40940857 9.326334 -0.06735915691 0.9427582622 
-55.11199188 33.92469406 -0.2958218455 0.7719245553 
-55.08798599 30.61777115 -0.2880848646 0.7771653533 
-55.06516647 27.47319031 -0.2812986672 0.7818007469 
-55.04335022 24.4677906 -0.2753486633 0.7858818769 
-42.06886292 16.5005703 -0.2065634131 0.8346369267 
-54.98258972 16.09615898 -0.2618737817 0.7951986194 
-54.96350861 13.46738052 -0.2586729228 0.7974310517 
-54.8757782 10.88364983 -0.2557249367 0.7994902134 
-56.32427216 8.587116241 -0.2604379356 0.7962016463 
-13.35616684 0.8331249952 -0.06117065251 0.9478784204 
-105.8321686 -17.10026169 -0.4900413454 0.6512748003 
-34.32677078 -13.81752682 -0.1691436768 0.8624180555 
-24.37908936 -13.83528042 -0.1281323284 0.89393121 
-18.26348114 -15.20219898 -0.1086189225 0.9093261361 
-18.25317383 -16.62251663 -0.1128500327 0.9059672356 
-12.39873791 -12.34369373 -0.07997176796 0.9324095845 
-16.09344673 -17.51505089 -0.1087293997 0.9092409015 
-14.70315361 -17.5049572 -0.1044978276 0.9126130939 
-12.39172077 -17.74382591 -0.09893096983 0.917070508 
-13.02395439 -22.71341896 -0.1196845993 0.9005666971 
-17.09255409 -41.92294693 -0.2069480866 0.8343553543 
-12.87339783 -41.89231491 -0.2003294379 0.8392013907 
-12.56924248 -48.48818207 -0.2289712429 0.8184316754 
16.57491684 -85.56439209 -0.3984033167 0.7056586742 
12.57415009 -43.67208099 -0.2077404708 0.833779037 
14.70211887 -43.65665054 -0.2105776966 0.8317153454 
11.07523441 -25.21674919 -0.1258973628 0.8956837058 
10.49966812 -21.28118324 -0.1084724367 0.9094433188 
11.74847126 -19.2774334 -0.1031973213 0.9136549234 
14.22990227 -19.25942993 -0.1094612107 0.9086589813 
16.20994568 -18.28461647 -0.1116964668 0.9068822265 
16.29557991 -15.37915707 -0.1024240106 0.9142711163 
22.27687454 -16.0040741 -0.1253886372 0.8960849643 
55.19506836 -15.09695053 -0.2615785301 0.7954141498 
102.1859741 -18.38295555 -0.474609971 0.6601358056 
102.826973 9.175460815 -0.4719087183 0.6616976857 
98.40402222 17.7025795 -0.4570548832 0.670361042 
33.10280609 10.65822697 -0.158971861 0.8701350689 
32.65973663 15.57495594 -0.1653977931 0.8652514815 
32.88378525 17.51805305 -0.1703192145 0.8615370989 
32.72880173 19.35188866 -0.1738043129 0.8589113951 
32.76060867 21.39268303 -0.1788574159 0.8551240563 
52.33328629 37.59705353 -0.2945657372 0.7727833986 
47.72830582 37.61733627 -0.2777957022 0.7842051387 
10.2449522 8.841091156 -0.06185699254 0.9473090768 
32.47673798 30.6503334 -0.204133302 0.8364179134 
32.74611664 36.93718338 -0.2256458998 0.8208192587 
40.43501282 49.91788101 -0.293649435 0.7733969092 
24.38749504 33.00719452 -0.1875976473 0.8486071229 
20.09698868 32.97604752 -0.1765267849 0.8568679094 
18.12841225 32.96175766 -0.1719575524 0.8603003025 
15.60534382 35.53157806 -0.1774006635 0.8562169075 
4.499104977 13.35969734 -0.06443893164 0.9451720715 
3.514705658 14.62549305 -0.06875945628 0.941606164 
3.283797503 16.95185471 -0.07893066108 0.9332625866 
-7.038759708 58.30335617 -0.2684449852 0.7906425595 
-14.79809093 89.06601715 -0.4127174318 0.6968732476 
-23.06981468 88.99441528 -0.4202609062 0.6922917962 
-45.79489136 88.80002594 -0.4567112625 0.670550406 
-50.89289856 88.75588989 -0.4676769972 0.6641473174 
-56.25739288 88.71708679 -0.4801892042 0.6569110751 
-74.68244934 88.91387177 -0.5307816863 0.6284664273 
-33.90361404 36.89845276 -0.2290556282 0.8183708787 
-33.85942459 33.70914841 -0.2183987349 0.8260373473 
-56.25476074 38.91534805 -0.3126817346 0.7606242299 
-55.0926857 31.26514816 -0.2895574868 0.7761677504 
-55.0696373 28.09008408 -0.2825884819 0.7809198499 
-42.08547211 16.94064903 -0.2073742598 0.834043026 
-54.96728897 13.98810291 -0.2592637539 0.7970170379 
-54.86113739 8.864420891 -0.2540217638 0.800680697 
-73.23621368 8.511164665 -0.3369903564 0.7445914745 
-13.33736134 -0.2374096662 -0.06097442657 0.9480401278 
-13.32689285 -0.8312914968 -0.06103667989 0.947989583 
-102.4743729 -20.32444954 -0.4775425494 0.6584370732 
-56.70359802 -13.89400101 -0.2668620348 0.7917366624 
-30.42961693 -13.52652073 -0.152218163 0.8752867579 
-24.89948654 -13.83905983 -0.130217135 0.892303586 
-22.45326042 -13.82130623 -0.1205215454 0.8999050856 
-20.34213066 -13.80598354 -0.1123788431 0.9063408375 
-18.27490234 -13.62856674 -0.1042080671 0.9128446579 
-18.25530243 -16.32956696 -0.111958921 0.9066730738 
-12.48202133 -12.20731163 -0.07980499417 0.9325457811 
-14.97259235 -17.50691032 -0.1053024232 0.9119718671 
-13.66482925 -17.49741936 -0.1014830023 0.9150238037 
-12.44639397 -17.48857689 -0.09811995924 0.917720437 
-13.02726555 -22.25791168 -0.1178889424 0.9019816518 
-12.6951828 -24.08845901 -0.124464564 0.8968045115 
-12.40874958 -26.32137299 -0.1330169588 0.8901191354 
-15.37155724 -41.91044998 -0.2040511966 0.8364707828 
-19.00210381 -85.76300812 -0.4015464783 0.7037196159 
9.003500938 -96.0660553 -0.4410552979 0.6798030138 
11.88356876 -85.59844208 -0.395036906 0.7077380419 
10.47461414 -27.79122734 -0.135761261 0.8879854679 
11.07982922 -25.84973335 -0.1285609454 0.893599093 
10.38010216 -21.51949883 -0.1092105061 0.9088550806 
11.51541996 -19.27911758 -0.1026541144 0.9140897989 
12.70626926 -19.27047539 -0.1055143699 0.9118034244 
13.96799278 -19.26132965 -0.1087599173 0.9092158675 
16.21237755 -18.61861038 -0.112853542 0.9059666991 
16.20072174 -17.01382446 -0.1073947102 0.9103063941 
16.19013596 -15.55442142 -0.102633208 0.9141083956 
19.95917892 -16.02088547 -0.1169917285 0.9026901722 
21.86775398 -16.00703812 -0.123879239 0.897266686 
24.01960945 -15.99142742 -0.1319090277 0.890987277 
39.16631699 -16.9942646 -0.1951640248 0.843007803 
42.35110092 -16.17779922 -0.2072396874 0.8341473937 
46.214077 -15.33481693 -0.2225773633 0.8230243325 
53.96661377 -15.27852249 -0.2563896179 0.7990329266 
102.8037491 -14.7386055 -0.4747380018 0.6600604057 
118.5948639 9.519748688 -0.543849349 0.6213191748 
99.18534851 12.42259979 -0.4569393694 0.6704237461 
98.41056061 16.8012619 -0.4563626051 0.6707612276 
34.76136017 10.85171127 -0.1664636135 0.8644474149 
32.61450195 11.79772568 -0.1585423201 0.8704609275 
32.72673035 15.25086117 -0.1650451571 0.8655201197 
32.54520416 16.96751976 -0.1677754223 0.8634560704 
21.36713982 13.68301105 -0.1159825101 0.9034881592 
48.68222046 37.67156982 -0.2813880742 0.7817459702 
32.67786407 30.29476929 -0.203692615 0.8367391825 
32.49142075 32.92821121 -0.2114581317 0.8310704231 
37.9189949 50.3773613 -0.2882298231 0.7770767212 
22.60788918 32.99427795 -0.1828344613 0.8521534801 
18.51403809 32.96455765 -0.1728291214 0.8596474528 
17.12389565 33.94297791 -0.1737884432 0.8589257598 
4.632137299 13.36034393 -0.06463912874 0.9450070858 
3.974900961 13.35714054 -0.06370361149 0.9457805157 
3.299255371 16.25531387 -0.07582092285 0.9358054399 
16.29003334 103.746109 -0.480042547 0.6569986343 
-18.07150269 89.03767395 -0.4153042436 0.6952969432 
-22.22812843 89.00170898 -0.4193331897 0.6928473115 
-26.47459984 88.96435547 -0.4242895544 0.6898479462 
-19.72664261 56.89696121 -0.2752659619 0.7859351039 
-39.97233963 88.85557556 -0.4453729093 0.6772367954 
-66.43729401 96.95947266 -0.5372653008 0.6249055266 
-37.32015228 49.58178711 -0.2836657763 0.7801780701 
-55.23743439 51.20917892 -0.3443055749 0.7398593426 
-22.5341053 17.43746376 -0.1302445978 0.8922818899 
-55.20935059 38.92293549 -0.3087988198 0.7632232308 
-42.75108719 17.65237808 -0.2114221156 0.8310955167 
-54.97108459 14.51127148 -0.2598835826 0.7965868711 
-13.36036015 1.072399855 -0.0612670891 0.9477980137 
-13.34989357 0.475417465 -0.06106140092 0.9479685426 
-13.38736153 -1.314794898 -0.06148849428 0.9476143718 
-101.4958954 -14.55113029 -0.4686875939 0.6635580063 
-102.7881775 -24.21821976 -0.4827177227 0.6554617882 
-50.65742493 -14.34167671 -0.2406620681 0.8101013303 
-41.24018478 -13.68437195 -0.1986155659 0.8404591084 
-31.18693733 -13.53201389 -0.1553985626 0.8728547096 
-28.41963577 -13.86461639 -0.1445452869 0.8811861873 
-25.43714523 -13.84296608 -0.1323773116 0.8906169534 
-18.35919952 -13.43891811 -0.1040040553 0.9130086303 
-18.24658585 -17.5301342 -0.1156600937 0.9037403464 
-15.24608898 -17.50889778 -0.1061259434 0.9113147855 
-13.91880322 -17.49926567 -0.1022071838 0.9144432545 
-12.68366146 -17.49029922 -0.09876266122 0.9172072411 
-13.03047848 -21.81561279 -0.1161556989 0.9033504725 
-12.97154713 -24.09046555 -0.1250674427 0.8963321447 
-12.69734383 -26.32346344 -0.1335957348 0.8896702528 
-12.8535738 -46.18408203 -0.2191336006 0.8255053759 
-19.84189987 -85.92624664 -0.4031105042 0.702750504 
-15.8246336 -85.77340698 -0.3987043798 0.7054724693 
-11.91073704 -85.79673004 -0.3959487975 0.7071716785 
-10.56047344 -112.6831894 -0.5173512101 0.6359008551 
9.038090706 -106.6439819 -0.4892342985 0.6517399549 
15.0021143 -85.57579803 -0.3971446157 0.7064329386 
11.26103497 -50.82486343 -0.2379620373 0.8120186329 
11.73825169 -43.67814255 -0.20674178 0.8345074058 
13.84401798 -43.6628685 -0.2093777359 0.832583189 
16.00854492 -43.64716721 -0.212513268 0.8303041458 
11.2129488 -21.27601242 -0.109935455 0.9082816839 
15.03645992 -19.25357628 -0.1116735786 0.9069040418 
13.63611317 -15.9442358 -0.09590560943 0.9195038676 
16.20295906 -17.32218552 -0.1084249839 0.9094845653 
16.19217682 -15.83582687 -0.1035304219 0.9133871794 
19.60238266 -16.02347374 -0.1157339439 0.9036859274 
21.46814919 -16.00993919 -0.1224185154 0.898414731 
23.56705475 -15.99470901 -0.1301988214 0.8923203349 
25.95587921 -15.9773798 -0.1393298358 0.8852207065 
32.22280121 -16.07665825 -0.1646165401 0.8658494949 
44.90167236 -15.34433842 -0.2169093341 0.8271191716 
76.98561859 -11.73711395 -0.3559861779 0.7323446274 
86.13486481 10.01017761 -0.396384418 0.7069029212 
41.22868729 10.49191666 -0.194468528 0.8435190916 
32.71944809 11.50738239 -0.1585475057 0.8704563975 
32.90457535 14.97870064 -0.1652653515 0.8653550744 
32.72200012 20.54618835 -0.1766213924 0.8567984104 
33.01488113 22.83872032 -0.1835118085 0.8516495824 
49.72896957 37.77897263 -0.2854803503 0.7789490819 
32.66980743 27.19377327 -0.1943022162 0.8436408043 
32.52624512 32.38183594 -0.2098004073 0.8322768211 
32.7835083 35.67940903 -0.2214875817 0.8238081932 
42.96186066 51.14854431 -0.3053401113 0.7655256987 
38.61919785 50.36820602 -0.290135175 0.7757838368 
23.04435539 32.99744415 -0.1839799434 0.8512986302 
20.91458511 32.98198318 -0.1785259992 0.8553723097 
16.20519257 35.18257141 -0.1770632863 0.8564642072 
4.104809284 13.35777473 -0.0638775602 0.9456359744 
11.64855957 96.48709106 -0.4442510903 0.6779004335 
-2.789256573 48.16310501 -0.2205277979 0.8245007396 
-13.43073654 90.80354309 -0.4195882976 0.6926921606 
-17.24914551 89.04479218 -0.4146029651 0.6957226396 
-21.39006233 89.00896454 -0.4184525907 0.6933807135 
-25.61695671 88.9717865 -0.4232200384 0.6904934645 
-19.55951309 58.08021164 -0.2801441848 0.7825920582 
-21.14714813 54.62907028 -0.2677780092 0.7911087871 
-39.0291214 88.86374664 -0.4436537027 0.67825526 
-54.07940292 88.73594666 -0.475012511 0.6598976254 
-65.71730042 97.76288605 -0.5384576321 0.6242548823 
-72.04436493 88.94037628 -0.5232048035 0.6326490641 
-55.76325226 62.90018463 -0.3842352331 0.7144509554 
-33.8718071 34.94366837 -0.2224534601 0.8231101632 
-35.16420364 33.18665314 -0.2210227847 0.8241453767 
-24.46860123 21.11569786 -0.1477738917 0.878726542 
-11.62307835 9.160802841 -0.06764678657 0.942520678 
-55.05632019 26.2553196 -0.2788224816 0.7834974527 
-55.03487015 23.29973793 -0.2731871009 0.7873693705 
-43.0943222 16.02361488 -0.2101615816 0.832011044 
-56.02376938 15.32362556 -0.2654896379 0.7926853299 
-64.30757141 8.636091232 -0.2966009378 0.7714046836 
-13.36245823 1.192365646 -0.06132293493 0.9477516413 
-13.35198307 0.5945361257 -0.06109252945 0.9479424953 
-13.34154034 2.441406195e-06 -0.06098587066 0.9480322599 
-13.32057667 -1.188620567 -0.06113067642 0.9479110837 
-102.6380844 -23.2205143 -0.481010586 0.656434536 
-52.48218536 -14.35491943 -0.2487077266 0.804413259 
-29.08331871 -13.86942101 -0.1472825557 0.8790743351 
-25.99272346 -13.8469944 -0.1346237212 0.8888691664 
-18.70984268 -13.44146729 -0.1053065434 0.9119670987 
-18.2693119 -14.39906979 -0.1063314825 0.9111503959 
-16.9840641 -17.52151108 -0.111542508 0.9070031643 
-15.52404785 -17.51091957 -0.1069717407 0.9106407166 
-14.17645931 -17.50113487 -0.1029530317 0.9138481617 
-13.04793453 -19.41046524 -0.1069070399 0.9106885195 
-12.98833942 -26.3255825 -0.134186253 0.8892095089 
-16.22590256 -41.91664886 -0.2054626346 0.8354437947 
-12.21261692 -42.41639709 -0.2017748952 0.8381484747 
-12.18880367 -50.72041702 -0.2384521365 0.811671257 
-16.58882332 -85.63607025 -0.3987359405 0.705452621 
14.21912575 -85.58148956 -0.3965707421 0.7067894936 
11.07653809 -52.18750763 -0.2438655049 0.807831049 
11.323349 -43.68115234 -0.2062713504 0.834851265 
13.41862774 -43.66595459 -0.2088160664 0.8329956532 
15.57052708 -43.65035248 -0.2118492126 0.8307892084 
11.08961868 -27.19955254 -0.1342665106 0.8891451955 
11.06660175 -24.02632523 -0.1209210157 0.899594605 
11.05660629 -19.28244781 -0.1016049162 0.914927125 
12.22205067 -19.27399635 -0.1043261662 0.9127521515 
14.76396465 -19.2555542 -0.1109159812 0.9075035453 
16.16500473 -19.24539185 -0.1148886085 0.9043534398 
16.20524406 -17.63672066 -0.1094847098 0.9086401463 
16.88315964 -15.3748951 -0.1043833867 0.91270715 
21.07780647 -16.0127697 -0.1210015863 0.8995301127 
25.45173836 -15.98103237 -0.1373814344 0.8867312074 
28.1261673 -15.96162796 -0.1478302032 0.8786575198 
31.86519051 -16.25392342 -0.1635169983 0.8666791916 
43.1738205 -15.18417168 -0.2092059255 0.8327128887 
50.59919739 -15.30297565 -0.2416479439 0.8094074726 
102.1724014 -16.50895309 -0.4731146097 0.6610045433 
98.42362976 15.00590992 -0.4551199377 0.671495378 
46.12961197 11.30309772 -0.2171061635 0.8269765973 
36.8084259 10.77567577 -0.1753228754 0.8577738404 
32.81351089 11.2134285 -0.1585140973 0.8704822659 
32.94583511 14.6450367 -0.1648088098 0.8656987548 
32.88359451 16.4063282 -0.1679872125 0.8632956743 
32.64830017 18.14583397 -0.1707450897 0.8612158298 
32.79956818 20.19007492 -0.1760618538 0.8572171926 
32.63629913 22.14990997 -0.1803041101 0.8540432453 
50.49127197 37.65406036 -0.2879264653 0.7772871852 
32.71713257 26.74376678 -0.1931655854 0.8444843292 
32.44590378 29.0232296 -0.1989897043 0.8401858807 
32.1803627 34.4032402 -0.2153428644 0.8282553554 
39.32845306 50.35892487 -0.2920895219 0.7744607925 
23.48615837 33.00065231 -0.1851600558 0.8504232764 
21.33031654 32.9849968 -0.1795545965 0.8545968533 
19.29702568 32.97023773 -0.1746316552 0.8582922816 
17.42538071 33.06375504 -0.1708468646 0.8611387014 
15.9196558 38.07370377 -0.1886442453 0.8478314281 
4.900672436 13.36165237 -0.06505645812 0.9446614385 
4.235497952 13.35841179 -0.06406066567 0.9454863667 
3.596612453 13.38302708 -0.06334670633 0.9460762143 
3.360903263 15.16888714 -0.07102203369 0.9397441149 
-5.604560375 59.79966736 -0.274546802 0.7864316702 
-16.42988205 89.05187225 -0.4139359891 0.6961270571 
-24.7639637 88.97916412 -0.4221922159 0.6911159158 
-29.07424736 88.94185638 -0.427736342 0.6877724528 
-20.55348778 54.53242874 -0.2663874626 0.7920654416 
-38.09268951 88.87185669 -0.4419921637 0.6792470813 
-42.84117126 88.81612396 -0.4507391155 0.6740581989 
-36.87350082 50.84719467 -0.2871052623 0.7778337002 
-33.85697556 35.55622101 -0.2244273275 0.8216908574 
-34.52139664 33.16561508 -0.2188224792 0.8257293701 
-55.21788406 48.51523209 -0.3359301686 0.7452642322 
-11.45737267 9.196629524 -0.06715560704 0.942925632 
-55.15881348 40.37582397 -0.3124659657 0.76076442 
-55.08333206 29.97652435 -0.2866641283 0.7781392932 
-55.03909683 23.8814621 -0.2742459178 0.7866356969 
-64.88996887 21.5318718 -0.3125210404 0.7607281804 
-54.87210846 10.37640858 -0.2552655041 0.7998102903 
-64.80111694 9.290309906 -0.2992387414 0.769620657 
-13.54270458 1.330056071 -0.06220397726 0.9470229149 
-13.35407543 0.7137817144 -0.06112976 0.9479124546 
-13.32268906 -1.069421411 -0.06109435856 0.9479412436 
-102.815094 -17.5532589 -0.4767667949 0.6588790417 
-54.43237686 -14.36905956 -0.2573322952 0.7983641624 
-44.85673904 -14.00323486 -0.2147996426 0.8286406398 
-34.32419205 -14.1728096 -0.169746846 0.8619636893 
-29.77306557 -13.87443066 -0.1501463354 0.8768757582 
-21.57314873 -13.81491947 -0.1170993 0.9026045203 
-19.06943321 -13.44407463 -0.1066529825 0.9108934402 
-18.26148224 -15.47764874 -0.1094238237 0.9086875319 
-18.25101471 -16.92017365 -0.1137640327 0.9052434564 
-15.80636215 -17.51296043 -0.1078381315 0.9099498391 
-13.16757298 -17.49380493 -0.1000857502 0.9161424637 
-12.38927746 -18.08107185 -0.1001905799 0.9160587192 
-13.02054691 -23.18328285 -0.1215446442 0.8991018534 
-12.34291935 -24.46612549 -0.1252593994 0.8961797953 
-16.65765572 -41.9197731 -0.2061972022 0.8349074125 
-12.16687965 -48.71638489 -0.2295181155 0.8180326223 
-17.4148674 -85.80233002 -0.4002079666 0.7045394778 
-13.43344212 -85.55348206 -0.3958671391 0.7072221041 
13.43869591 -85.5871582 -0.3960300982 0.7071257234 
10.91008759 -43.6841507 -0.2058238238 0.8351819515 
12.99529266 -43.66902161 -0.2082685828 0.833394289 
15.1350193 -43.65351486 -0.2112004012 0.8312596083 
11.04176235 -27.78712082 -0.1366845667 0.8872721195 
11.07082939 -24.60967064 -0.123356171 0.8976798654 
10.83061028 -19.28408813 -0.101102598 0.9153301716 
11.98391533 -19.27572441 -0.1037541181 0.9132093191 
14.49511242 -19.25750732 -0.1101806611 0.9080885053 
16.20756721 -17.95734978 -0.1105761677 0.9077732563 
27.55901718 -15.96574402 -0.145589292 0.8803812861 
39.16032791 -16.16952896 -0.1936677545 0.844111383 
103.5404053 -27.33262444 -0.4895281792 0.6515809298 
102.2134781 -22.16997337 -0.4781077504 0.6581219435 
102.1791763 -17.44467926 -0.4738358855 0.6605814695 
117.1842194 -14.6764183 -0.5398632884 0.623501718 
67.60782623 3.613649845 -0.309489578 0.7627536654 
86.37757874 8.482932091 -0.3967474401 0.7066808343 
98.43013763 14.11156464 -0.4545396268 0.6718297005 
38.23476791 10.8248558 -0.1816497743 0.8530373573 
32.8407402 10.89725208 -0.1581713855 0.8707438111 
32.77287674 14.22014618 -0.1633056551 0.8668395281 
32.61646271 15.91221428 -0.1658969074 0.8648793101 
32.54883575 19.63856316 -0.1737748682 0.8589372039 
51.26961899 37.52928543 -0.2904423475 0.775573194 
32.95110703 26.44927216 -0.1931494027 0.8444963098 
32.56587219 31.28693199 -0.2064355463 0.8347348571 
32.46879959 34.09838867 -0.2152304053 0.8283340335 
32.54949951 37.38012314 -0.2265727222 0.8201530576 
39.70012283 49.91254807 -0.2915313542 0.7748342156 
23.93407249 33.00390625 -0.186366424 0.8495257497 
21.75115395 32.98805618 -0.180620417 0.8538019061 
19.69465828 32.97312927 -0.1755686849 0.8575891852 
16.18681145 116.5944595 -0.538079679 0.6244676709 
10.97880363 117.1468353 -0.5378442407 0.6245989203 
-2.184218645 54.51473618 -0.2493939102 0.8039355278 
-11.63345718 66.36006927 -0.3079705834 0.7637680769 
-23.91479874 88.98709869 -0.4212031364 0.691714406 
-23.45765877 56.10097504 -0.2779595852 0.7840884328 
-41.87475967 88.82449341 -0.4488833547 0.6751603484 
-42.78057098 54.77879715 -0.3177111745 0.7572805882 
-33.96256638 33.2154007 -0.2171478271 0.8269411922 
-55.22430038 49.39878845 -0.3386871219 0.7435046434 
-11.40937519 9.326223373 -0.06735824794 0.9427586794 
-23.33556557 17.40257454 -0.133064419 0.8900820613 
-55.13736343 37.42083359 -0.3046040237 0.766018033 
-55.08798218 30.61743736 -0.2880844176 0.7771658897 
-55.06516647 27.47319031 -0.2812986672 0.7818007469 
-55.04335022 24.46750641 -0.2753481865 0.7858822346 
-42.06886292 16.5005703 -0.2065634131 0.8346369267 
-54.96350861 13.46738052 -0.2586729228 0.7974310517 
-56.32427216 8.587116241 -0.2604379356 0.7962016463 
-13.33527184 -0.3561303616 -0.0609767139 0.9480380416 
-13.32479191 -0.9503588676 -0.06106246635 0.9479674697 
-105.8317719 -17.10061264 -0.4900396764 0.6512756348 
-41.2342453 -14.50222397 -0.1998002529 0.8395892978 
-34.32677078 -13.81752682 -0.1691436768 0.8624180555 
-27.16320229 -13.85549545 -0.1393840015 0.8851725459 
-24.37908936 -13.83528042 -0.1281323284 0.89393121 
-19.43819046 -13.44675541 -0.1080422923 0.9097869396 
-18.26348114 -15.20219898 -0.1086189225 0.9093261361 
-18.25317764 -16.62236977 -0.1128495783 0.9059675932 
-12.39873791 -12.34369373 -0.07997176796 0.9324095845 
-16.0933075 -17.51504517 -0.1087295488 0.9092412591 
-14.70315361 -17.5049572 -0.1044978276 0.9126130939 
-12.39172077 -17.74382591 -0.09893096983 0.917070508 
-13.03956509 -20.56339073 -0.1113032475 0.9071950316 
-12.42144966 -24.08647156 -0.1238801554 0.8972648978 
-19.11601067 -41.50216675 -0.2088682503 0.8329563737 
-17.09233856 -41.9229393 -0.2069473267 0.8343556523 
-14.94879341 -41.90738297 -0.2033891231 0.8369617462 
-12.87339783 -41.89231491 -0.2003294379 0.8392013907 
-10.81893063 -89.6153183 -0.4126106203 0.6969316602 
10.5422554 -43.86881638 -0.2062362581 0.8348752856 
14.70211887 -43.65665054 -0.2105776966 0.8317153454 
10.49966812 -21.28118324 -0.1084724367 0.9094433188 
10.60681629 -19.2857151 -0.100611113 0.915723145 
11.74847126 -19.2774334 -0.1031973213 0.9136549234 
15.5925684 -19.24954796 -0.11323791 0.9056605101 
16.20994568 -18.28461647 -0.1116964668 0.9068822265 
18.57659721 -16.03091431 -0.1121668965 0.9065126181 
32.21762466 -15.36398125 -0.1631608605 0.8669486046 
42.78104019 -15.90713596 -0.2086427212 0.8331241012 
47.59640884 -15.32477283 -0.2285720706 0.8187202811 
102.2204056 -23.12652588 -0.4790844619 0.6575596333 
98.17216492 13.18433762 -0.4528022707 0.6728597879 
98.40402222 17.7025795 -0.4570548832 0.670361042 
33.10280609 10.65822697 -0.158971861 0.8701350689 
23.55254745 8.757465363 -0.1148661748 0.9043733478 
32.76060867 21.39268303 -0.1788574159 0.8551240563 
47.72830582 37.61733627 -0.2777957022 0.7842051387 
10.24493408 8.841144562 -0.06185729802 0.9473089576 
32.47673798 30.6503334 -0.204133302 0.8364179134 
40.43465424 49.91788101 -0.2936476171 0.7733975649 
22.17682076 32.99114609 -0.1817131042 0.8529878855 
20.09698868 32.97604752 -0.1765267849 0.8568679094 
18.12841225 32.96175766 -0.1719575524 0.8603003025 
16.89745903 34.24850082 -0.1745695472 0.8583339453 
15.906106 41.09000397 -0.2014170736 0.8384110332 
4.499104977 13.35969734 -0.06443893164 0.9451720715 
3.514705658 14.62549305 -0.06875945628 0.941606164 
3.283804893 16.95150185 -0.07892852277 0.9332638979 
-14.79846668 89.06601715 -0.4127172828 0.6968730688 
-18.89633179 89.03052521 -0.4160404801 0.694850266 
-23.06981468 88.99441528 -0.4202609062 0.6922917962 
-22.87628174 56.10933304 -0.2769784629 0.7847603559 
-45.79439163 88.80003357 -0.4567071497 0.670551002 
-50.89289856 88.75588989 -0.4676769972 0.6641473174 
-56.25793839 88.71708679 -0.4801905751 0.6569103599 
-67.69210815 96.92905426 -0.5404227972 0.6231859922 
-33.90339279 36.89789581 -0.2290530354 0.8183727264 
-19.73779297 17.9743557 -0.1220289618 0.898720026 
-22.44236183 18.6806469 -0.1334739625 0.8897628784 
-22.91320229 17.40695763 -0.1315330416 0.891274929 
-56.25476074 38.91534805 -0.3126817346 0.7606242299 
-55.0926857 31.26548004 -0.2895579338 0.7761672735 
-56.05280304 25.51645279 -0.2814919949 0.7816469073 
-57.48638153 11.93420124 -0.2683775127 0.7906888127 
-54.86113739 8.864181519 -0.254021138 0.8006808162 
-13.35826302 0.9526367188 -0.06121566519 0.9478402138 
-13.34780407 0.3564672768 -0.06103515625 0.9479904771 
-13.32689285 -0.8312914968 -0.06103667989 0.947989583 
-56.70359802 -13.89375687 -0.2668624818 0.7917368412 
-48.94704056 -14.3292551 -0.2331327796 0.815456152 
-41.23722458 -14.09187698 -0.1991983056 0.8400313854 
-30.42996216 -13.5265255 -0.1522198468 0.8752856851 
-27.7798481 -13.85996819 -0.1419096291 0.8832181692 
-24.89923859 -13.83905983 -0.1302162111 0.8923043609 
-22.45326042 -13.82130623 -0.1205215454 0.8999050856 
-18.27490234 -13.62856674 -0.1042080671 0.9128446579 
-13.04243088 -20.16848755 -0.1097889692 0.9083970785 
-13.02726555 -22.25791168 -0.1178889424 0.9019816518 
-15.37155724 -41.91044998 -0.2040511966 0.8364707828 
-13.2833786 -41.89529037 -0.2009036243 0.8387818336 
-19.00184059 -85.76350403 -0.4015481472 0.7037184238 
-15.04275799 -85.80744934 -0.3982214332 0.7057686448 
11.88356876 -85.59844208 -0.395036906 0.7077380419 
10.55562019 -45.71069336 -0.2144468576 0.8288993835 
11.07982922 -25.84973335 -0.1285609454 0.893599093 
10.38010216 -21.51925468 -0.1092161536 0.9088558555 
11.51552677 -19.27911758 -0.1026542634 0.9140895605 
12.70626926 -19.27047539 -0.1055143699 0.9118034244 
16.20072174 -17.01382446 -0.1073947102 0.9103063941 
16.19013596 -15.55429935 -0.1026268005 0.9141086936 
18.24823761 -16.03330231 -0.1110395789 0.9074053168 
21.86756706 -16.00703812 -0.1238787845 0.8972672224 
24.01960945 -15.99142742 -0.1319090277 0.890987277 
26.47454071 -15.97361088 -0.1413453668 0.8836607933 
39.16631699 -16.9942646 -0.1951640248 0.843007803 
42.35163879 -16.17779541 -0.2072421163 0.8341456652 
46.214077 -15.33481693 -0.2225773633 0.8230243325 
102.1534958 -24.06871223 -0.4797547758 0.6571736336 
102.1928329 -19.32435799 -0.4754269421 0.6596671939 
102.8037491 -14.7386055 -0.4747380018 0.6600604057 
50.08219147 10.86274624 -0.2342614681 0.8146563172 
40.13378906 10.59452152 -0.1897460967 0.8470155597 
32.54501724 16.96760368 -0.1677746475 0.8634564877 
32.90517044 19.06291962 -0.1738334596 0.8588899374 
21.36708641 13.6831007 -0.1159826666 0.9034880996 
48.68201447 37.67168045 -0.2813880742 0.7817462683 
32.67803574 30.29518509 -0.2036958337 0.8367378116 
32.49098206 32.92747116 -0.2114521712 0.8310732245 
42.5560379 51.59053421 -0.3056742847 0.7652805448 
37.9189949 50.3773613 -0.2882298231 0.7770767212 
22.60811806 32.99427795 -0.1828352362 0.8521530032 
20.50338554 32.97900009 -0.1775129586 0.8561294675 
18.51420212 32.96455765 -0.1728294343 0.8596472144 
15.84365368 35.21973038 -0.1765368581 0.8568615913 
15.94656181 40.13027573 -0.1973947138 0.8413630724 
3.974900961 13.35714054 -0.06370361149 0.9457805157 
16.29001999 103.7488937 -0.480055064 0.6569914222 
-3.220664024 48.18127441 -0.2207351625 0.8243523836 
-22.22772408 89.00171661 -0.4193324149 0.6928475499 
-49.85393906 88.76487732 -0.4653625488 0.6654902101 
-55.16223145 88.72657776 -0.4775620997 0.6584219933 
-37.32015228 49.58178711 -0.2836657763 0.7801780701 
-73.35727692 88.93084717 -0.52695328 0.6305683851 
-55.75578308 61.77569199 -0.3803865016 0.7168644667 
-33.82948303 34.2840538 -0.2201690674 0.8247619271 
-42.31892395 35.86774063 -0.2535763383 0.8009961843 
-22.5340519 17.4375782 -0.1302453578 0.8922817707 
-55.05195618 25.65455246 -0.2776290774 0.7843131423 
-54.97108459 14.51127148 -0.2598835826 0.7965868711 
-55.97943878 12.14186764 -0.2618301213 0.795227766 
-54.86478043 9.366862297 -0.2544200122 0.8004055023 
-74.18135834 9.290661812 -0.3417311013 0.7415248156 
-13.33944893 -0.1186840758 -0.06097945943 0.9480382204 
-102.7881775 -24.21821976 -0.4827177227 0.6554617882 
-41.24018478 -13.68437195 -0.1986155659 0.8404591084 
-41.22520447 -15.74790764 -0.2017237842 0.838178277 
-25.43714523 -13.84296608 -0.1323773116 0.8906169534 
-22.91288185 -13.82463551 -0.1223239079 0.8984871507 
-20.74136162 -13.80888367 -0.1139001474 0.9051345587 
-18.35919952 -13.43891811 -0.1040040553 0.9130086303 
-18.25738907 -16.04133034 -0.1110937446 0.9073611498 
-12.68354988 -17.49029922 -0.098759152 0.9172074795 
-13.04521942 -19.78453255 -0.1083250418 0.909560442 
-13.03047848 -21.81583214 -0.1161564589 0.9033497572 
-12.97154713 -24.09046555 -0.1250674427 0.8963321447 
-13.69613743 -41.89828873 -0.2014979571 0.8383479714 
-19.84229851 -85.92625427 -0.4031097293 0.702750206 
-15.8246336 -85.77340698 -0.3987043798 0.7054724693 
9.038090706 -106.6439819 -0.4892342985 0.6517399549 
15.0021143 -85.57579803 -0.3971446157 0.7064329386 
11.73825169 -43.67814255 -0.20674178 0.8345074058 
13.84421349 -43.6628685 -0.2093778998 0.8325830102 
11.28477955 -19.28079224 -0.1021224931 0.9145138264 
15.03645992 -19.25357628 -0.1116735786 0.9069040418 
13.6360054 -15.9442358 -0.09590530396 0.919504106 
21.46814919 -16.00993919 -0.1224185154 0.898414731 
23.56726456 -15.99470425 -0.1301997304 0.8923197389 
25.95587921 -15.9773798 -0.1393298358 0.8852207065 
32.22280121 -16.07665825 -0.1646165401 0.8658494949 
44.90231705 -15.34433842 -0.2169120759 0.8271171451 
52.2326355 -15.29112053 -0.2487884462 0.8043652773 
86.13486481 10.01017761 -0.396384418 0.7069029212 
98.41710663 15.90257072 -0.4557288885 0.6711392403 
41.22859955 10.49207783 -0.1944686919 0.8435192108 
32.71946716 11.50754833 -0.1585481167 0.8704561591 
32.78247833 13.19592762 -0.1615400612 0.8681799173 
32.90446472 14.97881794 -0.1652653515 0.8653552532 
32.72219467 20.54612541 -0.1766215414 0.8567979932 
33.01488113 22.83872032 -0.1835118085 0.8516495824 
32.633564 29.71794701 -0.2017629892 0.8381558061 
32.52624512 32.38183594 -0.2098004073 0.8322768211 
38.61888885 50.36821365 -0.2901344299 0.7757844329 
23.04435539 32.99744415 -0.1839799434 0.8512986302 
20.91439629 32.98198318 -0.1785252392 0.8553726673 
17.1876049 33.32852936 -0.1714193672 0.8607087135 
16.20519257 35.18257141 -0.1770632863 0.8564642072 
4.766004562 13.36099815 -0.06484481692 0.9448369145 
4.104809284 13.35777473 -0.0638775602 0.9456359744 
3.55988884 13.73269367 -0.06485015899 0.9448330998 
3.311662436 15.6029892 -0.07291488349 0.9381898642 
16.3296814 98.28153229 -0.4554105997 0.6713129878 
-25.61736679 88.9717865 -0.4232231081 0.6904931664 
-21.14714813 54.62907028 -0.2677780092 0.7911087871 
-39.02867126 88.86374664 -0.4436527789 0.6782557368 
-43.81578445 88.80767059 -0.4526698291 0.6729274392 
-48.82410431 88.77380371 -0.4631181359 0.6668025255 
-54.07940292 88.73594666 -0.475012511 0.6598976254 
-36.85625076 49.8830452 -0.283506155 0.780289948 
-35.16420364 33.18665314 -0.2210227847 0.8241453767 
-11.62307835 9.160802841 -0.06764678657 0.942520678 
-55.12703323 35.99795532 -0.3009594679 0.7684645653 
-55.05632019 26.2553196 -0.2788224816 0.7834974527 
-55.03487015 23.30003166 -0.2731887698 0.7873690128 
-43.0943222 16.02361488 -0.2101615816 0.832011044 
-54.99427032 17.70669556 -0.2640891969 0.7936596274 
-64.3055191 8.636110306 -0.2965917885 0.7714109421 
-13.35198307 0.5944799781 -0.06109252945 0.9479424953 
-13.32033539 2.441406195e-06 -0.1826751679 0.9481084943 
-13.30989075 -0.5926635861 -0.1827134639 0.9480980635 
-102.767128 -18.48758507 -1.431980371 0.6585553885 
-102.6609573 -23.22581673 -1.4434793 0.6563497782 
-52.48179245 -14.35490894 -0.7461785674 0.804399848 
-41.22815323 -15.32980156 -0.6032271981 0.8386512399 
-34.30405045 -14.5231514 -0.5108717084 0.8615511656 
-23.38675308 -13.82808304 -0.3725979626 0.8970117569 
-21.15144539 -13.81185722 -0.3464414775 0.9038823247 
-18.25940704 -15.75731182 -0.3307609558 0.9080255032 
-16.98406029 -17.52151108 -0.3346507251 0.9069957137 
-15.52403736 -17.51091576 -0.32093063 0.9106336236 
-12.98840809 -26.3255825 -0.4025817811 0.8892006874 
-18.22486305 -41.49571228 -0.6215408444 0.8341824412 
-14.11103439 -41.90129852 -0.6063489914 0.8378879428 
-12.21253872 -42.41590881 -0.6053199768 0.8381377459 
-12.18885708 -50.72040939 -0.7153907418 0.8116570711 
-10.75975037 -104.7633209 -1.444289207 0.6561949849 
10.33542442 -85.60967255 -1.182585597 0.7082503438 
