# .PCD v0.7 - Point Cloud Data file format
VERSION 0.7
FIELDS x y z intensities
SIZE 4 4 4 4
TYPE F F F F
COUNT 1 1 1 1
WIDTH 925
HEIGHT 1
VIEWPOINT 0 0 0 1 0 0 0
POINTS 925
DATA ascii
20.76865005 1.481181622 -2.004871845 0.9197340012 
20.55428123 3.321130276 -2.004820108 0.9197359681 
20.38583946 4.232101917 -2.004785061 0.919737339 
19.92811775 6.026960373 -2.004697323 0.9197407961 
17.50449944 7.968381405 -1.851914644 0.9256239533 
17.12903976 8.737283707 -1.851517797 0.9256392717 
14.74871445 12.27656841 -1.847742438 0.9257850647 
14.18261719 12.91557789 -1.847041845 0.9258121848 
12.96914864 14.11476326 -1.845702887 0.9258639216 
11.65546608 15.20136547 -1.844461322 0.9259119034 
7.665410995 13.36832237 -1.483826518 0.9399529696 
7.550071716 16.39179611 -1.737742901 0.9300453663 
7.269208908 17.829319 -1.853972554 0.9255443811 
2.837171555 13.36725521 -1.315792084 0.9465675354 
2.2204175 13.36398792 -1.304444909 0.9470158815 
1.683576584 13.94542408 -1.3525424 0.9451169372 
-0.9794457555 16.91235352 -1.631201625 0.9341893196 
-3.040850878 20.55884743 -2.001127243 0.919877708 
-6.631141186 19.69042969 -2.000600815 0.9198979735 
-7.5 19.37474442 -2.000474453 0.9199028015 
-8.353916168 19.02076912 -2.000350952 0.9199075103 
-9.191192627 18.62920189 -2.000230312 0.919912219 
-10.51839066 17.25911903 -1.946168065 0.9219900966 
-11.410676 15.44375229 -1.848933697 0.9257391095 
-12.09734344 14.93442822 -1.850613236 0.9256742001 
-12.74332237 14.37425995 -1.849683166 0.9257101417 
-14.54291725 12.55011082 -1.849655151 0.9257110953 
-15.08987141 11.89317989 -1.850032806 0.9256965518 
-13.14314079 9.442249298 -1.558279634 0.9370370507 
-16.95922279 9.03457737 -1.85024941 0.9256881475 
-17.33285904 8.265748978 -1.849030256 0.925735414 
-17.67379761 7.482477665 -1.848024607 0.9257742167 
-19.07189369 6.140588284 -1.929253459 0.9226410985 
-20.02225876 5.476530552 -1.998740673 0.9199693203 
-13.57421875 0.6044262648 -1.308344126 0.9468618631 
-13.56400204 -4.882812391e-06 -1.306065321 0.9469519258 
-13.5538063 -0.6035229564 -1.306376815 0.9469396472 
-20.43017006 -3.675373554 -1.99877882 0.9199678302 
-12.09026814 -2.735295296 -1.193582535 0.951407671 
-10.06755352 -2.753698587 -1.005003452 0.9589248896 
-15.57995319 -11.19289494 -1.847183943 0.9258066416 
-15.06731129 -11.87539768 -1.847267866 0.9258034229 
-14.14750481 -12.20888424 -1.799364686 0.9276560545 
-12.08869648 -14.92374706 -1.849287987 0.9257253408 
-10.01217461 -18.20441628 -2.000506163 0.9199016094 
-8.355636597 -19.02470398 -2.000762224 0.9198916554 
-7.50156498 -19.37879562 -2.000893593 0.9198867679 
-6.632546425 -19.69463539 -2.00102663 0.9198815823 
-5.750236511 -19.97152519 -2.001161337 0.9198764563 
-2.123923302 -20.67976189 -2.001710176 0.9198554158 
-1.201999426 -20.75520706 -2.001848459 0.919850111 
-0.2775561512 -20.78960228 -2.00198698 0.9198446274 
1.571560025 -20.73481178 -2.002262354 0.9198341966 
2.492531776 -20.64578819 -2.002398729 0.9198289514 
4.318234921 -20.34531021 -2.002668142 0.9198185205 
8.064435959 -17.50853157 -1.856115818 0.9254615903 
8.810495377 -17.08428001 -1.850899339 0.9256631136 
7.29123497 -12.71573734 -1.411388159 0.9427986741 
10.29525089 -16.23545074 -1.851109862 0.9256549478 
12.36647224 -14.72301483 -1.851398468 0.9256438613 
13.00979233 -14.15900135 -1.851486802 0.9256404638 
14.21802235 -12.94779491 -1.851650476 0.9256340861 
14.78053951 -12.30302238 -1.851727247 0.9256311059 
15.81670094 -10.94146919 -1.851867318 0.9256258011 
16.28831482 -10.22741413 -1.851929903 0.9256232977 
17.0624733 -9.683024406 -1.889054537 0.9241902828 
18.54581261 -9.459965706 -2.004658699 0.919742167 
19.31413841 -7.774518967 -2.00475502 0.9197385311 
19.64127922 -6.907804966 -2.004794359 0.9197369218 
20.38677406 -4.232306957 -2.004876852 0.9197337627 
20.55498314 -3.321267128 -2.004892111 0.9197333455 
20.76897621 -1.481220722 -2.004904032 0.9197327495 
20.81426048 -0.5558715463 -2.004900694 0.9197329283 
20.5830822 3.138088226 -2.004826307 0.9197357297 
20.2219677 4.95490694 -2.004752874 0.9197385311 
19.98108673 5.849416256 -2.004707098 0.9197403193 
17.90552902 7.023046494 -1.85198462 0.9256212115 
17.20762253 8.585249901 -1.851676106 0.9256330132 
16.36261559 10.07215595 -1.850114346 0.925693512 
15.89185429 10.78563213 -1.849354863 0.9257228374 
14.8585434 12.14572811 -1.84788537 0.9257795811 
14.29808521 12.78979492 -1.847179651 0.9258068204 
13.70989323 13.40819931 -1.846496224 0.9258332849 
13.09516335 13.99978256 -1.845832944 0.9258589149 
12.45512581 14.5633955 -1.845192552 0.9258835912 
11.79103947 15.09802532 -1.844580054 0.9259072542 
7.674560547 11.86779022 -1.360854864 0.9447889328 
9.692808151 16.56065941 -1.847666383 0.9257882237 
8.208213806 17.41119957 -1.853470206 0.9255638123 
7.429323673 17.76806641 -1.854404211 0.9255276918 
6.623817444 18.0597744 -1.852234244 0.9256116152 
3.593459368 13.37128353 -1.333191514 0.9458804727 
2.342933416 13.36463737 -1.30649364 0.946934998 
1.798239708 13.85738468 -1.345501542 0.9453946352 
1.417056799 16.72040367 -1.615764737 0.9347914457 
-0.8278918266 16.90049171 -1.629284739 0.9342641234 
-1.611840725 17.19875336 -1.663309336 0.9329384565 
-2.857854605 20.5853653 -2.001154184 0.9198766947 
-4.675537586 20.24718666 -2.000886679 0.9198869467 
-5.571198463 20.01782227 -2.00075531 0.9198920727 
-7.327384949 19.44099045 -2.000499725 0.9199017286 
-8.184406281 19.09456825 -2.000375509 0.9199066758 
-9.025148392 18.71046257 -2.000254154 0.919911325 
-9.847958565 18.28939819 -2.000135899 0.9199158549 
-10.51494122 17.60411835 -1.974439383 0.9209028482 
-10.56280041 16.01959991 -1.847653747 0.9257887602 
-11.27068233 15.54183769 -1.848591924 0.9257522821 
-13.24150085 13.90607166 -1.848942518 0.9257387519 
-14.43011475 12.6785078 -1.849584103 0.9257139564 
-16.4621067 9.932431221 -1.851292014 0.925647974 
-17.26111412 8.42088604 -1.849295974 0.9257251024 
-17.60843658 7.640295029 -1.84822762 0.9257664084 
-17.92093658 6.845659256 -1.847203135 0.9258059263 
-18.56048584 6.158759594 -1.882990241 0.9244241714 
-20.54708862 2.94575429 -1.998689651 0.9199714065 
-13.76560593 1.351943374 -1.331854224 0.9459332824 
-20.59680557 -2.579680204 -1.998741984 0.9199693203 
-20.46196175 -3.493403196 -1.998772025 0.9199682474 
-10.38922596 -2.74254632 -1.034636259 0.9577397108 
-9.854162216 -3.076247454 -0.9940074682 0.9593650103 
-9.842673302 -3.560419798 -1.007841945 0.9588112831 
-9.866916656 -4.074157715 -1.027881265 0.9580097198 
-15.63361263 -7.285368443 -1.660773754 0.9330371618 
-16.82381821 -9.746530533 -1.872162938 0.9248420596 
-15.17229176 -11.74071026 -1.847250819 0.925804019 
-14.63567066 -12.40458202 -1.84733808 0.9258008003 
-14.07010269 -13.04401588 -1.847430587 0.9257971048 
-13.47669125 -13.65785408 -1.847536564 0.9257928729 
-12.87671566 -14.26703358 -1.850550294 0.9256766438 
-12.22241211 -14.81732655 -1.849502325 0.9257170558 
-11.54438686 -15.33733082 -1.848414898 0.9257590771 
-8.524489403 -18.94933319 -2.000736237 0.9198927283 
-7.673610687 -19.31101799 -2.000867128 0.9198877811 
-6.807463169 -19.634552 -2.000999928 0.9198826551 
-5.927707195 -19.91927528 -2.001134396 0.9198774695 
-5.036096096 -20.16461182 -2.001270056 0.9198722839 
-4.134406567 -20.37006569 -2.001406908 0.9198670387 
-1.386672378 -20.74340439 -2.001821041 0.9198511243 
-0.4624975622 -20.78596306 -2.001959324 0.9198459387 
1.3869555 -20.74769211 -2.002234936 0.9198352695 
2.308669329 -20.66686249 -2.00237155 0.9198300242 
5.483361721 -18.42615509 -1.851132154 0.9256541729 
6.302995682 -18.17954254 -1.852714181 0.9255928993 
7.111413479 -17.89622307 -1.854275107 0.9255326986 
7.242931843 -12.8961792 -1.424203157 0.9422945976 
10.15019798 -16.32624245 -1.851089478 0.9256558418 
11.56232643 -15.36115932 -1.851287007 0.9256481528 
12.88317108 -14.27404976 -1.851469398 0.9256411791 
14.10211658 -13.07369804 -1.851634979 0.9256347418 
14.6703558 -12.43397903 -1.851712346 0.9256316423 
15.20953083 -11.76952839 -1.851785541 0.9256289005 
16.19654083 -10.37188721 -1.851917863 0.9256238341 
18.46077919 -9.624574661 -2.004647732 0.9197426438 
20.34826851 -4.41360569 -2.004873037 0.919733882 
20.66028023 -2.587548733 -2.00489974 0.9197329283 
20.75498009 -1.665944815 -2.004904032 0.9197327495 
20.80851364 -0.7410376072 -2.004901886 0.9197328687 
20.79176903 1.111323237 -2.004879475 0.9197338223 
20.61026382 2.954807043 -2.004832506 0.9197354913 
20.45805168 3.868639946 -2.004799843 0.9197368622 
20.03242874 5.671391487 -2.004716635 0.9197399616 
17.967453 6.863425255 -1.851995707 0.9256207347 
17.64381027 7.655651569 -1.851938725 0.9256229401 
16.88540459 9.189086914 -1.851045132 0.9256574512 
16.45299721 9.926938057 -1.850268245 0.9256875515 
15.98853397 10.64461422 -1.849505544 0.9257169962 
15.49289894 11.34078312 -1.848758698 0.9257458448 
14.41239738 12.66301441 -1.847318888 0.925801456 
13.82967663 13.28663445 -1.846631408 0.9258280993 
11.92570972 14.99346542 -1.844699502 0.9259026647 
9.81689167 16.43549728 -1.84336412 0.9259541035 
9.116769791 16.93145752 -1.851633549 0.925634861 
7.588494778 17.7042942 -1.854726791 0.9255152941 
6.785909653 18.00435257 -1.85267067 0.9255946875 
3.087110519 13.36858654 -1.321123362 0.9463569522 
2.465806723 13.36528492 -1.308650494 0.9468497634 
1.854987741 13.36205673 -1.29895997 0.9472327828 
1.567113042 16.7216053 -1.617163062 0.9347368479 
1.017136216 20.76386833 -2.00173068 0.9198545814 
0.07747314125 17.41425896 -1.676819563 0.9324125648 
-1.442895532 17.0252552 -1.645223379 0.9336428642 
-5.39286232 20.06687164 -2.000781536 0.919891119 
-10.52800751 16.28018188 -1.866829991 0.9250481129 
-11.12990189 15.63860893 -1.848248363 0.9257654548 
-13.11678791 14.0228281 -1.848874807 0.9257413149 
-14.3161459 12.80595016 -1.849514842 0.9257166982 
-14.87456894 12.1588335 -1.849877119 0.9257025719 
-15.40403175 11.48760223 -1.850277781 0.9256871939 
-15.9035778 10.79358768 -1.85071671 0.9256701469 
-16.37215805 10.07802963 -1.851192594 0.9256518483 
-16.80002022 9.33740139 -1.850721836 0.9256699085 
-17.18769646 8.575307846 -1.849535584 0.9257158637 
-17.86130905 7.005700588 -1.847409964 0.9257978797 
-18.14744186 6.201557636 -1.846612692 0.9258286357 
-19.92170715 5.832077503 -1.99875176 0.9199689627 
-20.16118431 4.939972878 -1.998725653 0.9199699163 
-20.36076736 4.038197994 -1.998705745 0.9199706912 
-20.52007675 3.128454447 -1.998691797 0.9199713469 
-20.63887596 2.212538958 -1.998684049 0.9199715257 
-13.5783186 0.8469750881 -1.309984446 0.9467970133 
-13.56808567 0.2415112257 -1.306664348 0.9469282031 
-13.5476799 -0.9662035704 -1.307805777 0.9468830824 
-20.49219894 -3.311115742 -1.998765707 0.9199684262 
-12.94117641 -2.686594248 -1.272662044 0.9482728839 
-10.79518509 -2.747165442 -1.072589278 0.9562239647 
-9.85822773 -2.981477022 -0.991702199 0.9594573379 
-9.84469223 -3.462368011 -1.004853964 0.9589309096 
-9.842704773 -3.961977482 -1.021645069 0.9582591057 
-15.62838554 -7.114301682 -1.653424978 0.9333233237 
-18.49463844 -9.433903694 -1.999129891 0.9199544787 
-17.17340279 -9.746017456 -1.901338935 0.9237166047 
-16.2473774 -10.20175552 -1.847275138 0.9258030653 
-15.78235054 -10.91776562 -1.847847819 0.9257810116 
-15.27599621 -11.60514641 -1.847233891 0.9258047342 
-14.74533176 -12.27376652 -1.847320199 0.9258013964 
-13.59754848 -13.53717518 -1.847515106 0.9257938266 
-12.98260021 -14.12940598 -1.847618699 0.9257899523 
-11.68183613 -15.23576355 -1.848635554 0.9257506132 
-11.05511665 -15.82993889 -1.85915792 0.9253441095 
-10.33435535 -18.02291298 -2.000456095 0.9199033976 
-9.523007393 -18.4658947 -2.00058198 0.9198986888 
-8.692702293 -18.87244415 -2.000710249 0.9198938012 
-7.845109463 -19.2416954 -2.000840664 0.9198887944 
-6.104606628 -19.8654747 -2.001107216 0.9198785424 
-5.215236664 -20.11873817 -2.001242876 0.9198732972 
-3.406921387 -20.50543594 -2.001516819 0.9198628664 
-1.571149826 -20.7299633 -2.001793385 0.9198521972 
1.202204585 -20.7589283 -2.002207518 0.9198363423 
2.124592304 -20.68634033 -2.00234437 0.9198309779 
3.955305099 -20.41836548 -2.002614737 0.9198207259 
6.950675964 -17.95580292 -1.853964806 0.9255446792 
7.749045372 -17.64346313 -1.855506539 0.9254851341 
8.504851341 -17.23800087 -1.850856781 0.9256647229 
9.263776779 -16.84357643 -1.850964189 0.9256606102 
10.0044508 -16.4157486 -1.851068854 0.9256564975 
11.4250946 -15.46326351 -1.851267934 0.9256488085 
12.10224819 -14.94048023 -1.85136199 0.9256452322 
16.55583763 -9.789142609 -1.851965189 0.9256219864 
18.12946701 -9.658043861 -1.977926135 0.920768857 
18.79201889 -8.961660385 -2.004689932 0.9197410345 
19.17254639 -8.116955757 -2.004737616 0.9197392464 
19.5150528 -7.256220341 -2.004779339 0.9197375774 
20.08341599 -5.493210316 -2.004845142 0.9197350144 
20.30814171 -4.594460487 -2.004868984 0.9197340608 
20.80109787 -0.926225543 -2.00490284 0.9197328091 
20.80088997 0.9262109399 -2.004882812 0.9197335839 
20.73889542 1.850571275 -2.004863501 0.9197343588 
20.63577843 2.77125001 -2.004838228 0.9197353721 
20.49177933 3.68640852 -2.004806757 0.919736445 
19.40908432 6.249204159 -1.963365078 0.9213286042 
17.35965538 8.278578758 -1.85188961 0.925624907 
16.96790695 9.039247513 -1.85120225 0.9256514907 
16.54206085 9.780988693 -1.850422502 0.9256815314 
16.08392715 10.50280476 -1.84965682 0.9257111549 
15.59448051 11.20332718 -1.848906636 0.9257401228 
14.5256443 12.53514957 -1.847459078 0.9257961512 
13.94843578 13.16402721 -1.846767545 0.9258226752 
10.68179798 15.89052677 -1.843653202 0.9259431362 
9.265564919 16.84698868 -1.85133338 0.9256463051 
6.947459698 17.94748688 -1.853105783 0.925577879 
2.589157581 13.36594009 -1.310919046 0.946760118 
1.6154809 15.72930622 -1.522527099 0.9384359121 
0.2775091529 20.78575897 -2.001620054 0.9198588729 
-0.5273644924 16.92504501 -1.630488873 0.9342172146 
-1.284548283 16.94843864 -1.636630774 0.9339777827 
-5.214186192 20.11432838 -2.000807762 0.9198900461 
-9.521094322 18.46194077 -2.000182867 0.9199149013 
-12.99099255 14.13853741 -1.848808527 0.9257438183 
-14.20109081 12.93241882 -1.849447131 0.9257192016 
-13.15682316 10.95150948 -1.648314118 0.9335226417 
-15.30049801 11.6237545 -1.850194693 0.9256902933 
-16.7183857 9.487686157 -1.850955963 0.9256609082 
-17.11294556 8.729018211 -1.849774003 0.9257065654 
-17.47351456 7.954219818 -1.848630905 0.9257506728 
-17.80024719 7.165124416 -1.8476156 0.9257899523 
-20.11644173 5.119235516 -1.998730421 0.9199697971 
-20.49143791 3.31098628 -1.998694062 0.9199712873 
-20.61837387 2.396135092 -1.998685122 0.9199715257 
-13.55992413 -0.2413745075 -1.305878878 0.9469592571 
-13.54972363 -0.845200181 -1.307224035 0.9469060302 
-20.36161995 -4.038464069 -1.998793006 0.9199674129 
-11.15817356 -2.734072208 -1.106194615 0.9548838735 
-9.843740463 -3.86099124 -1.018146634 0.9583990574 
-18.57774544 -9.268844604 -1.999115705 0.9199550152 
-15.87792683 -10.77618885 -1.847733974 0.9257854223 
-15.37855911 -11.46861553 -1.847217083 0.9258053303 
-13.7173357 -13.41544628 -1.847493529 0.925794661 
-11.12780285 -15.63581276 -1.847911835 0.9257784486 
-7.155627251 -19.50976753 -2.000946522 0.9198847413 
-6.281105995 -19.81007957 -2.001080275 0.9198796153 
-5.394035339 -20.07125282 -2.001215696 0.9198743105 
-4.496164322 -20.29273224 -2.001352072 0.9198690057 
-3.589269876 -20.47404099 -2.001489162 0.9198638201 
-2.675139189 -20.61484146 -2.001627207 0.9198585749 
-1.755583405 -20.71487045 -2.00176549 0.9198532701 
1.017360806 -20.76852226 -2.002179861 0.9198373556 
1.940436959 -20.70411873 -2.002316952 0.9198321104 
2.859704494 -20.59872246 -2.002453089 0.9198268056 
4.679807186 -20.2657299 -2.00272131 0.9198166132 
5.152785301 -18.51446533 -1.850494146 0.92567873 
5.976408482 -18.28261375 -1.852083802 0.9256172776 
7.590436935 -17.70881462 -1.855200171 0.9254969954 
8.350978851 -17.31282997 -1.850837946 0.9256654978 
10.58279037 -16.04998779 -1.851150274 0.9256534576 
11.96864986 -15.04744816 -1.851343513 0.9256460071 
12.62679863 -14.50087166 -1.851434231 0.9256424308 
13.25998783 -13.92549038 -1.851520777 0.9256390333 
13.86692142 -13.32243347 -1.85160315 0.9256359339 
14.44648647 -12.69288826 -1.85168159 0.925632894 
16.46799088 -9.935993195 -1.851953506 0.9256224036 
18.71144485 -9.12844944 -2.00467968 0.9197414517 
19.44963074 -7.429618835 -2.004771471 0.9197378159 
20.03364182 -5.6717453 -2.004839659 0.9197353125 
20.26638794 -4.775024414 -2.004864693 0.9197342992 
20.61091423 -2.954916954 -2.004896402 0.9197330475 
20.79202271 -1.111347675 -2.004903555 0.9197328687 
20.13038826 5.31401825 -2.004735231 0.9197392464 
18.08696175 6.54264164 -1.852017045 0.9256199002 
17.77746582 7.340507507 -1.85196209 0.9256221652 
17.04917717 8.88862133 -1.851359725 0.9256452918 
16.6298542 9.634156227 -1.850577354 0.925675571 
16.17811584 10.36008167 -1.849808812 0.9257051945 
15.69484234 11.06496239 -1.849055409 0.9257344007 
15.18106079 11.74748993 -1.848318696 0.9257628322 
14.63777542 12.40634537 -1.847600341 0.9257905483 
12.84211159 14.22866344 -1.845574021 0.9258688688 
12.19227409 14.78079891 -1.844943047 0.9258932471 
7.543305397 13.43096638 -1.483266592 0.9399748445 
7.899700642 17.56044769 -1.854095459 0.9255396724 
7.108605862 17.88913727 -1.853539824 0.9255610108 
6.298379421 18.16622353 -1.851358652 0.9256453514 
5.480083942 18.41509628 -1.850022197 0.9256970286 
3.339129448 13.36992645 -1.326921344 0.9461280704 
2.098286152 13.36334324 -1.302509069 0.9470924735 
1.572059274 14.07282925 -1.363488436 0.9446852803 
-1.131591797 16.92753029 -1.633574486 0.9340968728 
-2.30737114 20.65511894 -2.001235723 0.9198737144 
-5.926432133 19.91498566 -2.000703573 0.9198940396 
-6.806011677 19.63037872 -2.000575304 0.9198989868 
-7.672022343 19.30699158 -2.000449657 0.9199037552 
-8.522746086 18.94543839 -2.000326395 0.919908464 
-9.356494904 18.54644012 -2.00020647 0.9199131727 
-10.17166424 18.11083412 -2.000089407 0.9199175239 
-10.52171326 16.92380524 -1.918837905 0.9230421782 
-10.84617901 15.82906246 -1.84764266 0.9257888794 
-11.54973984 15.34442616 -1.849273443 0.9257259965 
-12.8642149 14.25303173 -1.848744035 0.9257464409 
-14.08496475 13.05778694 -1.849381089 0.9257217646 
-14.65460777 12.42062187 -1.849727631 0.9257084727 
-15.19580173 11.75889969 -1.850113034 0.9256934524 
-13.08719921 9.226557732 -1.541842341 0.9376798272 
-14.81627655 8.583500862 -1.648761868 0.9335049987 
-17.40387726 8.110313416 -1.848831177 0.9257430434 
-17.73774338 7.324101448 -1.84782052 0.9257820249 
-18.03617096 6.524264812 -1.846816778 0.9258208275 
-20.2857399 4.400029182 -1.998713017 0.9199703932 
-13.56196213 -0.1207226515 -1.305920362 0.9469576478 
-13.66005993 -1.341584444 -1.321642756 0.9463365078 
-9.936738014 -2.813200712 -0.9944049716 0.9593491554 
-9.838313103 -3.758163929 -1.014085174 0.95856148 
-17.90663338 -9.744851112 -1.962997437 0.9213427305 
-16.42432785 -9.909646034 -1.847043514 0.9258121252 
-15.97224808 -10.63378143 -1.847619891 0.9257897735 
-14.05334663 -12.34756851 -1.801296353 0.9275813103 
-13.23173332 -13.8958416 -1.847577929 0.9257913828 
-12.61795902 -14.49070549 -1.850136042 0.9256925583 
-11.9539814 -15.029006 -1.849072099 0.9257336855 
-11.2668848 -15.53661346 -1.847969294 0.9257763028 
-11.02819538 -16.72549438 -1.929059982 0.9226486087 
-10.65322018 -17.83563232 -2.000406504 0.9199054837 
-9.02696991 -18.71423531 -2.000658751 0.9198958874 
-7.328898907 -19.44504547 -2.000920057 0.9198857546 
-6.457111835 -19.75314713 -2.001053333 0.9198805094 
-5.572399616 -20.02215958 -2.001188517 0.919875443 
-2.858400822 -20.58994865 -2.001599789 0.9198595881 
-0.0924975574 -20.79152489 -2.002014637 0.9198436141 
4.987375259 -18.5580883 -1.850348592 0.9256845117 
6.627780437 -18.07059288 -1.853341341 0.9255687594 
7.43127203 -17.77274132 -1.85489285 0.9255088568 
8.196476936 -17.38632965 -1.850822568 0.9256660938 
7.425419807 -12.68670654 -1.415448308 0.9426389933 
10.43945503 -16.14333153 -1.851130128 0.9256542325 
11.14783382 -15.66380596 -1.85122931 0.9256504178 
12.49717522 -14.61251163 -1.851416469 0.9256430864 
13.74772644 -13.44516373 -1.851587057 0.9256365299 
14.33280754 -12.82086658 -1.851666093 0.9256334901 
17.40737724 -9.674978256 -1.917633414 0.9230887294 
18.6293602 -9.294589996 -2.004669189 0.9197418094 
19.02484512 -8.45690155 -2.004719257 0.919739902 
19.3826561 -7.602406979 -2.004763365 0.9197381139 
19.70202065 -6.732817173 -2.004801512 0.9197366834 
20.58375931 -3.138168812 -2.004894257 0.9197332263 
20.70308113 -2.219431162 -2.004902124 0.9197328687 
20.81838036 -0.3705737293 -2.004899502 0.9197329283 
20.76865005 1.481181622 -2.004871845 0.9197340012 
20.38583946 4.232101917 -2.004785061 0.919737339 
18.14456558 6.381418228 -1.852027297 0.9256196022 
17.50452423 7.968343258 -1.851914644 0.9256239533 
17.12902069 8.737319946 -1.851517558 0.9256392717 
16.71630669 9.486611366 -1.850732684 0.9256696105 
15.28616905 11.61287212 -1.848464608 0.9257572293 
14.18261719 12.91557789 -1.847041845 0.9258121848 
12.96914864 14.11476326 -1.845702887 0.9258639216 
12.32419205 14.67266369 -1.845067382 0.9258884788 
11.65546608 15.20136547 -1.844461322 0.9259119034 
10.96426201 15.69984245 -1.843878746 0.9259343743 
7.557165146 11.91751671 -1.358795643 0.9448703527 
7.665462494 13.36834335 -1.483816385 0.9399528503 
7.671354771 14.8753767 -1.611588717 0.9349543452 
7.550109863 16.39177895 -1.737734318 0.9300453663 
7.269240379 17.82930183 -1.853972793 0.9255443811 
5.643829823 18.3660183 -1.850062728 0.9256954789 
3.465966702 13.37060261 -1.329994678 0.9460066557 
2.837137461 13.36725521 -1.315793157 0.946567595 
1.57117486 20.73019028 -2.00181365 0.9198513627 
-0.2270043939 17.00260353 -1.637310624 0.9339511991 
-0.9794457555 16.91235352 -1.631201625 0.9341893196 
-3.040850878 20.55884743 -2.001127243 0.919877708 
-3.952097654 20.40184021 -2.000993013 0.9198829532 
-4.855414391 20.20449066 -2.000860214 0.9198880792 
-8.353951454 19.02075386 -2.000350952 0.9199075103 
-10.01024342 18.2007885 -2.000112534 0.919916749 
-10.51839066 17.25904274 -1.946162343 0.921990335 
-11.410676 15.44375229 -1.848933697 0.9257391095 
-12.74332237 14.37425995 -1.849683166 0.9257101417 
-15.08987141 11.89317989 -1.850032806 0.9256965518 
-13.14314079 9.442249298 -1.558279634 0.9370370507 
-16.09477997 10.50988102 -1.850902557 0.9256629348 
-16.95919991 9.034612656 -1.85024941 0.9256882071 
-17.3328743 8.265712738 -1.849030256 0.9257354736 
-17.97914505 6.685119629 -1.846995473 0.9258139729 
-19.07201576 6.140583515 -1.929266453 0.9226406813 
-20.0222702 5.476486683 -1.998740673 0.9199693203 
-20.24581337 4.580339432 -1.99871695 0.919970274 
-13.56400204 -4.882812391e-06 -1.306065321 0.9469519258 
-13.5538063 -0.6035229564 -1.306376815 0.9469396472 
-13.54358387 -1.208527803 -1.309280634 0.9468248487 
-20.57311058 -2.762844086 -1.998747706 0.9199690819 
-10.06760979 -2.753688812 -1.00500834 0.9589247108 
-9.849162102 -3.171169281 -0.9963118434 0.9592728019 
-9.838981628 -3.658444643 -1.010758281 0.9586945772 
-9.97125721 -4.221518517 -1.04262495 0.9574204683 
-18.29343414 -9.745392799 -1.995815873 0.9200816751 
-16.51173019 -9.763053894 -1.847029567 0.925812602 
-16.06521225 -10.49058342 -1.847505331 0.9257943034 
-14.14750481 -12.20888424 -1.799364686 0.9276560545 
-13.35473633 -13.77734089 -1.847557664 0.9257922769 
-11.4060936 -15.4375658 -1.848192811 0.9257677197 
-10.01212883 -18.20443153 -2.000506163 0.9199016094 
-9.193005562 -18.63298035 -2.000633001 0.9198967218 
-8.355603218 -19.02470398 -2.000762224 0.919891715 
-7.501525879 -19.37881088 -2.000893593 0.9198867679 
-6.632507324 -19.69464493 -2.00102663 0.9198815823 
-5.750236511 -19.97152519 -2.001161337 0.9198764563 
-4.856476784 -20.20892334 -2.001297235 0.9198712111 
-3.952975988 -20.40633965 -2.001434326 0.9198659658 
-3.041520834 -20.56339073 -2.001572132 0.9198607206 
-0.2775561512 -20.78960228 -2.00198698 0.9198446274 
3.408649921 -20.51587105 -2.002534151 0.9198237658 
5.648141861 -18.37978745 -1.851450205 0.9256417751 
8.810495377 -17.08428001 -1.850899339 0.9256631136 
10.29525089 -16.23545074 -1.851109862 0.9256549478 
11.69871807 -15.25778484 -1.851306081 0.9256474376 
12.36647224 -14.72301483 -1.851398468 0.9256438613 
13.62736034 -13.56687737 -1.851570845 0.9256372452 
14.21799564 -12.94781971 -1.851650476 0.9256341457 
14.78051472 -12.30305862 -1.851727247 0.9256311059 
15.31377411 -11.63384724 -1.851799726 0.9256282449 
18.54583549 -9.459923744 -2.004658699 0.919742167 
19.31413841 -7.774518967 -2.00475502 0.9197385311 
20.17810059 -5.134941101 -2.004855394 0.9197345972 
20.38677406 -4.232306957 -2.004876852 0.9197337627 
20.68248558 -2.403625488 -2.004901171 0.9197329283 
20.76897621 -1.481220722 -2.004904032 0.9197327495 
20.70261192 2.219362736 -2.004853964 0.9197345972 
20.5830822 3.138129711 -2.004826307 0.9197357297 
20.22195053 4.954948425 -2.004752874 0.9197385907 
18.32192612 6.261188984 -1.864369035 0.9251428843 
17.20762253 8.585249901 -1.851676106 0.9256330132 
16.36261559 10.07215595 -1.850114346 0.925693512 
15.89185429 10.78563213 -1.849354863 0.9257228374 
15.39016914 11.47726822 -1.848611355 0.9257515073 
14.8585434 12.14572811 -1.84788537 0.9257795811 
14.29808521 12.78979492 -1.847179651 0.9258068204 
12.45515442 14.56337166 -1.845192552 0.9258835912 
11.79100323 15.09805393 -1.844580054 0.9259072542 
11.10418797 15.60263252 -1.843993187 0.9259299636 
9.692777634 16.56075478 -1.847667456 0.9257879853 
7.429323673 17.76806641 -1.854404211 0.9255276918 
6.623817444 18.0597744 -1.852234244 0.9256116152 
5.807271481 18.31562042 -1.850118876 0.9256932735 
1.798239708 13.85738468 -1.345501542 0.9453946352 
1.417056799 16.72040367 -1.615764737 0.9347914457 
0.8323498368 20.77181625 -2.001703024 0.9198556542 
-0.07616455108 17.12129593 -1.648607731 0.9335108995 
-0.8278918266 16.90049171 -1.629284739 0.9342641234 
-3.770484447 20.43647194 -2.001019716 0.9198818803 
-8.184406281 19.09456825 -2.000375509 0.9199066758 
-9.025148392 18.71046257 -2.000254154 0.919911325 
-9.847958565 18.28939819 -2.000135899 0.9199158549 
-10.51494122 17.60411835 -1.974439383 0.9209028482 
-11.27068233 15.54183769 -1.848591924 0.9257522821 
-14.43011475 12.6785078 -1.849584103 0.9257139564 
-15.5063839 11.35055351 -1.850362659 0.9256839156 
-15.99981689 10.65211773 -1.850808859 0.9256665707 
-16.4621067 9.932431221 -1.851292014 0.925647974 
-17.60843658 7.640295029 -1.84822762 0.9257664084 
-17.92093658 6.845659256 -1.847203135 0.9258059263 
-19.9727993 5.654506683 -1.998746157 0.9199690819 
-20.3958416 3.856882334 -1.998702526 0.91997087 
-13.5762682 0.7256567478 -1.309112072 0.9468315244 
-13.54563427 -1.08732903 -1.308491588 0.9468560219 
-20.46196175 -3.493403196 -1.998772025 0.9199682474 
-12.53724384 -2.719367504 -1.235270619 0.9497538209 
-9.866916656 -4.074157715 -1.027881265 0.9580097198 
-14.63567066 -12.40458202 -1.84733808 0.9258008003 
-13.47669125 -13.65785408 -1.847536564 0.9257928729 
-12.87671566 -14.26703358 -1.850550294 0.9256766438 
-12.22241211 -14.81732655 -1.849502325 0.9257170558 
-11.54438686 -15.33733082 -1.848414898 0.9257590771 
-10.96869373 -17.64278984 -2.000357389 0.9199072719 
-10.17365932 -18.11437225 -2.000481129 0.9199025035 
-9.358371735 -18.55015373 -2.000607491 0.9198977351 
-7.673610687 -19.31101799 -2.000867128 0.9198877811 
-5.927707195 -19.91927528 -2.001134396 0.9198774695 
-5.036096096 -20.16461182 -2.001270056 0.9198722839 
-3.224396944 -20.53523064 -2.001544476 0.9198617339 
-2.307883263 -20.65974236 -2.00168252 0.9198564887 
-1.386584401 -20.74341583 -2.001821041 0.9198511243 
-0.4624975622 -20.78596306 -2.001959324 0.9198459387 
1.3869555 -20.74769211 -2.002234936 0.9198352695 
2.308669329 -20.66686249 -2.00237155 0.9198300242 
3.225944757 -20.54509926 -2.00250721 0.9198248386 
4.914631367 -19.67824936 -1.953004003 0.9217272401 
7.111413479 -17.89622307 -1.854275107 0.9255326986 
7.907009125 -17.57673073 -1.855811715 0.9254733324 
8.657960892 -17.1617794 -1.850877643 0.9256641865 
10.15019798 -16.32624245 -1.851089478 0.9256558418 
10.86700439 -15.85945511 -1.85119009 0.9256518483 
11.56232643 -15.36115932 -1.851287007 0.9256481528 
12.23488045 -14.83232594 -1.851380229 0.9256445169 
12.88317108 -14.27404976 -1.851469398 0.9256411791 
14.10206223 -13.07375717 -1.851634979 0.9256346822 
14.6703558 -12.43397903 -1.851712346 0.9256316423 
15.2094841 -11.76959229 -1.851785541 0.9256289005 
16.19649696 -10.37195492 -1.851917863 0.9256238341 
16.73435783 -9.694704056 -1.862206578 0.9252263904 
18.8711319 -8.79406929 -2.004699945 0.9197406769 
19.24413109 -7.946015358 -2.004746437 0.9197388291 
19.57890511 -7.082334042 -2.004786968 0.919737339 
19.87496567 -6.204418659 -2.004821777 0.9197359085 
20.52458191 -3.504094124 -2.004889488 0.9197334051 
20.66028023 -2.587548733 -2.00489974 0.9197329283 
20.75495148 -1.666030288 -2.004904032 0.9197328091 
20.80851364 -0.7410376072 -2.004901886 0.9197328687 
20.82078552 0.185244143 -2.00489378 0.9197332263 
20.79176903 1.111323237 -2.004879475 0.9197338223 
20.72156715 2.034997463 -2.004858971 0.9197345376 
20.61026382 2.954807043 -2.004832506 0.9197354913 
20.26533699 4.774767876 -2.004761219 0.9197382927 
20.03240395 5.67148447 -2.004716635 0.9197399616 
18.84804726 6.254177094 -1.912165284 0.9232993722 
17.96741867 6.86350584 -1.851995707 0.9256207347 
17.64381027 7.655651569 -1.851938725 0.9256229401 
17.28479767 8.43253231 -1.851835132 0.9256269336 
16.88540459 9.189086914 -1.851045132 0.9256574512 
15.98853397 10.64461422 -1.849505544 0.9257169962 
13.82973576 13.28659248 -1.846631527 0.9258280396 
13.22017288 13.88368511 -1.845963717 0.9258537889 
11.92570972 14.99346542 -1.844699502 0.9259026647 
11.24340916 15.50407887 -1.844108701 0.9259255528 
10.53930187 15.98403263 -1.84354198 0.9259473681 
9.116769791 16.93145752 -1.851633549 0.925634861 
8.361388206 17.33457756 -1.853160262 0.9255758524 
5.971223831 18.26675034 -1.850478768 0.9256793857 
3.087110519 13.36858654 -1.321123362 0.9463569522 
2.465806723 13.36528492 -1.308650494 0.9468497634 
1.017229557 20.76386452 -2.00173068 0.9198545814 
-0.6775512695 16.91037178 -1.629591823 0.9342522025 
-1.442895532 17.0252552 -1.645223379 0.9336428642 
-2.674631834 20.61023331 -2.001181364 0.9198756814 
-5.39286232 20.06687164 -2.000781536 0.919891119 
-8.014305115 19.1668911 -2.000400066 0.9199056625 
-10.4921484 17.92651176 -2.000043631 0.919919312 
-12.49833107 14.61397457 -1.851596475 0.9256361127 
-13.11678791 14.0228281 -1.848874807 0.9257413149 
-15.40403175 11.48760223 -1.850277781 0.9256871939 
-15.90362549 10.79352188 -1.85071671 0.9256701469 
-16.8000679 9.337325096 -1.850721717 0.9256698489 
-18.14746284 6.201479435 -1.846612692 0.9258286953 
-19.92170715 5.832077503 -1.99875176 0.9199689627 
-20.16118431 4.939972878 -1.998725653 0.9199699163 
-20.36075783 4.038283825 -1.998705745 0.9199706912 
-20.52007675 3.128454447 -1.998691797 0.9199713469 
-20.63886833 2.212629318 -1.998684049 0.9199715257 
-13.56808662 0.2415722609 -1.306664348 0.9469282031 
-13.55788422 -0.3620825112 -1.305939436 0.9469568133 
-20.4921875 -3.31120348 -1.998765707 0.9199683666 
-9.842704773 -3.961977482 -1.021645069 0.9582591057 
-15.62839317 -7.114387035 -1.653427958 0.9333231449 
-18.49467468 -9.433828354 -1.999129891 0.9199544787 
-16.24741364 -10.20168686 -1.847275138 0.9258030653 
-14.18550777 -12.91812706 -1.847411513 0.9257978201 
-12.98253632 -14.12946033 -1.847618699 0.9257899523 
-12.35522938 -14.70962143 -1.849715233 0.92570889 
-11.05511665 -15.82993889 -1.85915792 0.9253441095 
-10.33435535 -18.02291298 -2.000456095 0.9199033976 
-8.692702293 -18.87244415 -2.000710249 0.9198938012 
-7.845031738 -19.24172592 -2.000840664 0.9198887944 
-6.981857777 -19.57289314 -2.000973225 0.9198837876 
-6.104606628 -19.8654747 -2.001107216 0.9198785424 
4.859992504 -20.22356606 -2.002747536 0.9198155403 
5.318303108 -18.47104645 -1.850813508 0.9256663918 
6.139870644 -18.23181915 -1.852399349 0.9256051183 
7.748967171 -17.64349747 -1.85550642 0.9254851341 
10.72528553 -15.95537281 -1.851170301 0.9256526828 
11.4250946 -15.46326351 -1.851267934 0.9256488085 
12.10217953 -14.9405241 -1.85136199 0.9256452918 
13.38358116 -13.80696964 -1.851537704 0.9256384373 
13.985075 -13.19858646 -1.851619124 0.9256353378 
15.10407448 -11.90437508 -1.851771355 0.9256293178 
16.10347939 -10.51557827 -1.851905465 0.9256242514 
18.12946701 -9.658043861 -1.977926135 0.920768857 
19.17251396 -8.117040634 -2.004737616 0.9197391868 
19.5150528 -7.256220341 -2.004779339 0.9197375774 
20.30809593 -4.594535828 -2.004868984 0.91973418 
20.49259186 -3.686557531 -2.004886627 0.9197334051 
20.73930168 -1.850620031 -2.004903555 0.9197328687 
20.82165909 -4.882812391e-06 -2.004895926 0.9197330475 
20.80088806 0.9262939095 -2.004882812 0.9197335839 
20.30711174 4.594304085 -2.004769325 0.9197378755 
18.02793694 6.703266621 -1.852006435 0.9256203175 
17.71133423 7.498422623 -1.851950645 0.9256224632 
17.35969925 8.278503418 -1.85188961 0.925624907 
16.96790695 9.039247513 -1.85120225 0.9256514907 
16.54210281 9.78091526 -1.850422502 0.9256815314 
15.59454155 11.2032795 -1.848906875 0.9257400036 
14.5255928 12.53523636 -1.847458959 0.9257960916 
8.580934525 8.852547646 -1.187130213 0.9516638517 
12.05941868 14.88774967 -1.844819903 0.9258979559 
10.68173027 15.89057446 -1.843653083 0.9259431362 
9.961408615 16.34515572 -1.843107581 0.9259641171 
8.514003754 17.25654221 -1.852851391 0.9255878329 
6.947529316 17.94746208 -1.853105903 0.9255778193 
6.134968758 18.21724129 -1.850919008 0.9256623387 
5.391503334 18.72527695 -1.876286149 0.924682796 
2.589218616 13.36594009 -1.310920119 0.946760118 
1.976472139 13.36269855 -1.300681472 0.9471647739 
1.615460157 15.72972775 -1.522567391 0.9384343028 
1.201936603 20.754282 -2.001758337 0.9198535085 
0.2774212658 20.78575134 -2.001620054 0.9198588729 
-0.5273644924 16.92504501 -1.630488873 0.9342172146 
-1.284623981 16.94847298 -1.636634231 0.9339776039 
-2.491015673 20.63357925 -2.001208544 0.9198744297 
-3.40625906 20.50086784 -2.00107336 0.9198799133 
-4.314465046 20.32774544 -2.000939846 0.9198849201 
-6.103303909 19.86122322 -2.000677824 0.9198949933 
-6.980396748 19.56879044 -2.000550032 0.9198998809 
-7.843390465 19.23771858 -2.000424862 0.9199047685 
-8.690926552 18.86859512 -2.000302315 0.9199094176 
-9.521015167 18.46232796 -2.000182867 0.9199137688 
-10.33235836 18.01935005 -2.000066519 0.9199184775 
-10.98819542 15.73411179 -1.847902894 0.9257788658 
-12.99105453 14.13848495 -1.848808527 0.9257438183 
-14.20114326 12.93236256 -1.849447131 0.9257192016 
-15.30055046 11.6236887 -1.850194693 0.9256902933 
-16.71832275 9.487752914 -1.850956082 0.9256609678 
-20.11646461 5.119152546 -1.998730421 0.9199697971 
-20.49148369 3.310900688 -1.998694062 0.919971168 
-13.58037472 0.9684692025 -1.310961604 0.9467583895 
-13.57012749 0.3623999059 -1.30711937 0.9469102025 
-13.54972363 -0.845200181 -1.307224035 0.9469060302 
-20.63934517 -2.212690353 -1.998731852 0.9199697375 
-20.52080917 -3.128571749 -1.998759389 0.919968605 
-11.1583643 -2.734072208 -1.10621202 0.9548831582 
-9.888559341 -2.894880295 -0.9921230674 0.9594404697 
-9.843400955 -3.36376214 -1.001625776 0.9590600729 
-9.843740463 -3.86099124 -1.018146634 0.9583990574 
-15.631814 -6.9485569 -1.647179127 0.9335666299 
-15.87788582 -10.77625465 -1.847734213 0.9257854223 
-15.37855911 -11.46861553 -1.847217083 0.9258053303 
-12.48703861 -14.60077858 -1.849926353 0.9257007241 
-11.81839561 -15.13298512 -1.848854423 0.9257420897 
-10.49418449 -17.93000221 -2.000431061 0.9199044108 
-9.686872482 -18.38014793 -2.000556707 0.9198997021 
-8.86014843 -18.7940979 -2.0006845 0.9198948145 
-8.016027451 -19.17076874 -2.000814438 0.9198899865 
-7.155627251 -19.50976753 -2.000946522 0.9198847413 
-5.394035339 -20.07125282 -2.001215696 0.9198743105 
1.017453551 -20.76852226 -2.002179861 0.9198373556 
1.940344214 -20.70411873 -2.002316952 0.91983217 
6.789431095 -18.01394272 -1.853653312 0.9255566597 
7.590436935 -17.70881462 -1.855200171 0.9254969954 
8.351057053 -17.31279564 -1.850837946 0.9256654978 
9.113366127 -16.92514801 -1.85094285 0.9256615043 
10.58279037 -16.04998779 -1.851150274 0.9256534576 
11.96864986 -15.04744816 -1.851343513 0.9256460071 
13.25998783 -13.92549038 -1.851520777 0.9256390333 
13.86697483 -13.32237053 -1.85160315 0.9256359339 
14.44643307 -12.6929512 -1.85168159 0.925632894 
16.00918388 -10.65836143 -1.851892948 0.9256247282 
16.46794701 -9.936061859 -1.851953506 0.9256224036 
18.71140671 -9.128530502 -2.00467968 0.9197414517 
20.45895195 -3.868735313 -2.004883528 0.9197335243 
20.79202271 -1.111347675 -2.004903555 0.9197328687 
20.82082939 -0.1852539033 -2.004897833 0.9197330475 
20.80835915 0.7410229445 -2.004885912 0.9197334051 
20.65968132 2.587460995 -2.004843712 0.9197351336 
20.52381516 3.503952503 -2.004813433 0.9197362661 
20.34727669 4.413286209 -2.004777431 0.9197376966 
20.13038826 5.31401825 -2.004735231 0.9197392464 
19.87360954 6.203986645 -2.004687309 0.9197411537 
18.08696175 6.54264164 -1.852017045 0.9256199002 
17.7774601 7.340588093 -1.85196209 0.925622046 
17.43281937 8.123802185 -1.851902246 0.9256242514 
16.6298542 9.634156227 -1.850577354 0.925675571 
15.18100929 11.74755573 -1.848318696 0.9257628322 
8.65965271 8.775989532 -1.187160254 0.9516626596 
12.19234467 14.78073978 -1.844943166 0.9258932471 
7.899626255 17.56048393 -1.854095578 0.9255396724 
7.108605862 17.88913727 -1.853539824 0.9255610108 
6.298300743 18.16625023 -1.851358294 0.9256453514 
5.480083942 18.41509628 -1.850022197 0.9256970286 
3.33907342 13.36992645 -1.326919794 0.94612813 
2.712946653 13.36659622 -1.313298345 0.9466660619 
2.098226309 13.36334038 -1.302508235 0.9470924735 
1.386565566 20.74301147 -2.001786232 0.9198526144 
0.4625231922 20.78274345 -2.001647711 0.9198578596 
-0.3770312369 16.94129753 -1.631667495 0.9341712594 
-1.131522179 16.92752075 -1.633572698 0.9340969324 
-2.30737114 20.65511894 -2.001235723 0.9198737144 
-4.133496761 20.3656044 -2.000966311 0.9198838472 
-7.672022343 19.30699158 -2.000449657 0.9199037552 
-10.52171326 16.92380524 -1.918837905 0.9230421782 
-12.23197746 14.82879829 -1.850943089 0.9256615043 
-13.48791695 13.66913033 -1.849074244 0.9257336855 
-13.08719921 9.226557732 -1.541842341 0.9376798272 
-14.81627655 8.583500862 -1.648761868 0.9335049987 
-17.03678131 8.882070541 -1.85001123 0.9256974459 
-17.40387726 8.110313416 -1.848831177 0.9257430434 
-20.07015419 5.298112869 -1.998735428 0.9199694991 
-20.46123314 3.493268967 -1.998696566 0.9199709296 
-13.56196213 -0.120671384 -1.305920362 0.9469576478 
-20.54775429 -2.945866585 -1.998753309 0.9199689031 
-11.58721638 -2.730104923 -1.146273017 0.9532879591 
-9.936701775 -2.813234806 -0.9944025874 0.959349215 
-9.83831501 -3.758212805 -1.014087319 0.9585614204 
-17.90663338 -9.744851112 -1.962997437 0.9213427305 
-15.97224808 -10.63378143 -1.847619891 0.9257897735 
-14.05334663 -12.34756851 -1.801296353 0.9275813103 
-10.65314198 -17.83568001 -2.000406504 0.9199054837 
-9.849905014 -18.29302406 -2.000531197 0.9199005961 
-9.026885033 -18.7142849 -2.000658751 0.9198958278 
-8.186096191 -19.09851265 -2.00078845 0.919890821 
-4.676545143 -20.25160408 -2.001324654 0.9198701978 
-3.771227837 -20.44102287 -2.001461744 0.9198648334 
-2.858488798 -20.58992958 -2.00159955 0.9198596478 
1.756047368 -20.72031403 -2.002289772 0.9198330641 
2.676291466 -20.62307739 -2.002426147 0.9198278189 
4.987375259 -18.5580883 -1.850348592 0.9256845117 
7.431344986 -17.77270317 -1.854892969 0.9255088568 
8.196476936 -17.38632965 -1.850822568 0.9256660938 
8.962316513 -17.00537872 -1.850921154 0.9256623387 
7.425332069 -12.68667984 -1.415438294 0.9426392913 
11.14777088 -15.6638546 -1.85122931 0.9256504178 
11.83419609 -15.15321541 -1.851324916 0.9256466031 
13.74766827 -13.44522667 -1.851587057 0.9256365299 
14.33280754 -12.82086658 -1.851666093 0.9256334901 
15.91360283 -10.80029964 -1.851880193 0.9256252646 
16.37878609 -10.0821209 -1.851941824 0.9256228805 
19.70205307 -6.732729435 -2.004801512 0.9197366238 
20.58375931 -3.138168812 -2.004894257 0.9197332263 
20.78131485 -1.296281695 -2.004903793 0.9197328687 
20.81838799 -0.3706689477 -2.004899502 0.9197329283 
20.81412888 0.5558569431 -2.004888773 0.9197334051 
20.76864052 1.481269479 -2.004871845 0.9197340012 
20.55426216 3.321218252 -2.004820108 0.9197359681 
20.38583946 4.232101917 -2.004785061 0.919737339 
15.79394531 10.9257679 -1.849204779 0.9257286191 
15.2862215 11.61280155 -1.848464727 0.9257572293 
14.74871445 12.27656841 -1.847742438 0.9257850647 
12.96908283 14.11482048 -1.845702887 0.9258639216 
12.32419205 14.67266369 -1.845067382 0.9258884788 
10.96426201 15.69984245 -1.843878746 0.9259343743 
7.557139874 11.91758251 -1.358799458 0.9448701739 
7.665462494 13.36834335 -1.483816385 0.9399528503 
7.550109863 16.39177895 -1.737734318 0.9300453663 
7.269174576 17.82932281 -1.853972554 0.9255444407 
5.643829823 18.3660183 -1.850062728 0.9256954789 
3.466025352 13.37060261 -1.329996109 0.9460065961 
2.837137461 13.36725521 -1.315793157 0.946567595 
2.220452785 13.36398888 -1.304445624 0.9470158815 
1.571254253 20.73018456 -2.00181365 0.9198513627 
-3.040850878 20.55884743 -2.001127243 0.919877708 
-5.749082565 19.96717072 -2.000729561 0.919893086 
-6.63109827 19.69044495 -2.000600815 0.9198979735 
-7.500040054 19.37472916 -2.000474453 0.9199028015 
-9.191233635 18.62918091 -2.000230312 0.919912219 
-10.51839066 17.25904274 -1.946162343 0.921990335 
-11.410676 15.44375229 -1.848933697 0.9257391095 
-12.09727955 14.93447399 -1.850612998 0.9256742597 
-12.74332237 14.37425995 -1.849683166 0.9257101417 
-13.20020199 12.45786476 -1.747701883 0.9296583533 
-16.09477997 10.50988102 -1.850902557 0.9256629348 
-16.95919991 9.034612656 -1.85024941 0.9256882071 
-19.07176399 6.14059782 -1.929241538 0.9226415753 
-20.0222702 5.476486683 -1.998740673 0.9199693203 
-20.24579239 4.580431938 -1.99871695 0.919970274 
-20.42930412 3.675139189 -1.998699427 0.9199711084 
-13.58449554 1.212172866 -1.313235164 0.9466686249 
-18.77505875 -2.521384239 -1.999013305 0.926635325 
-18.64459229 -3.354128361 -1.999041915 0.9266343117 
-12.07688904 -2.73225832 -1.306614399 0.9514164329 
-9.83001709 -3.164982796 -1.08974719 0.9593136311 
-9.819181442 -3.651062012 -1.105476379 0.9587387443 
-9.915021896 -4.197685242 -1.136180758 0.9576172233 
-16.40849876 -7.824953556 -1.918308973 0.9294902682 
-16.31004333 -9.643776894 -1.999458313 0.9266196489 
-14.97374439 -9.777838707 -1.887142897 0.9305949807 
-14.21789074 -10.21436024 -1.847376704 0.9320067167 
-13.75003147 -10.83715057 -1.847453237 0.9320039749 
-13.25490665 -11.43858337 -1.847533822 0.9320011139 
-11.61627197 -13.10299015 -1.84780848 0.9319912195 
-11.10767555 -13.71267319 -1.86219418 0.9314804673 
-11.04356384 -14.94693089 -1.961081982 0.9279760122 
-9.865819931 -16.18834114 -2.000506163 0.9265825748 
-9.136445045 -16.61211586 -2.00061965 0.9265786409 
-6.05226326 -17.97158432 -2.00109458 0.9265618324 
-5.247155666 -18.22415733 -2.001217365 0.9265574813 
-4.43156004 -18.44067574 -2.001341581 0.9265530705 
-1.096794367 -18.93868828 -2.001844645 0.9265354276 
-0.2532494962 -18.96993446 -2.001971006 0.9265309572 
3.940144062 -18.56397247 -2.002592325 0.9265090227 
5.896315575 -16.5297966 -1.851947784 0.9318442941 
8.061379433 -15.63171577 -1.85596025 0.931701839 
7.291220665 -12.71572971 -1.546758294 0.9427474737 
9.393420219 -14.81330776 -1.850955725 0.93187958 
10.0435667 -14.3815012 -1.85104692 0.9318763018 
10.67386436 -13.92113972 -1.851134777 0.9318732619 
15.4320507 -9.689767838 -1.922861934 0.9293289185 
16.51945114 -9.374855995 -2.004355192 0.9264467359 
16.9205761 -8.630949974 -2.004406929 0.9264448881 
17.28817177 -7.869894981 -2.004453659 0.9264432192 
17.91988182 -6.302436352 -2.004530907 0.9264405966 
18.86981583 -2.192961454 -2.004628181 0.9264370799 
18.94871521 -1.351386666 -2.004631042 0.9264369607 
18.99002838 -0.5071386695 -2.004627943 0.9264371395 
18.95975113 1.182678223 -2.004605293 0.9264378548 
18.44976044 4.520676136 -2.004492998 0.9264418483 
18.23002434 5.336803913 -2.004451513 0.9264432788 
17.97418213 6.142323971 -2.004404306 0.9264448881 
16.03481674 7.12775135 -1.851704359 0.9318528771 
14.50640869 9.845345497 -1.85004127 0.9319120049 
14.04895973 10.47705936 -1.849363923 0.9319360256 
13.56413746 11.08766747 -1.84870255 0.9319595695 
13.05293465 11.67601299 -1.848058462 0.931982398 
12.51638889 12.24095345 -1.847432852 0.9320046306 
10.76556778 13.78492355 -1.845686913 0.932066679 
10.13876057 14.24602032 -1.845149994 0.9320857525 
7.674561501 11.86779785 -1.491385937 0.9447394013 
8.190246582 15.54051685 -1.853711605 0.93178159 
6.773221493 16.19888496 -1.852789521 0.9318144321 
6.039484501 16.4665699 -1.850812793 0.9318845868 
5.398690224 17.02702141 -1.884917259 0.9306738973 
2.962001801 13.36852551 -1.444918156 0.946414113 
2.343033314 13.36523819 -1.431866765 0.9468850493 
1.422694087 16.78710938 -1.77779901 0.9344816208 
-0.07820800692 17.57429886 -1.854535222 0.9317523837 
-2.607777119 18.78425026 -2.001210928 0.9265578389 
-4.266471863 18.47589493 -2.000966787 0.926566422 
-5.891015053 18.02143669 -2.000729322 0.9265747666 
-6.686449051 17.74052238 -2.000613689 0.9265788794 
-8.9867239 16.68994713 -2.000281572 0.9265905619 
-9.719755173 16.2728138 -2.000176907 0.9265942574 
-11.50915146 13.21729851 -1.84941268 0.9319343567 
-12.09514999 12.70214558 -1.850854754 0.9318830967 
-12.65771008 12.16065407 -1.852244496 0.931833744 
-13.68407345 10.98400879 -1.851651907 0.9318547845 
-13.14982414 9.625611305 -1.719659805 0.9365547895 
-15.39007092 8.375337601 -1.848938584 0.9319511652 
-15.74172115 7.679670334 -1.848271489 0.9319748282 
-16.06135941 6.969035625 -1.847535968 0.9320009947 
-16.34966469 6.245461464 -1.846880436 0.9320243001 
-17.97986412 5.966098309 -1.999040127 0.9266344309 
-18.22719955 5.160307407 -1.999011993 0.9266354442 
-18.43849373 4.344336033 -1.998989344 0.926636219 
-18.6133461 3.519799709 -1.998972178 0.9266368151 
-13.76573181 1.35194087 -1.459609509 0.9458842874 
-13.56617737 0.1207324192 -1.431617975 0.94689399 
-13.55597782 -0.4827856421 -1.431391716 0.9469020963 
-13.54576778 -1.087311983 -1.434004903 0.9468078017 
-18.79671669 -2.354201555 -1.999008298 0.9266355038 
-18.6736145 -3.188049316 -1.999035716 0.9266346097 
-12.52051449 -2.715720177 -1.351941347 0.9497740865 
-10.26885986 -2.710761547 -1.120735049 0.9581812024 
-9.831913948 -3.06929183 -1.086886168 0.9594182372 
-9.821613312 -3.55279541 -1.10214293 0.9588604569 
-16.65042114 -7.759201527 -1.938440919 0.9287772775 
-16.80080795 -8.759135246 -1.999375463 0.9266226292 
-16.39510536 -9.498175621 -1.999444127 0.9266201258 
-15.21725082 -9.744787216 -1.906827092 0.9298970699 
-14.30813217 -10.08735085 -1.847361922 0.932007134 
-12.83988476 -11.90356445 -1.847601891 0.9319985509 
-12.29825211 -12.46353722 -1.847693563 0.9319954515 
-11.1505537 -13.51785851 -1.849140406 0.9319440126 
-10.71503925 -15.63764381 -2.000373602 0.9265874028 
-9.283823013 -16.52994919 -2.000596762 0.9265794754 
-8.539794922 -16.92757034 -2.000712156 0.9265753031 
-5.40906477 -18.17650604 -2.001192808 0.9265583754 
-4.595441818 -18.4002552 -2.001316547 0.9265540242 
-2.942214251 -18.73825455 -2.001567125 0.9265450835 
-2.105886221 -18.85174942 -2.00169301 0.9265406728 
-1.265285611 -18.92796135 -2.001819372 0.9265362024 
0.4220922887 -18.96789169 -2.002071619 0.9265273213 
1.265519977 -18.93153572 -2.002197266 0.926522851 
2.106540442 -18.85767365 -2.002321959 0.9265184999 
2.94350338 -18.74643707 -2.002445698 0.9265142083 
3.774729013 -18.59810257 -2.002568007 0.9265097976 
5.001301289 -16.80625725 -1.850331664 0.9319016933 
7.209841251 -16.02694511 -1.85448432 0.9317542315 
7.242873192 -12.8960371 -1.560787797 0.9422434568 
9.261130333 -14.89617443 -1.850937128 0.9318801761 
9.915090561 -14.47016335 -1.851029038 0.9318769574 
10.54946041 -14.01546097 -1.851117373 0.9318737984 
11.16299057 -13.53292179 -1.851202369 0.9318708181 
