# .PCD v0.7 - Point Cloud Data file format
VERSION 0.7
FIELDS x y z intensities
SIZE 4 4 4 4
TYPE F F F F
COUNT 1 1 1 1
WIDTH 925
HEIGHT 1
VIEWPOINT 0 0 0 1 0 0 0
POINTS 925
DATA ascii
-13.29702854 4.543982029 -2.004662991 0.9448046684 
-13.48624516 3.948071241 -2.004700661 0.9448036551 
-13.64874458 3.34429431 -2.004732847 0.9448027611 
-13.89229965 2.118022442 -2.004780769 0.9448015094 
-13.97287083 1.49793458 -2.004796028 0.9448010921 
-13.95893002 -1.622246027 -2.004787207 0.944801271 
-13.75919151 -2.856418371 -2.004743338 0.9448025227 
-13.61830997 -3.465617657 -2.004713297 0.9448032975 
-12.51644993 -6.384465218 -2.004480362 0.9448094964 
-11.55415058 -7.99280262 -2.004278898 0.9448149204 
-11.18673325 -8.49852562 -2.004202127 0.9448170066 
-9.954790115 -9.910575867 -2.003945351 0.9448238611 
-9.503624916 -10.34312439 -2.003851652 0.9448263049 
-9.03368187 -10.75511169 -2.003753901 0.9448289275 
-8.041200638 -11.51427937 -2.003550768 0.9448344111 
-7.520641804 -11.85996056 -2.003444195 0.9448372722 
-6.436052322 -12.48006821 -2.003222227 0.9448432326 
-4.716869831 -13.22333717 -2.002869606 0.9448526502 
-4.123735428 -13.41926956 -2.002748013 0.9448558688 
-2.91435051 -13.73097897 -2.002499342 0.9448624849 
-2.300517559 -13.84613514 -2.002373219 0.944865942 
-1.682202101 -13.9338789 -2.002245903 0.9448693395 
-0.437045902 -14.02646732 -2.001990557 0.9448761344 
0.187324211 -14.03112507 -2.001862049 0.9448795915 
0.8112353086 -14.00800037 -2.001733541 0.9448830485 
1.43347168 -13.95714569 -2.001605272 0.9448865056 
2.60422349 -13.44366455 -1.953528285 0.9461739063 
3.585578442 -12.45323944 -1.848756313 0.948985815 
5.73244381 -11.61881542 -1.848307729 0.9489979148 
6.243268967 -11.35169125 -1.848202944 0.9490006566 
7.226711273 -10.75067806 -1.848001242 0.9490060806 
8.623898506 -9.727648735 -1.85457778 0.9488293529 
9.407982826 -9.705695152 -1.928344846 0.9468489885 
10.19463158 -9.621317863 -1.999791265 0.9449350238 
11.0085125 -8.676408768 -1.999624848 0.9449394941 
11.38313961 -8.177817345 -1.999548435 0.9449415207 
11.735219 -7.663083553 -1.99947679 0.944943428 
12.06408215 -7.133237362 -1.999409795 0.9449452162 
12.64959431 -6.032382488 -1.999290824 0.9449484348 
12.9050827 -5.463576317 -1.999239206 0.9449498057 
13.79135513 -2.481037617 -1.999061227 0.9449545145 
13.88793659 -1.865082979 -1.999042273 0.9449550509 
13.95705795 -1.245422363 -1.99902904 0.9449554086 
14.01244068 -2.441406195e-06 -1.999019623 0.944955647 
13.95709229 1.245432138 -1.999032974 0.9449552894 
13.88797855 1.865075588 -1.999048233 0.9449548721 
13.79141617 2.481042385 -1.999069214 0.9449542761 
13.51670361 3.697111845 -1.999127746 0.944952786 
13.3391304 4.294802189 -1.999165297 0.9449517131 
13.13514614 4.884028435 -1.999208212 0.9449505806 
12.90518284 5.463615417 -1.999256492 0.9449493885 
12.64970875 6.032438755 -1.999310136 0.9449478984 
11.14580822 6.590275764 -1.847221017 0.9490270615 
10.51669788 7.555348873 -1.847352266 0.9490236044 
10.17059994 8.016017914 -1.847424269 0.9490216374 
9.803830147 8.460406303 -1.847402811 0.9490222335 
9.01001358 9.295118332 -1.846773148 0.9490391016 
8.145796776 10.05618 -1.846228719 0.9490537643 
7.689394474 10.40721989 -1.845989347 0.9490602016 
7.229470253 10.75477791 -1.848705053 0.948987186 
5.744626522 11.643507 -1.85223341 0.948892355 
5.224046707 11.89448357 -1.853318095 0.9488632083 
4.686583042 12.10689259 -1.852062583 0.9488969445 
4.140536785 12.29490948 -1.850788951 0.9489312172 
3.081796885 12.82400131 -1.881560802 0.9481045008 
2.668024778 13.77306366 -2.001395226 0.9448920488 
2.052834511 13.87898159 -2.001522303 0.944888711 
0.8112585545 14.00831032 -2.001778364 0.9448818564 
-2.300568819 13.84645844 -2.002419472 0.9448646903 
-2.914432287 13.7312851 -2.002545834 0.9448612928 
-4.716984749 13.22364807 -2.002916574 0.9448513985 
-7.520838261 11.86024189 -2.003492355 0.9448359609 
-8.041399956 11.51455307 -2.003599167 0.9448331594 
-8.546082497 11.14603043 -2.003702641 0.944830358 
-9.503837585 10.34335804 -2.003898621 0.9448251128 
-9.954999924 9.9108181 -2.003991127 0.9448226094 
-10.38649559 9.458585739 -2.004079342 0.9448202252 
-10.79748058 8.987545967 -2.004163265 0.9448178411 
-11.55437946 7.992938042 -2.004316568 0.9448139071 
-12.78858852 5.821616173 -2.004561901 0.944807291 
-13.03520012 5.247082233 -2.0046103 0.9448060393 
-13.25600815 4.662116528 -2.004654646 0.9448048472 
-13.95897388 1.622238755 -2.004793406 0.9448011518 
-14.01738453 0.9996997118 -2.004804373 0.9448008537 
-14.0480175 0.3751538098 -2.00480938 0.9448007345 
-13.89224052 -2.118024826 -2.004772186 0.9448016882 
-13.78411102 -2.733869553 -2.004748821 0.9448023438 
-13.64865685 -3.344286919 -2.004719734 0.9448031187 
-13.48614502 -3.948039532 -2.004684925 0.9448040724 
-13.08131599 -5.130829811 -2.004599333 0.9448063374 
-11.26202583 -8.398703575 -2.004217863 0.9448165298 
-10.87682343 -8.890991211 -2.004137278 0.9448187351 
-10.47011471 -9.365636826 -2.004052639 0.9448210001 
-10.04266548 -9.821691513 -2.003963709 0.9448233843 
-9.595380783 -10.25823498 -2.003870726 0.9448258281 
-8.644870758 -11.06937695 -2.00367403 0.9448309541 
-7.09346199 -12.11958027 -2.003356695 0.9448395967 
-6.546953201 -12.42244339 -2.003244877 0.944842577 
-5.987514496 -12.70065117 -2.003130198 0.9448456764 
-4.243046761 -13.38218975 -2.002772331 0.9448552132 
-1.806171894 -13.91854668 -2.002271414 0.9448686242 
-0.561860323 -14.02221394 -2.002016306 0.9448754191 
0.6865527034 -14.01484585 -2.001759291 0.9448823333 
1.929223537 -13.89657974 -2.001503229 0.9448891878 
2.916015625 -12.62782955 -1.848897338 0.9489820004 
4.569990158 -12.1250782 -1.848548055 0.9489912987 
5.628884315 -11.66952324 -1.848329067 0.9489972591 
8.062958717 -10.13706303 -1.8478297 0.9490107298 
9.244963646 -9.70892334 -1.912566185 0.9472723007 
11.30998707 -8.278860092 -1.999563456 0.9449411035 
12.59547615 -6.144745827 -1.99930191 0.9449481368 
13.09111786 -5.000712872 -1.999201417 0.9449507594 
13.30033398 -4.413332462 -1.999159336 0.9449518919 
13.48322678 -3.817248344 -1.99912262 0.9449529052 
13.6394701 -3.21363759 -1.999091268 0.9449537396 
13.99248981 -0.7478783727 -1.999022484 0.9449555874 
14.0118866 -0.1246997043 -1.999019623 0.944955647 
13.9675951 1.12116456 -1.99903059 0.944955349 
13.81290531 2.358190775 -1.999064445 0.9449544549 
13.69450188 2.970341682 -1.999089956 0.9449537992 
13.54903507 3.576669931 -1.999120951 0.9449529052 
13.37674999 4.175910473 -1.99915731 0.9449519515 
13.17800713 4.766916275 -1.999199152 0.9449509382 
12.70282936 5.919599533 -1.99929893 0.9449481964 
11.9328537 6.221218109 -1.919810891 0.9470779896 
11.20394707 6.490766525 -1.847208858 0.9490274191 
10.90449238 6.982980728 -1.847271323 0.9490256906 
10.5834446 7.461437702 -1.847338319 0.9490239024 
9.879108429 8.373139381 -1.847470403 0.9490203261 
8.672400475 9.608707428 -1.8465451 0.9490453005 
6.8454566 11.01068211 -1.849615097 0.9489627481 
4.250385761 12.25927734 -1.851045132 0.9489243031 
2.79044795 13.74860287 -2.001369953 0.9448927641 
2.176231623 13.85999012 -2.001496792 0.9448894262 
1.557641625 13.94397545 -2.001624346 0.9448859692 
0.9358801246 14.00035954 -2.001752615 0.9448825121 
-0.3122082353 14.0299387 -2.002010107 0.944875598 
-0.9360607862 14.00305176 -2.002138376 0.9448722005 
-2.17724371 13.86619377 -2.002394199 0.9448654056 
-2.792084932 13.7565012 -2.0025208 0.9448619485 
-3.401473284 13.61953449 -2.002646208 0.9448586106 
-4.004196644 13.45556641 -2.002769947 0.9448553324 
-5.760492802 12.80516338 -2.003131151 0.9448458552 
-7.414909363 11.92656994 -2.003470659 0.9448365569 
-10.30180645 9.550563812 -2.004061937 0.9448207021 
-10.71690273 9.083226204 -2.004146814 0.9448184967 
-11.48270893 8.095376015 -2.004302263 0.9448142648 
-12.15757751 7.043237209 -2.004434824 0.9448107481 
-13.58698463 3.586660147 -2.004720688 0.9448030591 
-13.7332859 2.978757143 -2.004749775 0.9448022842 
-14.04412365 0.5001635551 -2.004808664 0.9448007345 
-14.03295898 -0.750039041 -2.004804134 0.9448008537 
-13.80793381 -2.611096144 -2.004754066 0.944802165 
-13.67791271 -3.222697735 -2.004726171 0.9448029995 
-13.33686733 -4.425461292 -2.004653215 0.9448049068 
-12.02993393 -7.258312702 -2.004378319 0.9448122978 
-11.69474602 -7.78599596 -2.004308224 0.9448141456 
-10.95561981 -8.793928146 -2.004153967 0.9448181987 
-10.55314445 -9.272179604 -2.004070044 0.9448204637 
-10.12978935 -9.732013702 -2.003981829 0.9448228478 
-9.686396599 -10.17251682 -2.003889561 0.9448253512 
-8.743020058 -10.99213314 -2.003694057 0.9448306561 
-8.245029449 -11.36958981 -2.003592253 0.9448332787 
-6.657319069 -12.36383247 -2.003267527 0.9448419213 
-4.362016678 -13.34408951 -2.002796888 0.9448544979 
-3.763876915 -13.52407932 -2.002674103 0.9448578358 
-3.158349514 -13.67725754 -2.002549648 0.9448612332 
-1.929990172 -13.90209198 -2.002296925 0.9448679686 
-0.06245605275 -14.03259945 -2.001913548 0.944878161 
0.5618212819 -14.02058315 -2.00178504 0.944881618 
1.184872985 -13.98081303 -2.001656532 0.9448850751 
1.805502892 -13.91337109 -2.00152874 0.9448885322 
2.422475576 -13.81842041 -2.001401663 0.94489187 
4.461928844 -12.16540241 -1.848571181 0.9489908218 
4.998391151 -11.95415497 -1.848459005 0.9489937425 
6.040383339 -11.46126175 -1.848244548 0.9489995241 
6.543879032 -11.1806078 -1.848141313 0.9490022659 
9.084546089 -9.712070465 -1.897185445 0.9476850629 
9.912463188 -9.694318771 -1.977977514 0.9455189705 
10.44758797 -9.345493317 -1.999739528 0.9449363351 
10.8525238 -8.871125221 -1.999656796 0.9449385405 
11.59714127 -7.870851994 -1.999504805 0.9449426532 
13.44876671 -3.937094688 -1.999129415 0.9449527264 
13.61036873 -3.334894896 -1.999097109 0.9449536204 
13.74506569 -2.726125479 -1.999070406 0.9449542761 
13.93270969 -1.493659616 -1.99903357 0.9449552894 
14.00745583 0.3740746975 -1.999021292 0.944955647 
13.97701359 0.9968163967 -1.999028444 0.9449554086 
13.58028793 3.455913067 -1.999114156 0.944953084 
13.00026131 5.233024597 -1.999236584 0.9449498653 
12.75494099 5.806296349 -1.999288082 0.9449484348 
11.26732349 6.394220829 -1.84819603 0.9490007758 
10.96613026 6.885622501 -1.847258568 0.9490260482 
10.6493578 7.366865158 -1.84732461 0.9490243196 
10.31151867 7.833599567 -1.847394943 0.9490223527 
9.953225136 8.28489399 -1.847469568 0.9490203857 
9.573433876 8.718187332 -1.847204447 0.9490275979 
8.757831573 9.531439781 -1.846600771 0.9490437508 
8.323947906 9.910135269 -1.846330643 0.9490510225 
6.226355076 8.91558075 -1.551361084 0.9570128322 
5.433909893 11.79743767 -1.852974772 0.948872447 
4.359914303 12.22264957 -1.851300478 0.9489174485 
3.809256554 12.3958931 -1.850017309 0.9489519596 
2.912685394 13.72304153 -2.001344681 0.9448934197 
2.299492121 13.83991146 -2.001471281 0.9448900223 
0.4370129406 14.02551365 -2.001855612 0.9448797703 
-0.1873413026 14.03198719 -2.001984119 0.9448762536 
-2.053707123 13.88486385 -2.002368689 0.9448660016 
-3.280092716 13.64908314 -2.002621174 0.9448593259 
-5.646285057 12.85588455 -2.003107548 0.944846034 
-7.835011959 11.65562248 -2.003556967 0.9448342323 
-9.318078041 10.51066017 -2.003860712 0.9448261261 
-9.776867867 10.08623886 -2.003954649 0.9448235631 
-10.21631336 9.64177227 -2.004044533 0.9448211789 
-10.63554287 9.178166389 -2.004130125 0.9448189139 
-11.03370476 8.696323395 -2.004211426 0.9448168874 
-11.41010571 8.197200775 -2.00428772 0.9448147416 
-11.76396465 7.681782246 -2.004358053 0.9448125362 
-12.09434414 7.151103497 -2.004421949 0.9448110461 
-12.6828146 6.048215389 -2.00454092 0.9448078871 
-12.93962765 5.478195667 -2.004590988 0.9448065758 
-13.17081547 4.897287369 -2.00463748 0.9448053241 
-13.37590504 4.306652546 -2.004678488 0.9448041916 
-13.55447483 3.707448721 -2.004714251 0.9448032379 
-13.92784405 1.870417476 -2.004787445 0.9448013306 
-13.99735546 1.249016047 -2.004800558 0.9448009133 
-13.92779732 -1.870414972 -2.004780293 0.9448015094 
-13.83065414 -2.48812747 -2.004758835 0.9448020458 
-13.37578106 -4.30661869 -2.00466156 0.9448046684 
-13.170681 -4.897248268 -2.004618168 0.9448058605 
-12.93949699 -5.478141785 -2.004569292 0.9448071122 
-12.09414005 -7.151022911 -2.00439167 0.9448118806 
-11.76366138 -7.681679726 -2.004322529 0.9448137283 
-11.03352737 -8.696151733 -2.004170179 0.9448178411 
-9.776639938 -10.08601284 -2.003908396 0.9448248148 
-8.840656281 -10.91397667 -2.003713846 0.9448300004 
-8.345964432 -11.2958765 -2.003612995 0.9448327422 
-7.834819317 -11.65534401 -2.003508329 0.9448355436 
-7.308200359 -11.99168205 -2.003400564 0.9448384047 
-6.767155647 -12.30423355 -2.003289938 0.9448413849 
-6.212766171 -12.59236526 -2.003176451 0.9448444247 
-5.646140099 -12.85552692 -2.003060341 0.9448474646 
-3.279985189 -13.64878178 -2.002574682 0.944860518 
-2.669428587 -13.78031445 -2.002449036 0.9448638558 
-2.053652287 -13.88453865 -2.002322435 0.9448673129 
-1.433896422 -13.96126175 -2.002194881 0.9448706508 
-0.1873388588 -14.03166676 -2.001939297 0.9448775053 
1.060419917 -13.99097347 -2.001682281 0.9448844194 
1.681635737 -13.92907429 -2.001554251 0.9448878169 
2.299438477 -13.83959675 -2.001426935 0.9448912144 
2.745783567 -12.93670177 -1.88666594 0.9479674101 
3.80657959 -12.387146 -1.848709702 0.9489870071 
4.891848087 -11.99831295 -1.848481059 0.948993206 
5.420405388 -11.76813221 -1.848371863 0.9489961267 
5.938212872 -11.51469231 -1.848265529 0.9489989877 
6.444191933 -11.23850822 -1.848161697 0.9490017891 
7.416752815 -10.62012386 -1.847962141 0.9490071535 
8.330451012 -9.917898178 -1.847774863 0.9490122199 
8.926618576 -9.715144157 -1.882189631 0.9480876327 
9.741735458 -9.698503494 -1.961059928 0.9459721446 
10.77322006 -8.967407227 -1.999673009 0.9449382424 
11.526721 -7.973801136 -1.999519348 0.9449422956 
12.18899155 -6.917302132 -1.999384403 0.9449458718 
12.75481701 -5.806232929 -1.999269485 0.9449489713 
13.21978951 -4.649392128 -1.999175549 0.9449514151 
13.41324711 -4.056638241 -1.999136567 0.9449525476 
13.5802002 -3.455905676 -1.999103189 0.9449534416 
13.83327103 -2.235168457 -1.999053001 0.9449547529 
13.91889095 -1.617590308 -1.999036312 0.9449551702 
13.97698689 -0.9968237281 -1.999025345 0.9449554682 
14.01023197 0.2494165003 -1.999020457 0.944955647 
13.8526268 2.111974955 -1.999055862 0.9449546933 
13.74511909 2.726125479 -1.999079108 0.9449540973 
13.61044121 3.334909678 -1.999107718 0.9449533224 
13.26067352 4.531550407 -1.999181747 0.9449513555 
13.04625225 5.117096901 -1.999226928 0.9449501038 
11.31754589 6.290261269 -1.847185135 0.9490280151 
11.0268898 6.78770256 -1.847245932 0.9490264058 
10.38073254 7.7414608 -1.847380638 0.9490227699 
9.651014328 8.632940292 -1.847269654 0.9490257502 
8.842578888 9.453422546 -1.846657395 0.9490422606 
7.965096474 10.19902325 -1.846130371 0.9490563869 
6.274183273 8.815888405 -1.543669224 0.9572213888 
7.038613319 10.88439274 -1.849157214 0.9489750862 
5.537931919 11.7470293 -1.85272634 0.9488791227 
5.010145187 11.982337 -1.852818251 0.9488766789 
4.469127178 12.1850481 -1.851555228 0.948910594 
2.422531605 13.81870842 -2.00144577 0.9448907375 
1.184904814 13.9811182 -2.001701355 0.944883883 
-0.06242431328 14.03291225 -2.001958609 0.9448769689 
-0.6866479516 14.01714611 -2.002087116 0.9448735714 
-1.30958128 13.97361565 -2.002215624 0.9448701143 
-2.546750546 13.80366993 -2.002470255 0.9448633194 
-3.158460617 13.67756271 -2.00259614 0.9448599815 
-4.362148285 13.34437466 -2.002843618 0.9448533058 
-5.531578064 12.905406 -2.003083944 0.9448468685 
-6.100522518 12.64729691 -2.003201008 0.9448438287 
-7.201287746 12.05640316 -2.003427029 0.9448376894 
-7.730893612 11.72475529 -2.003535509 0.9448348284 
-8.245231628 11.36985207 -2.00364089 0.944832027 
-8.743279457 10.99238586 -2.003743172 0.9448292851 
-9.224063873 10.59309101 -2.0038414 0.9448266029 
-9.68661499 10.1727705 -2.003936052 0.9448240399 
-10.12998772 9.732242584 -2.00402689 0.9448217154 
-11.33664894 8.298341751 -2.004272938 0.9448150396 
-12.03015137 7.258400917 -2.004409552 0.9448114038 
-12.89030266 5.593102932 -2.004581213 0.9448068142 
-13.80799866 2.61111331 -2.004764318 0.9448019266 
-13.91061974 1.994316339 -2.004784346 0.9448013902 
-13.98566151 1.373557091 -2.004798651 0.9448010325 
-14.0524826 0.1250829995 -2.004809856 0.9448006749 
-14.04409409 -0.5001953244 -2.004806757 0.9448008537 
-13.94389629 -1.746428132 -2.00478363 0.9448014498 
-13.73318577 -2.978769541 -2.004737854 0.9448026419 
-13.58686447 -3.586664915 -2.004706621 0.9448035359 
-13.21380329 -4.779875278 -2.004627228 0.9448055625 
-12.98778534 -5.362800121 -2.004579544 0.9448068738 
-12.73603725 -5.93507576 -2.004526377 0.9448083043 
-12.45905495 -6.495558739 -2.004468441 0.944809854 
-12.15738487 -7.043129921 -2.004405022 0.9448115826 
-10.30158901 -9.550332069 -2.004017591 0.9448218942 
-9.866084099 -9.998724937 -2.003926992 0.9448242784 
-8.446245193 -11.22128105 -2.003633261 0.9448321462 
-7.414701939 -11.92629337 -2.003422499 0.9448378682 
-4.59895277 -13.2646265 -2.002845526 0.9448533058 
-2.792016506 -13.75619888 -2.002474308 0.9448631406 
-1.558129907 -13.94812679 -2.002220392 0.9448699951 
-0.3121728301 -14.02963066 -2.001965046 0.94487679 
0.9358837605 -14.00004101 -2.001707792 0.9448837042 
1.557626963 -13.94365978 -2.001579762 0.9448871613 
2.17621088 -13.85968971 -2.001452446 0.9448905587 
3.140258789 -12.57361317 -1.848850369 0.948983252 
3.696210861 -12.42067146 -1.848732829 0.9489864707 
4.244807243 -12.24319077 -1.848616719 0.9489895701 
4.78493166 -12.04150581 -1.848503232 0.94899261 
6.343979359 -11.29555893 -1.848182201 0.949001193 
6.839782715 -11.00155735 -1.848080516 0.9490039349 
7.78969717 -10.34902096 -1.847885728 0.9490091801 
10.27977562 -9.530109406 -1.99977386 0.9449355006 
11.08521748 -8.578024864 -1.999609351 0.9449398518 
11.45539284 -8.076125145 -1.999533772 0.9449418783 
11.80288792 -7.558302879 -1.999462962 0.9449437261 
12.12701893 -7.025548935 -1.999397039 0.9449455142 
12.70271492 -5.919548035 -1.999280095 0.9449486732 
13.37666512 -4.175888538 -1.999143958 0.9449523091 
13.69443798 -2.97036624 -1.99908042 0.9449540377 
13.90396214 -1.741364717 -1.999039054 0.9449551105 
14.00357914 -0.4986962676 -1.999020696 0.944955647 
14.01188469 0.1247241199 -1.999019861 0.9449557066 
13.99251461 0.7479003668 -1.999024868 0.9449554682 
13.94547844 1.369606853 -1.999035597 0.9449551702 
13.87084961 1.988610744 -1.999051929 0.9449548125 
13.48330498 3.817267895 -1.999134779 0.9449526072 
13.30043221 4.413354397 -1.999173403 0.9449514747 
13.09122562 5.000751972 -1.99921751 0.9449503422 
12.59560013 6.144802094 -1.999321342 0.9449476004 
10.77863216 7.176042557 -1.847297668 0.9490250349 
6.152161598 11.42566395 -1.85126245 0.9489185214 
5.117300987 11.93889332 -1.853068709 0.948869884 
4.578038216 12.14644527 -1.851809382 0.9489037991 
3.475538254 12.48792171 -1.849240541 0.9489728212 
2.545350313 13.79642773 -2.001420498 0.9448914528 
1.309227228 13.96985245 -2.001675606 0.9448845387 
0.06242919713 14.03272438 -2.001932859 0.9448776841 
-1.806215763 13.91885471 -2.002317667 0.9448674321 
-3.036552668 13.70497513 -2.002571106 0.9448605776 
-3.643422842 13.55718231 -2.002695799 0.9448572397 
-4.834531307 13.18130112 -2.002940893 0.9448507428 
-5.416418552 12.95397758 -2.003060341 0.9448475242 
-5.98764658 12.70096397 -2.003177643 0.9448443651 
-7.093605995 12.11988354 -2.003404856 0.9448383451 
-7.626195908 11.79295254 -2.003514051 0.9448353648 
-8.143665314 11.44264412 -2.003620148 0.9448325634 
-9.129357338 10.67462826 -2.003822088 0.944827199 
-10.47034359 9.365839958 -2.004096508 0.944819808 
-11.26227379 8.398846626 -2.004257917 0.9448153973 
-11.62511921 7.889843464 -2.004330635 0.9448135495 
-12.28116417 6.825825214 -2.004459858 0.9448100328 
-13.297019 4.544011116 -2.004662991 0.9448046684 
-13.64875221 3.344269991 -2.004732847 0.9448027611 
-14.05080032 0.2501049638 -2.004809618 0.9448007345 
-14.04801464 -0.3751708865 -2.004807949 0.9448007345 
-13.95893002 -1.622246027 -2.004787207 0.944801271 
-13.75919151 -2.856418371 -2.004743338 0.9448025227 
-13.03508282 -5.247011662 -2.004589558 0.9448065758 
-12.78843212 -5.821508884 -2.004537344 0.9448080063 
-12.51643562 -6.384494305 -2.004480362 0.9448094964 
-12.2196579 -6.934733868 -2.004418135 0.9448111653 
-11.89868164 -7.471208096 -2.004350901 0.9448129535 
-11.55414009 -7.992809772 -2.004278898 0.9448149204 
-9.954777718 -9.910583496 -2.003945351 0.9448238611 
-9.03368187 -10.75511169 -2.003753901 0.9448289275 
-8.545876503 -11.14576435 -2.003653765 0.9448316097 
-7.520654202 -11.85995579 -2.003444195 0.9448372722 
-6.985256195 -12.18209648 -2.003334522 0.9448401928 
-5.874206543 -12.75328064 -2.003107071 0.9448462725 
-4.123701096 -13.41926956 -2.002748013 0.9448558688 
-2.914335966 -13.73097897 -2.002499342 0.9448624849 
-2.300502777 -13.84613514 -2.002373219 0.944865942 
-1.060649395 -13.99405003 -2.002118587 0.9448726773 
0.187324211 -14.03112507 -2.001862049 0.9448795915 
0.8112353086 -14.00800037 -2.001733541 0.9448830485 
1.43347168 -13.95714569 -2.001605272 0.9448865056 
2.052788019 -13.87869358 -2.001477718 0.9448898435 
6.741703987 -11.06209946 -1.848100662 0.9490033984 
7.697392464 -10.41802025 -1.847904563 0.9490087032 
8.623898506 -9.727648735 -1.85457778 0.9488293529 
9.407982826 -9.705695152 -1.928344846 0.9468489885 
10.19463158 -9.621317863 -1.999791265 0.9449350238 
11.00850105 -8.676423073 -1.999624848 0.9449394941 
11.38313007 -8.177824974 -1.999548435 0.9449415207 
11.73521423 -7.663100243 -1.99947679 0.944943428 
12.36906433 -6.589328289 -1.999347806 0.9449468851 
12.9050951 -5.463551998 -1.999239206 0.9449497461 
13.5166254 -3.697067738 -1.999115825 0.944953084 
13.66751194 -3.092099428 -1.999085784 0.9449538589 
13.79135513 -2.481022835 -1.999061227 0.9449545145 
13.88794422 -1.865065932 -1.999042273 0.9449549913 
13.99859333 0.6233202815 -1.999023438 0.9449555874 
13.95709229 1.245417476 -1.999032974 0.9449552894 
13.79141808 2.481027842 -1.999069214 0.9449542761 
13.1351366 4.884059906 -1.999208212 0.9449505806 
12.90517807 5.463644981 -1.999256492 0.9449493289 
11.68559742 6.225222111 -1.888870478 0.9479082227 
11.1458025 6.590280533 -1.847221017 0.9490270615 
10.51668549 7.555362225 -1.847352266 0.9490236044 
10.17059994 8.016017914 -1.847424269 0.9490216374 
9.803830147 8.460406303 -1.847402811 0.9490222335 
9.416119576 8.886583328 -1.84707725 0.9490309358 
8.586302757 9.685230255 -1.846490145 0.9490466714 
6.748071194 11.07253551 -1.849846125 0.9489565492 
6.252771854 11.36902523 -1.851023078 0.9489248395 
4.686569691 12.10689545 -1.852062583 0.9488969445 
4.14052248 12.29491711 -1.850788951 0.9489312172 
2.668024778 13.77306366 -2.001395226 0.9448920488 
1.433508277 13.9574604 -2.001650095 0.9448852539 
0.8112585545 14.00831032 -2.001778364 0.9448818564 
0.1873290986 14.03143501 -2.00190711 0.9448783994 
-0.4370568693 14.02677917 -2.002035856 0.9448749423 
-1.682228923 13.93420506 -2.002292395 0.9448680878 
-2.91440177 13.73129082 -2.002545834 0.9448612928 
-3.522613525 13.58888626 -2.002671003 0.944857955 
-6.436227798 12.48036671 -2.003269911 0.9448419213 
-6.98541975 12.18239117 -2.003382444 0.9448388815 
-7.520838261 11.86024189 -2.003492355 0.9448359609 
-8.041399956 11.51455307 -2.003599167 0.9448331594 
-9.033896446 10.75537586 -2.003802538 0.9448276758 
-9.503837585 10.34335804 -2.003898621 0.9448251128 
-10.79743958 8.987565994 -2.004163265 0.9448179007 
-11.18695259 8.498702049 -2.004242659 0.9448159337 
-11.55436707 7.992961407 -2.004316568 0.9448138475 
-11.89890766 7.471271992 -2.004384518 0.944812119 
-12.51663017 6.384513855 -2.004507303 0.9448088408 
-13.03521061 5.247053146 -2.0046103 0.9448060393 
-13.25600815 4.662116528 -2.004654646 0.9448048472 
-13.87286568 2.241562366 -2.004776955 0.9448016286 
-14.01738453 0.9996997118 -2.004804373 0.9448008537 
-13.78410339 -2.733893871 -2.004748821 0.9448023438 
-13.29689407 -4.543979168 -2.004644871 0.9448051453 
-11.96479511 -7.36504364 -2.004364729 0.9448125958 
-10.87682343 -8.890991211 -2.004137278 0.9448187351 
-9.595402718 -10.25821781 -2.003870726 0.9448258281 
-9.129137993 -10.67438221 -2.003773689 0.9448284507 
-8.14341259 -11.44241428 -2.00357151 0.9448338151 
-6.546923637 -12.42245865 -2.003244877 0.944842577 
-5.987504959 -12.70066643 -2.003130198 0.9448456168 
-1.806171894 -13.91854668 -2.002271414 0.9448686242 
-0.5618847609 -14.0222044 -2.002016306 0.9448754191 
0.06242675707 -14.03242397 -2.001887798 0.9448788762 
1.309257746 -13.96953297 -2.001631021 0.9448857903 
2.916047335 -12.62782001 -1.848897338 0.9489820004 
3.474677563 -12.48481178 -1.848780036 0.9489851594 
4.569990158 -12.1250782 -1.848548055 0.9489912987 
5.104509354 -11.90904999 -1.848436952 0.9489943981 
5.628884315 -11.66952324 -1.848329067 0.9489972591 
6.142070293 -11.40692616 -1.848223686 0.9490001202 
7.130822659 -10.8146925 -1.848020911 0.9490055442 
7.604438305 -10.48623276 -1.847923636 0.9490081668 
8.505488396 -9.767873764 -1.84773922 0.9490131736 
10.5302639 -9.252036095 -1.9997226 0.9449368715 
10.93095398 -8.774096489 -1.999640822 0.9449390769 
11.30999947 -8.278842926 -1.999563456 0.9449411035 
12.00021935 -7.240339279 -1.999422908 0.9449448586 
12.3100338 -6.69915247 -1.999359846 0.9449465275 
12.59547615 -6.144745827 -1.99930191 0.9449481368 
13.09111786 -5.000712872 -1.999201417 0.9449507594 
13.30033398 -4.413332462 -1.999159336 0.9449518919 
14.01188946 -0.1247338876 -1.999019623 0.944955647 
13.54903507 3.576669931 -1.999120951 0.9449529052 
13.37674999 4.175910473 -1.99915731 0.9449519515 
12.95323658 5.348527908 -1.999246478 0.9449496269 
11.20394707 6.490766525 -1.847208858 0.9490274191 
10.90449238 6.982980728 -1.847271323 0.9490256906 
10.5834589 7.461408615 -1.847338319 0.9490239024 
9.879117012 8.373112679 -1.847470403 0.9490203857 
9.092646599 9.21487999 -1.846832275 0.9490374923 
8.235182762 9.983570099 -1.846279263 0.9490523934 
7.323985577 10.68872166 -1.848481536 0.948993206 
6.8454566 11.01068211 -1.849615097 0.9489627481 
5.847233772 11.59037971 -1.851988792 0.9488989711 
5.329417706 11.84691143 -1.853224277 0.9488657713 
4.250385761 12.25927734 -1.851045132 0.9489243031 
3.140325785 12.57391548 -1.848896027 0.94898206 
2.79047966 13.74859619 -2.001369953 0.9448927641 
1.55766964 13.94396973 -2.001624346 0.9448859692 
0.9358532429 14.0003624 -2.001752615 0.9448825121 
0.3121569753 14.02903938 -2.001881361 0.944879055 
-0.3122375309 14.0299387 -2.002010107 0.944875598 
-1.55817008 13.94844437 -2.002266645 0.9448687434 
-2.17724371 13.86619377 -2.002394199 0.9448654056 
-3.401473284 13.61953449 -2.002646208 0.9448586106 
-4.004196644 13.45556641 -2.002769947 0.9448553324 
-4.599067211 13.26494694 -2.002892494 0.9448519945 
-6.876619816 12.24393749 -2.003360271 0.9448395371 
-8.446456909 11.22154236 -2.003682137 0.9448308945 
-9.866321564 9.99890995 -2.003972769 0.9448231459 
-10.30182457 9.550545692 -2.004061937 0.9448207021 
-11.48270893 8.095376015 -2.004302263 0.9448142648 
-13.21393013 4.779907227 -2.004646301 0.9448050857 
-13.41374493 4.187463284 -2.004686117 0.9448040128 
-13.58697319 3.586696625 -2.004720688 0.9448030591 
-13.73326969 2.978784084 -2.004749775 0.9448023438 
-14.00792789 1.124372482 -2.004802704 0.9448009133 
-14.04412365 0.500141561 -2.004808664 0.9448007345 
-14.03295422 -0.7500708103 -2.004804134 0.9448009133 
-13.98562717 -1.373561978 -2.004792929 0.9448011518 
-13.91056156 -1.994313955 -2.004776478 0.9448016286 
-13.80793381 -2.611096144 -2.004754066 0.944802165 
-13.67791271 -3.222697735 -2.004726171 0.9448029995 
-13.33686733 -4.425461292 -2.004653215 0.9448049068 
-13.12652588 -5.014233112 -2.004608631 0.9448060989 
-12.89016533 -5.593051434 -2.00455904 0.9448074102 
-12.02995586 -7.258300781 -2.004378319 0.9448122382 
-11.33638668 -8.29823494 -2.00423336 0.9448161125 
-10.55312443 -9.272199631 -2.004070044 0.9448204637 
-9.22388649 -10.59283447 -2.003793478 0.944827795 
-8.245029449 -11.36958981 -2.003592253 0.9448332787 
-6.657319069 -12.36383247 -2.003267527 0.9448419213 
-6.100385666 -12.64701176 -2.003153324 0.9448450208 
-4.362045765 -13.34406948 -2.002796888 0.9448545575 
-3.763911009 -13.52407455 -2.002674103 0.9448577762 
-2.546621084 -13.80336189 -2.002423763 0.9448645115 
-1.929960847 -13.90209198 -2.002296925 0.9448679686 
-0.6866259575 -14.01683331 -2.002042055 0.9448747635 
-0.06242675707 -14.03259945 -2.001913548 0.944878161 
1.805502892 -13.91337109 -2.00152874 0.9448885322 
2.422475576 -13.81842041 -2.001401663 0.94489187 
3.916591644 -12.35261917 -1.848686337 0.9489876628 
4.461928844 -12.16540241 -1.848571181 0.9489908218 
6.040361404 -11.46127701 -1.848244548 0.9489995241 
7.034394264 -10.87780762 -1.848040581 0.9490050673 
7.510917664 -10.55357933 -1.847942948 0.94900769 
7.972521782 -10.20849323 -1.847848296 0.949010253 
8.418330193 -9.843263626 -1.847756863 0.9490126371 
9.912463188 -9.694318771 -1.977977514 0.9455189705 
11.23595715 -8.379252434 -1.999578476 0.9449406862 
11.59714127 -7.870851994 -1.999504805 0.9449426532 
12.2499876 -6.808517933 -1.999372005 0.9449461699 
12.54035091 -6.256650448 -1.999312997 0.9449478388 
12.80591488 -5.692475319 -1.999259114 0.9449492693 
13.04615974 -5.117072582 -1.999210596 0.9449504614 
13.26056576 -4.531559944 -1.999167323 0.9449517131 
13.44877911 -3.937072754 -1.999129415 0.9449527264 
13.74507332 -2.726096153 -1.999070406 0.9449542761 
13.85258484 -2.111945868 -1.999049187 0.9449548721 
13.93271255 -1.493627906 -1.99903357 0.9449552894 
13.98529053 -0.8723681569 -1.999023795 0.9449555874 
14.01022148 -0.2493823171 -1.999019742 0.944955647 
13.97701359 0.9968163967 -1.999028444 0.9449554086 
13.83331776 2.23516345 -1.999060154 0.9449545741 
13.58028793 3.455913067 -1.999114156 0.944953084 
13.41333199 4.05666256 -1.999149561 0.9449521899 
13.21988487 4.649416447 -1.999190331 0.9449510574 
13.00028038 5.23299551 -1.999236584 0.9449498057 
12.75495052 5.806266785 -1.999288082 0.9449484348 
9.573433876 8.718187332 -1.847204447 0.9490275979 
9.174610138 9.133876801 -1.846892357 0.9490358829 
6.226355076 8.91558075 -1.551361084 0.9570128322 
4.902681828 12.02482128 -1.852567196 0.9488834143 
3.80922842 12.39589977 -1.85001719 0.9489519596 
2.912653685 13.72305393 -2.001344681 0.9448934197 
2.299470186 13.83991051 -2.001471281 0.9448900223 
1.681643009 13.92936993 -2.001598835 0.9448866844 
0.4370129406 14.02551365 -2.001855612 0.9448797703 
-0.8114013672 14.01065254 -2.002112865 0.9448728561 
-1.43393302 13.96158886 -2.002241135 0.9448693991 
-2.053707123 13.88486385 -2.002368689 0.9448660016 
-3.884216309 13.49050522 -2.00274539 0.944855988 
-4.480749607 13.30518055 -2.002868176 0.9448527098 
-6.767344952 12.30451012 -2.00333786 0.9448400736 
-7.835033894 11.65560436 -2.003556967 0.9448342323 
-9.318078041 10.51066017 -2.003860712 0.9448261261 
-10.21631336 9.64177227 -2.004044533 0.9448211789 
-11.03370476 8.696323395 -2.004211426 0.9448168874 
-12.40083504 6.606245041 -2.004483938 0.9448094964 
-12.68281364 6.048185825 -2.00454092 0.9448079467 
-13.17082691 4.897260666 -2.00463748 0.9448053241 
-13.55448246 3.707417011 -2.004714251 0.9448032379 
-13.99735546 1.249016047 -2.004800558 0.9448009133 
-14.05303669 -4.882812391e-06 -2.004809618 0.9448006749 
-14.03908825 -0.6251294017 -2.004805565 0.9448008537 
-13.99730682 -1.249008775 -2.00479579 0.9448011518 
-13.92779732 -1.870414972 -2.004780293 0.9448015094 
-13.83066177 -2.488093138 -2.004758835 0.9448020458 
-13.70610332 -3.100827456 -2.004731894 0.9448027611 
-13.55437183 -3.707394838 -2.004699469 0.9448037148 
-13.17066574 -4.897275448 -2.004618168 0.9448058605 
-12.9394846 -5.478173733 -2.004569292 0.9448071122 
-9.317855835 -10.51041698 -2.003813028 0.9448273778 
-8.345983505 -11.29586124 -2.003612995 0.9448327422 
-7.308227539 -11.99166489 -2.003400564 0.9448384047 
-6.212736607 -12.59238052 -2.003176451 0.9448444247 
-3.884125948 -13.49020195 -2.00269866 0.9448571801 
-2.053652287 -13.88453865 -2.002322435 0.9448673129 
-1.433896422 -13.96126175 -2.002194881 0.9448706508 
1.060390592 -13.99097347 -2.001682281 0.9448844194 
2.299409151 -13.83960629 -2.001426935 0.9448912144 
3.25199461 -12.54499245 -1.848826885 0.9489839077 
3.806601524 -12.38714314 -1.848709702 0.9489870071 
4.353559494 -12.20476818 -1.848593831 0.9489902258 
4.891867638 -11.99830055 -1.848481059 0.948993206 
5.420427322 -11.76811981 -1.848371863 0.9489961267 
7.416752815 -10.62012386 -1.847962141 0.9490071535 
8.926618576 -9.715144157 -1.882189631 0.9480876327 
9.741735458 -9.698503494 -1.961059928 0.9459721446 
10.36406708 -9.438195229 -1.999756575 0.9449359179 
10.77320004 -8.967431068 -1.999673009 0.9449382424 
11.52674007 -7.973776817 -1.999519348 0.9449422956 
13.00016785 -5.232956409 -1.999219894 0.9449502826 
13.41324711 -4.056638241 -1.999136567 0.9449525476 
13.72029495 -2.84834218 -1.999075294 0.9449541569 
13.91889095 -1.617590308 -1.999036312 0.9449551702 
13.97698689 -0.9968237281 -1.999025345 0.9449554682 
14.01023674 0.2493847609 -1.999020457 0.944955647 
13.85262203 2.112006903 -1.999055862 0.9449546933 
13.74511909 2.726157188 -1.999079108 0.9449540973 
13.6104393 3.33493638 -1.999107718 0.9449533224 
13.04625225 5.117096901 -1.999226928 0.9449501038 
12.80602551 5.692512035 -1.999277353 0.9449487925 
11.31754589 6.290261269 -1.847185135 0.9490280151 
11.0268898 6.78770256 -1.847245932 0.9490264058 
10.71440697 7.271757603 -1.84731102 0.9490246773 
10.38073254 7.7414608 -1.847380638 0.9490227699 
10.02647686 8.195893288 -1.847454309 0.9490208626 
9.651014328 8.632940292 -1.847269654 0.9490257502 
9.255850792 9.052147865 -1.846953034 0.9490342736 
8.412069321 9.835927963 -1.846382976 0.9490496516 
7.038599491 10.88441372 -1.849157214 0.9489750266 
4.469127178 12.1850481 -1.851555228 0.948910594 
3.363769531 12.51660538 -1.848980546 0.948979795 
3.034651995 13.6963768 -2.001319647 0.9448941946 
2.422531605 13.81870842 -2.00144577 0.9448907375 
0.5618371367 14.02087879 -2.001829863 0.9448804855 
-1.930067062 13.90241146 -2.002343178 0.9448667169 
-2.546750546 13.80366993 -2.002470255 0.9448633194 
-3.158460617 13.67756271 -2.00259614 0.9448599815 
-3.764001369 13.52438354 -2.002720833 0.9448565841 
-4.951728344 13.13793182 -2.002964973 0.9448500276 
-6.657471657 12.36411572 -2.00331521 0.9448407292 
-7.201287746 12.05640316 -2.003427029 0.9448376894 
-8.743279457 10.99238586 -2.003743172 0.9448292851 
-9.68661499 10.1727705 -2.003936052 0.9448240399 
-10.55338764 9.272348404 -2.004113436 0.9448193908 
-11.33664894 8.298341751 -2.004272938 0.9448150396 
-12.62842464 6.160817623 -2.004529953 0.9448081851 
-13.12664795 5.014274597 -2.004628658 0.9448055625 
-13.80799866 2.61111331 -2.004764318 0.9448019266 
-13.98566151 1.373557091 -2.004798651 0.9448010325 
-14.03296947 0.7500659227 -2.004806995 0.9448008537 
-14.04409409 -0.5001953244 -2.004806757 0.9448008537 
-13.94389629 -1.746428132 -2.00478363 0.9448014498 
-13.73318577 -2.978769541 -2.004737854 0.9448026419 
-13.58686447 -3.586664915 -2.004706621 0.9448035359 
-13.41363239 -4.187428951 -2.004669666 0.94480443 
-13.21380329 -4.779875278 -2.004627228 0.9448055625 
-12.98778534 -5.362800121 -2.004579544 0.9448068738 
-12.73603725 -5.93507576 -2.004526377 0.9448083043 
-12.45905495 -6.495558739 -2.004468441 0.944809854 
-12.15738487 -7.043129921 -2.004405022 0.9448115826 
-11.48248291 -8.095233917 -2.004263878 0.9448153377 
-10.71669674 -9.083022118 -2.004104137 0.9448195696 
-10.30154514 -9.550377846 -2.004017591 0.9448219538 
-9.411090851 -10.42720413 -2.00383234 0.9448268414 
-8.937506676 -10.83499241 -2.003733873 0.944829464 
-8.446245193 -11.22128105 -2.003633261 0.9448321462 
-7.938315392 -11.58528996 -2.003529549 0.9448349476 
-7.414701939 -11.92629337 -2.003422499 0.9448378682 
-6.87646246 -12.24365711 -2.003312349 0.9448407888 
-5.760370731 -12.80490685 -2.003083706 0.9448469281 
-5.184762955 -13.04771233 -2.002965689 0.9448500872 
-4.59895277 -13.2646265 -2.002845526 0.9448533058 
-4.004101276 -13.45524597 -2.002723455 0.9448565841 
-2.792016506 -13.75619888 -2.002474308 0.9448631406 
-2.177187443 -13.86588097 -2.002347708 0.9448665977 
-0.3121728301 -14.02963066 -2.001965046 0.94487679 
0.3122070134 -14.02872276 -2.0018363 0.9448802471 
2.672346115 -13.16656017 -1.916644573 0.9471629262 
4.244807243 -12.24319077 -1.848616719 0.9489895701 
4.78493166 -12.04150581 -1.848503232 0.94899261 
6.839782715 -11.00155735 -1.848080516 0.9490039349 
8.771196365 -9.718141556 -1.867575765 0.9484801292 
10.69307804 -9.063005447 -1.999689341 0.9449377656 
11.80285835 -7.558347225 -1.999462962 0.9449437261 
12.12701893 -7.025548935 -1.999397039 0.9449455142 
12.70271492 -5.919548035 -1.999280095 0.9449486732 
13.37668228 -4.175834656 -1.999143958 0.9449523091 
13.5489254 -3.576652765 -1.999109507 0.9449533224 
13.69444752 -2.970309973 -1.99908042 0.9449540377 
13.81283665 -2.358215332 -1.999056935 0.9449546933 
13.96757317 -1.121191382 -1.999027014 0.9449554682 
14.01188469 0.1246630847 -1.999019861 0.9449557066 
13.94548321 1.369548321 -1.999035597 0.9449551702 
13.87084961 1.988610744 -1.999051929 0.9449548125 
13.48329544 3.817319155 -1.999134779 0.9449526072 
13.30043221 4.413354397 -1.999173403 0.9449514747 
12.85612488 5.578273773 -1.999266982 0.9449490309 
12.59557629 6.14485836 -1.999321342 0.9449476004 
11.45040989 6.231349945 -1.859744668 0.9486905336 
10.77863216 7.176042557 -1.847297668 0.9490250349 
10.09896374 8.106254578 -1.84743917 0.9490212202 
8.499539375 9.760948181 -1.846436143 0.9490481615 
6.36009264 8.770251274 -1.545531869 0.9571708441 
6.152161598 11.42566395 -1.85126245 0.9489185214 
5.641478062 11.69573498 -1.852479339 0.9488857388 
5.117300987 11.93889332 -1.853068709 0.948869884 
3.47548461 12.48793888 -1.849240422 0.9489727616 
1.929295659 13.8968811 -2.001547813 0.9448879957 
0.6866027713 14.01515102 -2.001804113 0.9448811412 
-1.185190439 13.98458099 -2.002189875 0.9448706508 
-1.806276798 13.91884708 -2.002317667 0.9448674321 
-3.036611319 13.70496559 -2.002571106 0.9448605776 
-4.243204117 13.38249969 -2.0028193 0.9448539615 
-4.834531307 13.18130112 -2.002940893 0.9448507428 
-7.093605995 12.11988354 -2.003404856 0.9448383451 
-7.626195908 11.79295254 -2.003514051 0.9448353648 
-8.143616676 11.44267941 -2.003620148 0.9448325634 
-9.129309654 10.67467022 -2.003822088 0.944827199 
-10.87710667 8.891132355 -2.004179478 0.944817543 
-11.6251545 7.889790058 -2.004330635 0.9448135495 
-12.28119469 6.825778484 -2.004459858 0.9448100328 
-12.57301331 6.272934437 -2.004518747 0.9448084831 
-13.08144283 5.130896091 -2.004619598 0.9448058009 
-13.64875221 3.344269991 -2.004732847 0.9448027611 
-13.78417683 2.733906269 -2.00475955 0.9448020458 
-13.89230156 2.117995501 -2.004780769 0.9448015094 
-13.97286606 1.49798584 -2.004796028 0.9448010921 
-13.95893002 -1.622246027 -2.004787207 0.944801271 
-13.75919151 -2.856418371 -2.004743338 0.9448025227 
-13.61829758 -3.465654135 -2.004713297 0.9448032975 
-13.03508282 -5.247011662 -2.004589558 0.9448065758 
-12.78840542 -5.821557522 -2.004537344 0.9448080063 
-12.51646709 -6.384440899 -2.004480362 0.9448094964 
-12.2196579 -6.934733868 -2.004418135 0.9448111653 
-11.89870834 -7.471149921 -2.004350901 0.9448130131 
-11.18675995 -8.498493195 -2.004202127 0.944816947 
-10.79717541 -8.987389565 -2.004120827 0.9448190928 
-9.954777718 -9.910583496 -2.003945351 0.9448238611 
-8.545827866 -11.14579773 -2.003653765 0.9448316693 
-6.985256195 -12.18209648 -2.003334522 0.9448401928 
-6.436010361 -12.48008728 -2.003222227 0.9448432326 
-5.874206543 -12.75328064 -2.003107071 0.9448462725 
-5.300886154 -13.00122738 -2.002989531 0.9448491335 
-4.716894627 -13.22332764 -2.002869606 0.9448526502 
-4.123701096 -13.41926956 -2.002748013 0.9448558688 
-1.06067872 -13.99403572 -2.002118587 0.9448726773 
0.1873876899 -14.03112507 -2.001862049 0.9448795915 
1.433530211 -13.95714569 -2.001605272 0.944886446 
3.028244495 -12.60122299 -1.848873854 0.948982656 
4.135712624 -12.28064156 -1.848639607 0.9489889741 
4.677670956 -12.0837574 -1.848525643 0.9489920139 
6.243242264 -11.35170174 -1.848202944 0.9490006566 
6.741703987 -11.06209946 -1.848100662 0.9490033984 
8.152746201 -10.06483173 -1.847811341 0.9490112066 
10.19463158 -9.621317863 -1.999791265 0.9449350238 
10.61210155 -9.157855988 -1.999705911 0.9449373484 
11.38315868 -8.177780151 -1.999548435 0.9449415207 
11.73521423 -7.663100243 -1.99947679 0.944943428 
12.06410599 -7.133198261 -1.999409795 0.9449452162 
12.6496067 -6.032360554 -1.999290824 0.9449483752 
12.90506554 -5.463608265 -1.999239206 0.9449498057 
13.88791943 -1.865124464 -1.999042273 0.9449550509 
13.95705795 -1.245422363 -1.99902904 0.9449554086 
14.01244068 -2.441406195e-06 -1.999019623 0.944955647 
13.95709229 1.245417476 -1.999032974 0.9449552894 
13.79141808 2.481027842 -1.999069214 0.9449542761 
13.66755581 3.092160463 -1.999095559 0.9449536204 
13.51671124 3.69708252 -1.999127746 0.944952786 
13.339118 4.294836521 -1.999165297 0.9449517131 
13.13515568 4.884001255 -1.999208212 0.9449505806 
11.68559742 6.225222111 -1.888870478 0.9479082227 
11.14583206 6.590241432 -1.847221017 0.9490270615 
10.51672363 7.555318356 -1.847352266 0.9490236044 
10.17059994 8.016017914 -1.847424269 0.9490216374 
9.803795815 8.460448265 -1.847402573 0.9490222335 
9.416119576 8.886583328 -1.84707725 0.9490309358 
7.689403057 10.40721321 -1.845989347 0.9490602016 
7.229435921 10.75480175 -1.848705292 0.9489871264 
6.748071194 11.07253551 -1.849846125 0.9489565492 
5.74464941 11.64349365 -1.852233291 0.948892355 
4.686621189 12.10687733 -1.852062821 0.9488969445 
4.14052248 12.29491711 -1.850788951 0.9489312172 
3.587064028 12.4582386 -1.84950006 0.9489657879 
1.433443546 13.95746517 -2.001650095 0.9448852539 
0.8112585545 14.00831032 -2.001778364 0.9448818564 
-1.060712814 13.99435043 -2.002164364 0.9448714852 
-2.300611496 13.84645271 -2.002419472 0.9448646903 
-2.91440177 13.73129082 -2.002545834 0.9448612928 
-3.522613525 13.58888626 -2.002671003 0.944857955 
-4.717013836 13.22363949 -2.002916574 0.9448513985 
-5.300832272 13.00151348 -2.003036499 0.9448481798 
-5.874334812 12.75358391 -2.003154516 0.9448450208 
-8.546138763 11.14599133 -2.003702641 0.944830358 
-9.503880501 10.34331608 -2.003898621 0.9448251128 
-10.38649654 9.45854187 -2.004079342 0.9448203444 
-10.79743958 8.987565994 -2.004163265 0.9448179007 
-11.18698597 8.498654366 -2.004242659 0.9448159337 
-11.55436707 7.992961407 -2.004316568 0.9448138475 
-12.21983337 6.934831619 -2.004447222 0.9448104501 
-12.78859138 5.821660042 -2.004561901 0.9448072314 
-13.25598812 4.662172794 -2.004654646 0.9448048472 
-13.61841297 3.465551615 -2.004726887 0.9448029399 
-13.95897388 1.622238755 -2.004793406 0.9448011518 
-14.01739216 0.9996459484 -2.004804373 0.9448008537 
-14.0480175 0.3751538098 -2.00480938 0.9448007345 
-13.9728241 -1.497993112 -2.004790068 0.944801271 
-13.48613739 -3.948068857 -2.004684925 0.9448040724 
-13.29691124 -4.543923378 -2.004644871 0.9448051453 
-13.0813055 -5.130856991 -2.004599333 0.9448063374 
-11.96479511 -7.36504364 -2.004364729 0.9448125958 
-10.87678719 -8.891036987 -2.004137278 0.9448187351 
-10.47011471 -9.365636826 -2.004052639 0.9448210001 
-10.04264641 -9.821716309 -2.003963709 0.9448233843 
-9.595402718 -10.25821781 -2.003870726 0.9448258281 
-9.129103661 -10.67441845 -2.003773689 0.9448284507 
-8.644738197 -11.06935501 -2.003673792 0.9448313713 
-7.093437195 -12.11959648 -2.003356695 0.9448395967 
-5.987504959 -12.70066643 -2.003130198 0.9448456168 
-3.036420822 -13.70467472 -2.002524614 0.9448618293 
-2.423686504 -13.82530022 -2.002398491 0.9448652267 
-1.806118131 -13.91855717 -2.002271414 0.9448685646 
4.026342869 -12.31710625 -1.848663092 0.9489883184 
4.569936275 -12.12508965 -1.848548055 0.9489913583 
5.104509354 -11.90904999 -1.848436952 0.9489943981 
5.628937721 -11.66949654 -1.848328948 0.9489972591 
6.643088341 -11.12175465 -1.848120809 0.9490029216 
8.062958717 -10.13706303 -1.8478297 0.9490107298 
9.244924545 -9.708920479 -1.91256237 0.9472724199 
10.08614922 -9.690031052 -1.995344639 0.9450540543 
10.53021908 -9.252087593 -1.9997226 0.9449368715 
12.00018024 -7.24039793 -1.999422908 0.9449448586 
12.3100338 -6.69915247 -1.999359846 0.9449465275 
12.59544849 -6.144797325 -1.99930191 0.9449481368 
12.85601997 -5.578229904 -1.999249101 0.9449495077 
13.48323917 -3.817189932 -1.99912262 0.9449529052 
13.87078857 -1.98860836 -1.99904573 0.9449549913 
13.94543171 -1.369548321 -1.999031186 0.944955349 
14.0118866 -0.1246704087 -1.999019623 0.944955647 
14.00358391 0.4986840785 -1.999022126 0.9449555874 
13.81289482 2.358225107 -1.999064445 0.9449544549 
13.69450665 2.97031498 -1.999089956 0.9449537992 
13.54903507 3.576669931 -1.999120951 0.9449529052 
13.17800713 4.766916275 -1.999199152 0.9449509382 
12.70282936 5.919599533 -1.99929893 0.9449481964 
11.93273163 6.221218109 -1.91979599 0.9470784068 
10.5834589 7.461408615 -1.847338319 0.9490239024 
10.24143124 7.925143719 -1.847409606 0.9490220547 
9.495134354 8.802757263 -1.847140431 0.9490292668 
8.67238903 9.608736038 -1.8465451 0.9490452409 
8.235228539 9.983532906 -1.846279263 0.9490523934 
7.781894207 10.33864689 -1.846035361 0.9490589499 
7.324030399 10.68868637 -1.848481417 0.948993206 
6.8454566 11.01068211 -1.849615097 0.9489627481 
6.352947712 11.31141472 -1.850784659 0.9489313364 
5.329368591 11.84693813 -1.853224397 0.9488657713 
4.794804573 12.06634903 -1.852315307 0.9488901496 
3.698270082 12.42756081 -1.849758863 0.9489588737 
3.140278339 12.57393169 -1.848896027 0.94898206 
2.79047966 13.74859619 -2.001369953 0.9448927641 
2.176206112 13.85999393 -2.001496792 0.9448894262 
1.55766964 13.94396973 -2.001624346 0.9448859692 
-0.9360339046 14.00305176 -2.002138376 0.9448722005 
-2.792084932 13.7565012 -2.0025208 0.9448619485 
-4.599124432 13.26492691 -2.002892494 0.9448519945 
-5.184895039 13.04801846 -2.003012896 0.9448487759 
-6.876673222 12.24390888 -2.003360271 0.9448395371 
-8.446456909 11.22154236 -2.003682137 0.9448308945 
-9.411316872 10.42745113 -2.003879786 0.9448255897 
-10.30178356 9.550591469 -2.004061937 0.9448207021 
-11.11078453 8.597885132 -2.004227161 0.9448162913 
-11.83181953 7.5768857 -2.004371405 0.9448124766 
-12.45925713 6.495595455 -2.004495859 0.9448090792 
-12.73620796 5.935143948 -2.004551649 0.9448075891 
-13.21393013 4.779907227 -2.004646301 0.9448050857 
-13.41376686 4.187402248 -2.004686117 0.9448040128 
-13.58697319 3.586696625 -2.004720688 0.9448030591 
-13.85235405 2.364958525 -2.00477314 0.9448016286 
-14.00792217 1.124433517 -2.004802704 0.9448009133 
-14.05246639 -0.1250341833 -2.00480938 0.9448007345 
-13.91056156 -1.994313955 -2.004776478 0.9448016286 
-13.80791759 -2.611161947 -2.004754066 0.9448022246 
-13.67791271 -3.222697735 -2.004726171 0.9448029995 
-13.52078342 -3.827936888 -2.004692316 0.944803834 
-13.12650108 -5.014291763 -2.004608631 0.9448060989 
-12.89016533 -5.593051434 -2.00455904 0.9448074102 
-12.0299263 -7.258349419 -2.004378319 0.9448122382 
-11.69476318 -7.78597641 -2.004308224 0.9448141456 
-11.33638668 -8.29823494 -2.00423336 0.9448161125 
-10.95563984 -8.793906212 -2.004153967 0.9448181987 
-10.55312443 -9.272199631 -2.004070044 0.9448204637 
-10.12980652 -9.731989861 -2.003981829 0.9448228478 
-9.223883629 -10.5927906 -2.003793478 0.9448279738 
-6.657319069 -12.36383247 -2.003267527 0.9448419213 
-4.362045765 -13.34406948 -2.002796888 0.9448545575 
-1.930019498 -13.90209198 -2.002296925 0.944867909 
-0.6866845489 -14.01680851 -2.002042055 0.9448748231 
0.561757803 -14.02058315 -2.00178504 0.944881618 
1.184872985 -13.98081303 -2.001656532 0.9448850751 
1.805556655 -13.91336155 -2.00152874 0.9448885322 
2.422475576 -13.81842041 -2.001401663 0.94489187 
3.363449574 -12.51540947 -1.84880352 0.9489845037 
6.040410042 -11.46125507 -1.848244548 0.9489995241 
6.543857098 -11.18061256 -1.848141313 0.9490022659 
7.034394264 -10.87780762 -1.848040581 0.9490050673 
7.510876179 -10.5536108 -1.847942948 0.9490076303 
8.418286324 -9.84329319 -1.847756863 0.9490126967 
