# .PCD v0.7 - Point Cloud Data file format
VERSION 0.7
FIELDS x y z intensities
SIZE 4 4 4 4
TYPE F F F F
COUNT 1 1 1 1
WIDTH 925
HEIGHT 1
VIEWPOINT 0 0 0 1 0 0 0
POINTS 925
DATA ascii
3.456679583 -9.970014572 -2.001132727 0.9579485059 
4.328654766 -9.622270584 -2.000913858 0.9579530358 
4.752138615 -9.419701576 -2.000807285 0.9579551816 
5.166208267 -9.198478699 -2.000702858 0.957957387 
5.569987774 -8.95912075 -2.000601053 0.9579594135 
5.962712288 -8.702040672 -2.000501871 0.9579614997 
6.343598366 -8.427773476 -2.000405312 0.9579635262 
6.711904049 -8.136864662 -2.00031209 0.9579654336 
7.734199047 -7.170195103 -2.000051737 0.9579707384 
8.340227127 -6.453896523 -1.999896407 0.9579739571 
8.88021946 -5.686686993 -1.999757051 0.9579768181 
9.124091148 -5.285869122 -1.999693751 0.9579781294 
9.349931717 -4.874604225 -1.999634862 0.9579793215 
9.557252884 -4.453742504 -1.999580503 0.957980454 
9.91480732 -3.586496592 -1.999485731 0.9579824209 
10.06432629 -3.141840696 -1.999445558 0.9579832554 
10.39249229 -1.774252892 -1.999354839 0.9579851031 
10.46102238 -1.310185552 -1.999334574 0.9579855204 
10.53594971 -0.3752294779 -1.999309659 0.9579859972 
10.52757549 0.5626855493 -1.999305248 0.9579861164 
10.4921484 1.030439377 -1.999310851 0.9579859972 
10.4359808 1.496159673 -1.99932158 0.9579857588 
10.00667191 3.320424795 -1.999415517 0.9579838514 
9.261469841 5.040131569 -1.999588728 0.9579803348 
9.028349876 5.44727993 -1.999643803 0.9579791427 
8.46192646 6.194094181 -1.988705397 0.9582041502 
6.719174862 7.056398869 -1.847805858 0.9611070156 
6.398913383 7.348608017 -1.847883463 0.9611054063 
6.065939903 7.62631464 -1.847964287 0.9611037374 
5.364620209 8.136047363 -1.848138332 0.9611001015 
4.997636795 8.367045403 -1.848231912 0.9610981941 
4.234639645 8.7790308 -1.848423719 0.9610942602 
3.437966347 9.121630669 -1.84862113 0.9610902071 
3.028963566 9.266036987 -1.848721862 0.9610881209 
2.684642315 9.646185875 -1.898835659 0.9600546956 
1.914781451 10.37844181 -2.001390696 0.9579432011 
0.9848864675 10.50874996 -2.00162077 0.9579384923 
0.04697265476 10.55592346 -2.001853228 0.9579337239 
-3.636553764 9.91501236 -2.002771854 0.9579148293 
-4.503887653 9.55359745 -2.002989531 0.9579103589 
-4.924667835 9.344285965 -2.003095388 0.9579082131 
-6.866998196 8.029234886 -2.003585577 0.9578978419 
-7.554055214 7.387761116 -2.003757238 0.9578943849 
-8.181365967 6.687653542 -2.003916025 0.957891345 
-8.471071243 6.317333698 -2.003990173 0.9578897953 
-9.237454414 5.134135723 -2.004188061 0.9578856826 
-9.456961632 4.71827364 -2.004245281 0.9578845501 
-9.657743454 4.293034554 -2.004297733 0.9578834176 
-9.839381218 3.859265089 -2.004345655 0.9578824639 
-10.00154018 3.417824745 -2.004388571 0.9578815699 
-10.26608849 2.515458822 -2.004459381 0.9578801394 
-10.50991154 1.126699209 -2.004528522 0.9578787088 
-10.56856918 0.1881372035 -2.004549265 0.9578782916 
-10.54346657 -0.7519457936 -2.004549026 0.9578782916 
-10.43480492 -1.686047316 -2.004528046 0.9578787088 
-10.34937 -2.148530245 -2.004509926 0.9578791261 
-10.11718941 -3.059802294 -2.004458189 0.9578801394 
-9.970908165 -3.506767511 -2.00442481 0.957880795 
-9.804850578 -3.946755171 -2.004386425 0.9578816295 
-9.619372368 -4.378921032 -2.004343271 0.9578825235 
-9.191637993 -5.216289043 -2.00424242 0.9578846097 
-7.812751293 -7.114779949 -2.003912687 0.957891345 
-7.488232136 -7.454975605 -2.003834248 0.957893014 
-6.048925877 -8.661520958 -2.003484726 0.9579001665 
-3.987548828 -9.78033638 -2.002980471 0.9579104781 
-3.548346996 -9.947494507 -2.002872467 0.9579127431 
-3.102165461 -10.0949316 -2.002762794 0.9579150081 
-2.192404747 -10.32955074 -2.002538443 0.9579195976 
-1.73064208 -10.41625214 -2.002424479 0.9579219818 
-1.26550293 -10.48231888 -2.002309561 0.957924366 
-0.7979125977 -10.52763653 -2.002193689 0.9579266906 
0.1409130841 -10.55565929 -2.001960754 0.9579315186 
1.544345617 -10.44117165 -2.001611948 0.9579386711 
2.465966702 -10.26140118 -2.001381636 0.9579434395 
3.809165001 -9.840224266 -2.001044273 0.9579503536 
4.668169022 -9.461713791 -2.000828266 0.9579547644 
5.490095139 -9.008424759 -2.000621319 0.9579590559 
5.885097504 -8.754838943 -2.000521421 0.9579611421 
6.268410683 -8.483979225 -2.000424385 0.957963109 
7.340847015 -7.573142052 -2.000152111 0.9579687119 
9.076755524 -5.366894245 -1.99970603 0.9579778314 
9.306235313 -4.957670689 -1.999646306 0.9579790831 
9.709521294 -4.110678673 -1.999540329 0.9579812884 
10.03600788 -3.231303692 -1.999453187 0.9579830766 
10.169631 -2.781606436 -1.999417067 0.9579838514 
10.283144 -2.326440334 -1.999385834 0.9579844475 
10.37631035 -1.866677165 -1.999359369 0.9579850435 
10.44896984 -1.403246999 -1.99933815 0.9579854012 
10.5009613 -0.9370238781 -1.999322176 0.9579857588 
10.53216267 0.4689721465 -1.999304771 0.9579861164 
10.50089836 0.9370263219 -1.999309301 0.9579859972 
10.44887161 1.40322268 -1.999318957 0.9579858184 
10.37617874 1.866655231 -1.999333858 0.9579855204 
10.28297329 2.326398849 -1.999353766 0.9579851627 
10.16944027 2.781564951 -1.99937892 0.9579845667 
9.882289886 3.67452383 -1.999444127 0.9579832554 
9.076420784 5.366689205 -1.999632359 0.9579793811 
7.877866268 6.208984375 -1.902202606 0.9599852562 
7.376069069 6.365317345 -1.847647667 0.9611102939 
7.085886002 6.68739748 -1.847717404 0.9611088037 
6.463994026 7.291308403 -1.847867727 0.9611057043 
6.133515358 7.57197237 -1.847947836 0.9611040354 
5.790878773 7.837664604 -1.848031878 0.9611023664 
4.696866512 8.539978027 -1.84830761 0.9610966444 
3.518963575 9.090578079 -1.848601341 0.9610906243 
3.11127305 9.238618851 -1.848701715 0.9610885382 
1.544249177 10.44049549 -2.001482248 0.9579413533 
1.078353286 10.49945259 -2.001597643 0.9579389691 
-0.3287732005 10.55140018 -2.001946449 0.9579318166 
-0.7978625298 10.52694798 -2.002063036 0.9579293728 
-2.192274094 10.32888317 -2.00241065 0.9579222798 
-2.649748564 10.22172356 -2.002524853 0.9579198956 
-3.548130989 9.946875572 -2.002749681 0.9579153061 
-3.987318039 9.779728889 -2.002859831 0.9579130411 
-4.418647289 9.593205452 -2.002968311 0.9579107761 
-4.841267109 9.387647629 -2.003074646 0.9579086304 
-5.254344463 9.163467407 -2.003178596 0.9579064846 
-6.048675537 8.661056519 -2.003379107 0.9579022527 
-6.428179741 8.383824348 -2.003474951 0.9579004645 
-6.79510355 8.089959145 -2.003567457 0.957898438 
-7.148570538 7.780016899 -2.003656149 0.9578966498 
-7.487874508 7.454645634 -2.003740788 0.9578949213 
-8.121466637 6.760141373 -2.003900766 0.957891643 
-8.414464951 6.392421722 -2.003975868 0.9578900933 
-9.191335678 5.216117859 -2.00417614 0.9578859806 
-9.619101524 4.378798962 -2.00428772 0.957883656 
-9.804600716 3.946662426 -2.004336357 0.9578826427 
-10.24327087 2.606711388 -2.004453897 0.9578802586 
-10.49945259 1.220200181 -2.004525185 0.9578787684 
-10.54341984 0.7519433498 -2.004539251 0.9578784704 
-10.56647682 0.2821899354 -2.004548073 0.9578782916 
-10.56858826 -0.1881469637 -2.004551649 0.957878232 
-10.54975033 -0.6580883861 -2.00454998 0.957878232 
-10.44940853 -1.593120098 -2.004531145 0.9578786492 
-10.3681097 -2.056355 -2.004513979 0.9578790069 
-10.00174999 -3.417895317 -2.004431963 0.9578806758 
-9.83962822 -3.859352827 -2.004394531 0.9578814507 
-9.657993317 -4.293156624 -2.004352331 0.9578823447 
-9.2377491 -5.134316444 -2.004253387 0.9578843713 
-8.999956131 -5.54000473 -2.004197121 0.9578855038 
-8.744340897 -5.934694767 -2.004136086 0.9578867555 
-8.181720734 -6.687941551 -2.004001379 0.9578895569 
-7.554337978 -7.388114929 -2.003850222 0.9578926563 
-7.217915058 -7.716533184 -2.003768921 0.9578943253 
-6.867218971 -8.029633522 -2.003683805 0.9578960538 
-5.736601353 -8.870988846 -2.00340867 0.9579017162 
-5.336051941 -9.116952896 -2.003310919 0.9579037428 
-4.504167557 -9.554160118 -2.003107309 0.9579079151 
-4.074467659 -9.744563103 -2.003001928 0.9579100609 
-3.191916466 -10.06704044 -2.002784729 0.9579145312 
-2.740786076 -10.198493 -2.002673864 0.9579168558 
-2.284282207 -10.30974579 -2.002561092 0.9579191208 
-1.823364258 -10.40056133 -2.002447367 0.9579214454 
0.04694091529 -10.5566206 -2.001984119 0.9579310417 
0.5165014267 -10.5434618 -2.001867533 0.9579334259 
0.9849438071 -10.50944042 -2.001750946 0.9579358101 
1.451381803 -10.45462132 -2.001634836 0.9579381943 
2.374567747 -10.2830658 -2.001404762 0.957942903 
2.829479933 -10.16666508 -2.001290083 0.9579453468 
4.583845139 -9.502975464 -2.000849485 0.9579543471 
5.001767635 -9.289164543 -2.000744343 0.9579565525 
5.409755707 -9.057008743 -2.000641584 0.9579586387 
6.192712307 -8.539525986 -2.000443697 0.9579626918 
8.224155426 -6.601415634 -1.99992609 0.957973361 
9.028683662 -5.447499752 -1.999718547 0.9579775929 
9.26179409 -5.040302753 -1.999657869 0.9579789042 
10.26205826 -2.417878389 -1.999391556 0.9579843283 
10.54218483 -0.09382323921 -1.999306083 0.9579861164 
10.39237309 1.774228454 -1.999330401 0.95798558 
10.30325699 2.234780312 -1.999349475 0.9579852223 
10.19376469 2.690947294 -1.999373436 0.9579846859 
8.618383408 6.076039791 -1.999741197 0.9579771757 
8.019116402 6.205424786 -1.922899127 0.959558785 
6.843605995 6.935573578 -1.847775817 0.9611076117 
5.860351562 7.785747051 -1.848014593 0.9611026645 
3.599695921 9.058797836 -1.848581553 0.9610910416 
3.193344593 9.2104702 -1.84868145 0.9610888958 
2.787613392 9.367419243 -1.853434443 0.9609909058 
2.554410458 10.22787857 -1.999198437 0.9579883218 
1.171737075 10.48932076 -2.001574516 0.957939446 
-0.2348522842 10.55378437 -2.001923084 0.9579322934 
-1.637762427 10.43044758 -2.002272367 0.9579250813 
-3.011957884 10.12139606 -2.002615452 0.9579180479 
-3.459434748 9.97795105 -2.002727509 0.9579157233 
-4.757459641 9.430263519 -2.003053427 0.9579090476 
-5.172596455 9.209776878 -2.003158092 0.9579067826 
-7.4211936 7.520926476 -2.003724098 0.9578952193 
-7.748847485 7.183640003 -2.003805399 0.9578931928 
-8.060923576 6.832121372 -2.003885031 0.9578918815 
-8.357178688 6.466999531 -2.003961086 0.9578903913 
-8.636894226 6.089062214 -2.00403285 0.9578889012 
-8.899502754 5.699028015 -2.004100561 0.9578875303 
-9.144493103 5.297668457 -2.00416398 0.957886219 
-9.371390343 4.885790825 -2.00422287 0.9578849673 
-9.579707146 4.464203835 -2.004277229 0.9578838348 
-9.769044876 4.033747673 -2.004327059 0.9578828812 
-9.939035416 3.595275879 -2.00437212 0.9578819275 
-10.21956253 2.697687864 -2.004447222 0.9578806758 
-10.41924095 1.778815866 -2.00450182 0.9578792453 
-10.48817348 1.313588858 -2.004521847 0.957878828 
-10.56353474 0.3762133718 -2.004546642 0.9578783512 
-10.56983852 -0.0940624997 -2.004551411 0.957878232 
-10.51961422 -1.033144474 -2.004544973 0.9578783512 
-10.46318054 -1.50007081 -2.004534006 0.9578785896 
-10.17011166 -2.879267454 -2.00447011 0.9578799009 
-10.03181171 -3.32877183 -2.004438639 0.957880497 
-9.695871353 -4.207040787 -2.004361153 0.9578821659 
-8.796870232 -5.856681824 -2.004148722 0.957886517 
-8.527348518 -6.241987228 -2.004084349 0.957887888 
-8.240971565 -6.614916801 -2.004015684 0.9578892589 
-7.938266277 -6.974701881 -2.003942728 0.957890749 
-5.417023659 -9.069189072 -2.003330708 0.9579033256 
-5.007978439 -9.300720215 -2.003230572 0.9579054117 
-4.589055061 -9.513795853 -2.003128052 0.9579074979 
-3.72490716 -9.882980347 -2.002915859 0.957911849 
-3.281413555 -10.03834915 -2.002806902 0.957914114 
-2.831462383 -10.17381096 -2.002696037 0.957916379 
-1.915825129 -10.38403511 -2.002470255 0.9579210281 
-1.451909184 -10.45837593 -2.002355576 0.9579234123 
-0.985185504 -10.51200676 -2.002240181 0.9579257369 
-0.04704101384 -10.55674267 -2.002007484 0.9579305649 
0.4226977527 -10.54776573 -2.001890898 0.9579329491 
0.8913940191 -10.51791477 -2.001774311 0.9579353333 
1.358308077 -10.46724606 -2.001658201 0.9579377174 
1.82248044 -10.39585876 -2.001542568 0.9579401016 
2.282990694 -10.30390358 -2.00142765 0.9579424858 
2.738923311 -10.19156742 -2.001312733 0.9579448104 
3.633491039 -9.906683922 -2.001088381 0.9579494596 
4.499150276 -9.543480873 -2.000870943 0.9579539299 
4.918947697 -9.333425522 -2.000765085 0.9579560757 
5.728449345 -8.858383179 -2.000560999 0.9579603076 
6.116530418 -8.59436512 -2.000463009 0.9579623342 
6.49247551 -8.313384056 -2.000367641 0.9579642415 
7.205031395 -7.702729225 -2.000186682 0.957967937 
7.540222168 -7.374281883 -2.000101089 0.9579697251 
8.45365715 -6.304340839 -1.999867082 0.9579745531 
9.634919167 -4.282878399 -1.999559999 0.9579808712 
9.81566906 -3.849948645 -1.999512315 0.9579818249 
10.24016094 -2.509113789 -1.999397635 0.9579842091 
10.34149647 -2.051079035 -1.999369264 0.9579848051 
10.48265076 -1.12379396 -1.999328017 0.9579856396 
10.52219486 -0.65635252 -1.999315023 0.9579859376 
10.54093456 -0.1876318306 -1.999307036 0.9579861164 
10.5388422 0.2814501822 -1.999304295 0.9579861164 
10.51589298 0.7499780059 -1.999306917 0.9579861164 
10.47216511 1.217021465 -1.999314547 0.9579859376 
10.40773392 1.681669831 -1.999327302 0.9579856396 
10.32271194 2.14299798 -1.999345183 0.9579852819 
10.09165001 3.052067757 -1.999396324 0.9579842091 
9.946051598 3.4980371 -1.999429464 0.9579835534 
7.203671932 6.56013155 -1.847689033 0.9611093998 
6.904999733 6.874335766 -1.847761035 0.9611079097 
6.267206669 7.461467266 -1.847915292 0.9611047506 
5.579743385 7.989687443 -1.848084331 0.9611012936 
5.219074726 8.230399132 -1.848175764 0.9610993266 
4.848018646 8.454854965 -1.848269582 0.9610974193 
4.467348576 8.662593842 -1.848365545 0.9610954523 
3.275146484 9.18157959 -1.848661304 0.9610893726 
2.191090107 10.3232708 -2.001322508 0.9579446316 
1.265015841 10.47835445 -2.00155139 0.9579399228 
0.7976965308 10.52486324 -2.001667023 0.9579375386 
-0.6103564501 10.53923607 -2.002016544 0.9579303265 
-2.008027315 10.36602592 -2.002364635 0.9579232335 
-2.467366934 10.26702404 -2.002479315 0.9579207897 
-2.921765089 10.1476841 -2.002592802 0.9579185247 
-4.247111797 9.670120239 -2.002925158 0.9579116702 
-4.67331028 9.472126007 -2.003032446 0.9579094648 
-5.893347263 8.767188072 -2.003340006 0.9579032063 
-6.649959564 8.209464073 -2.003530741 0.9578990936 
-7.008893967 7.905875206 -2.003621101 0.9578972459 
-7.68441391 7.252263069 -2.003789425 0.957893908 
-7.999722958 6.903525352 -2.003869534 0.9578922987 
-8.582287788 6.165654182 -2.004018784 0.9578891993 
-8.848376274 5.777971268 -2.00408721 0.9578877687 
-9.539550781 4.549250603 -2.004266739 0.9578840733 
-9.732719421 4.120500565 -2.004317522 0.95788306 
-10.06086445 3.239301682 -2.004404545 0.9578812718 
-10.30930138 2.332343817 -2.004470825 0.9578798413 
-10.55976772 0.4702050686 -2.004544973 0.9578783512 
-10.52839851 -0.9394726157 -2.004546404 0.9578783512 
-10.19535828 -2.788659573 -2.004475832 0.9578797817 
-10.06106949 -3.23937726 -2.004445553 0.9578803778 
-9.906827927 -3.68364501 -2.004410028 0.9578811526 
-9.327773094 -4.969118595 -2.004274607 0.957883954 
-8.848689079 -5.778198242 -2.004161119 0.9578862786 
-8.582619667 -6.165903091 -2.004097462 0.9578875899 
-8.299570084 -6.541359901 -2.004029751 0.9578889608 
-7.684760571 -7.252592564 -2.003881693 0.9578920007 
-7.009179592 -7.906261921 -2.003718138 0.9578953385 
-6.650249004 -8.209870338 -2.003631115 0.9578971863 
-5.893688679 -8.767651558 -2.003446817 0.9579009414 
-5.497570515 -9.020709991 -2.003350258 0.9579029679 
-4.673588753 -9.472682953 -2.003148794 0.9579070807 
-4.247363091 -9.670700073 -2.003044128 0.9579092264 
-3.812768459 -9.849533081 -2.002937555 0.9579114318 
-3.370671272 -10.00885487 -2.002828836 0.9579136372 
-2.467458487 -10.26768017 -2.002606392 0.9579182267 
-1.078706026 -10.50294399 -2.002263308 0.9579253197 
-0.1409326196 -10.55602264 -2.002030849 0.957930088 
1.729909658 -10.41178703 -2.001565695 0.9579396248 
2.648149252 -10.21564674 -2.001335621 0.9579443932 
3.099780321 -10.0871706 -2.001222372 0.9579466581 
3.545224428 -9.938733101 -2.001110554 0.9579490423 
4.414057732 -9.58326149 -2.000892401 0.9579535127 
5.247809887 -9.152050972 -2.000682354 0.9579578042 
6.418285847 -8.370907784 -2.000386477 0.9579638839 
7.136250019 -7.766621113 -2.000204086 0.9579675794 
7.4743433 -7.441171646 -2.000118017 0.9579693675 
8.105490685 -6.746850491 -1.999956608 0.9579727054 
8.397277832 -6.379364967 -1.999881744 0.9579742551 
8.672424316 -5.999296665 -1.999810696 0.9579757452 
8.930415154 -5.607397556 -1.999744058 0.9579770565 
9.17072773 -5.204428673 -1.999681711 0.9579783678 
9.596459389 -4.368486404 -1.999570131 0.9579806924 
10.40785599 -1.681694269 -1.999350429 0.9579851627 
10.51595688 -0.7499853373 -1.999317169 0.957985878 
10.53885746 -0.2814501822 -1.999308228 0.9579860568 
10.54092789 0.187651366 -1.999304414 0.9579861164 
10.48256779 1.123781681 -1.99931252 0.9579859972 
10.42226315 1.58898437 -1.999324322 0.9579857588 
10.11837578 2.962128878 -1.999390364 0.9579843879 
9.976758003 3.409350395 -1.999422431 0.9579837322 
9.815392494 3.849868059 -1.999459505 0.9579829574 
9.434789658 4.707219124 -1.999547958 0.9579811692 
9.216305733 5.122392654 -1.999599457 0.9579800367 
8.725055695 5.921601295 -1.999715805 0.9579777122 
8.311039925 6.197983265 -1.966129661 0.9586686492 
7.604367733 6.215995789 -1.862585664 0.9608020782 
6.965839863 6.812558651 -1.847746372 0.9611082673 
5.997878075 7.680076599 -1.847980857 0.9611033797 
5.650574684 7.939641953 -1.848066688 0.9611015916 
4.923035622 8.411281586 -1.848250866 0.9610977769 
4.544229507 8.622390747 -1.848346353 0.9610958695 
2.946412325 9.292734146 -1.848742127 0.9610877037 
2.638156652 9.816591263 -1.927680969 0.9594603181 
2.282846689 10.3032465 -2.001300097 0.9579451084 
1.822363257 10.39518738 -2.001413584 0.9579427242 
1.358222604 10.46656227 -2.001528502 0.9579403996 
0.8913415074 10.51722527 -2.001643896 0.9579380155 
-0.04694579914 10.55604362 -2.001876593 0.9579332471 
-0.5165173411 10.54412079 -2.001993179 0.9579308629 
-1.91570425 10.38336658 -2.002341509 0.9579236507 
-2.375861645 10.28846169 -2.002456427 0.9579212666 
-2.831309795 10.17316723 -2.002570391 0.9579190016 
-3.281234026 10.03771114 -2.002682924 0.957916677 
-4.160826206 9.707432747 -2.002903461 0.957912147 
-5.007695198 9.30018425 -2.003116369 0.9579077363 
-5.416726112 9.068681717 -2.003219604 0.9579056501 
-6.201918602 8.552204132 -2.00341773 0.9579015374 
-6.938254356 7.96788168 -2.003603458 0.9578974247 
-7.285927773 7.651694298 -2.003690481 0.957896173 
-7.619492054 7.320307255 -2.003773451 0.9578942657 
-7.9379282 6.974372387 -2.003853798 0.9578925967 
-8.527033806 6.241723537 -2.004004717 0.9578894973 
-8.796543121 5.856440067 -2.004074097 0.9578880668 
-9.695615768 4.206931114 -2.004307747 0.9578832388 
-9.87338829 3.771559954 -2.004354715 0.9578822851 
-10.16993141 2.87921381 -2.00443387 0.9578806162 
-10.38588142 1.963986754 -2.004492283 0.9578794241 
-10.46307373 1.500056148 -2.004514456 0.9578790069 
-10.56983852 0.09408935159 -2.004550219 0.957878232 
-10.53634453 -0.8457617164 -2.004547834 0.9578783512 
-10.48825169 -1.31361568 -2.004539013 0.9578784704 
-10.41936016 -1.778859854 -2.004524708 0.9578787684 
-10.21979713 -2.697824717 -2.004481316 0.9578796625 
-10.08953094 -3.149721622 -2.004451752 0.9578802586 
-9.93926239 -3.595361233 -2.004417419 0.9578809738 
-8.899819374 -5.699235916 -2.00417304 0.9578860402 
-8.637226105 -6.08930397 -2.004110575 0.9578872919 
-8.061274529 -6.832397461 -2.00397253 0.9578901529 
-7.749072075 -7.183959961 -2.00389719 0.9578917027 
-7.421515942 -7.521291256 -2.003818035 0.957893312 
-7.079304218 -7.843659401 -2.003735304 0.9578949809 
-6.353588581 -8.44107914 -2.003559113 0.9578986168 
-5.57768774 -8.971515656 -2.003369808 0.9579025507 
-4.333300591 -9.632619858 -2.003065348 0.9579088092 
-3.90031004 -9.815326691 -2.002959013 0.957910955 
-3.459645987 -9.978571892 -2.002850771 0.9579131603 
-3.012177706 -10.12203312 -2.002740622 0.9579154253 
-2.558791399 -10.24543476 -2.002628803 0.9579177499 
-1.637868643 -10.43112278 -2.00240159 0.9579224586 
-1.172170401 -10.49304867 -2.002286434 0.9579247832 
-0.2348437458 -10.5544796 -2.002053976 0.9579296112 
0.2348388582 -10.55386162 -2.001937628 0.9579319954 
0.704072237 -10.5323534 -2.001821041 0.9579343796 
1.171828628 -10.49000454 -2.001704693 0.9579367638 
2.09929204 -10.34314632 -2.001473427 0.9579414725 
2.557163 -10.23893261 -2.001358509 0.9579438567 
4.328644753 -9.622270584 -2.000913858 0.9579530358 
4.752131462 -9.419696808 -2.000807285 0.9579552412 
5.56997776 -8.95912075 -2.000601053 0.9579594731 
6.711889267 -8.136879921 -2.00031209 0.9579654336 
7.734211445 -7.170185566 -2.000051737 0.9579707384 
8.340231895 -6.453886509 -1.999896407 0.9579739571 
8.88021946 -5.686686993 -1.999757051 0.9579768181 
9.124094009 -5.285869122 -1.999693751 0.9579781294 
9.349931717 -4.874604225 -1.999634862 0.9579793215 
9.745676041 -4.024096489 -1.999530792 0.9579814672 
9.914801598 -3.586511135 -1.999485731 0.9579824209 
10.06433105 -3.141852856 -1.999445558 0.9579831958 
10.39249039 -1.774272442 -1.999354839 0.9579851031 
10.53594971 -0.3752050698 -1.999309659 0.9579859972 
10.49214554 1.030449152 -1.999310851 0.9579859972 
10.43597412 1.496171832 -1.99932158 0.9579858184 
10.14430428 2.871960402 -1.999384522 0.9579845071 
9.672324181 4.196823597 -1.999492645 0.9579822421 
9.028349876 5.447270393 -1.999643803 0.9579792023 
8.46188736 6.194094181 -1.988700032 0.9582042694 
6.719169617 7.056398869 -1.847805858 0.9611070156 
6.398901463 7.348622799 -1.847883463 0.9611053467 
6.065932274 7.626319408 -1.847964287 0.9611037374 
5.720945835 7.888968468 -1.848049283 0.9611020088 
4.997636795 8.367045403 -1.848231912 0.9610981941 
4.620734692 8.581522942 -1.848326802 0.9610962272 
4.234639645 8.7790308 -1.848423719 0.9610942602 
2.684645891 9.64617157 -1.898832679 0.9600546956 
1.914755821 10.37844658 -2.001390696 0.9579432011 
1.4512707 10.45394993 -2.001505375 0.9579408169 
-0.422668457 10.54817581 -2.001969814 0.9579313397 
-1.35867548 10.47008896 -2.002202749 0.9579265118 
-1.82318604 10.39988232 -2.002318621 0.9579241872 
-3.636550188 9.915014267 -2.002771854 0.9579148293 
-4.07419157 9.743972778 -2.002881765 0.9579126239 
-4.924658298 9.344290733 -2.003095388 0.9579082131 
-5.335734844 9.116448402 -2.0031991 0.9579060674 
-5.736308575 8.870488167 -2.00330019 0.9579039812 
-6.125554085 8.606964111 -2.003398657 0.957901895 
-6.867046833 8.029227257 -2.003585577 0.9578977227 
-7.554051399 7.387758732 -2.003757238 0.9578944445 
-8.181365967 6.687653542 -2.003916025 0.957891345 
-8.744010925 5.934470177 -2.004060507 0.9578883052 
-8.999643326 5.539809227 -2.00412631 0.9578869343 
-9.456968307 4.718281269 -2.004245281 0.9578844905 
-9.657738686 4.293041706 -2.004297733 0.9578834176 
-9.839389801 3.859282255 -2.004345655 0.9578824043 
-10.14386177 2.969616652 -2.004426718 0.957880795 
-10.26609135 2.51543951 -2.004459381 0.9578801394 
-10.56856918 0.1881274432 -2.004549265 0.9578782916 
-10.49953842 -1.220209956 -2.004541159 0.9578784704 
-10.43480492 -1.686047316 -2.004528046 0.9578787088 
-10.24343491 -2.606750488 -2.004486561 0.9578796029 
-10.1171999 -3.059794903 -2.004458189 0.9578801394 
-9.970903397 -3.506750345 -2.00442481 0.9578808546 
-9.804855347 -3.946748018 -2.004386425 0.9578816295 
-9.619379997 -4.378901482 -2.004343271 0.9578825235 
-9.414823532 -4.802390099 -2.004295111 0.9578834772 
-8.950234413 -5.619865417 -2.0041852 0.9578857422 
-8.414792061 -6.392700195 -2.004057169 0.9578883648 
-8.121801376 -6.760448933 -2.003986835 0.9578898549 
-6.795434475 -8.090361595 -2.003666401 0.9578964114 
-6.4285326 -8.384264946 -2.003577232 0.9578982592 
-5.254655838 -9.163976669 -2.003290892 0.95790416 
-3.987570763 -9.780322075 -2.002980471 0.9579105377 
-3.548325062 -9.947502136 -2.002872467 0.9579127431 
-1.730632305 -10.416255 -2.002424479 0.9579219818 
-0.7979028225 -10.52763653 -2.002193689 0.9579266906 
0.1409130841 -10.55565929 -2.001960754 0.9579315186 
0.6103003025 -10.53833008 -2.001844168 0.9579339027 
1.544345617 -10.44117165 -2.001611948 0.9579386711 
2.91980958 -10.14097118 -2.001267433 0.9579457641 
3.367836952 -10.00048828 -2.001155138 0.9579480886 
4.242912292 -9.660507202 -2.000935316 0.957952559 
4.668190956 -9.461698532 -2.000828266 0.957954824 
5.084198952 -9.244186401 -2.0007236 0.9579569697 
6.268415451 -8.483979225 -2.000424385 0.957963109 
6.997009277 -7.892541409 -2.000239611 0.9579668641 
7.340847015 -7.573142052 -2.000152111 0.9579687119 
7.984230995 -6.890158653 -1.999987602 0.9579721093 
8.829311371 -5.765544415 -1.999770164 0.9579765201 
9.306227684 -4.957675457 -1.999646306 0.9579790831 
9.882543564 -3.674594641 -1.999494433 0.9579822421 
10.169631 -2.781596661 -1.999417067 0.9579838514 
10.28314686 -2.326430559 -1.999385834 0.9579844475 
10.44897175 -1.403227448 -1.99933815 0.9579854608 
10.53219414 -0.4689770341 -1.999311209 0.9579859972 
10.54259777 0 -1.999305367 0.9579861164 
10.53216267 0.4689721465 -1.999304771 0.9579861164 
10.44887161 1.403215289 -1.999318957 0.9579858184 
10.3761816 1.866640568 -1.999333858 0.9579855204 
10.28298092 2.32638669 -1.999353766 0.9579851031 
10.03578377 3.231252432 -1.99940896 0.9579839706 
9.88228035 3.674545765 -1.999444127 0.9579832554 
9.51698494 4.538515568 -1.999528766 0.9579815269 
9.305905342 4.957495213 -1.999578238 0.9579805136 
8.564021111 6.152536392 -1.99975419 0.9579768777 
7.877866268 6.208984375 -1.902202606 0.9599852562 
7.085886002 6.68739748 -1.847717404 0.9611088037 
6.781662464 6.996259689 -1.847790837 0.9611073136 
6.464003563 7.291298866 -1.847867727 0.9611057639 
6.133526325 7.571971416 -1.847947836 0.9611040354 
5.790887356 7.837660789 -1.848031878 0.9611023664 
5.436770916 8.087874413 -1.848120332 0.9611005783 
4.312542439 8.740921021 -1.848404288 0.9610946178 
3.919650793 8.92457962 -1.848502159 0.9610925913 
3.518958569 9.090582848 -1.848601341 0.9610906243 
3.111262083 9.238621712 -1.848701715 0.9610885382 
2.465800762 10.26075459 -2.001254797 0.9579460025 
1.544249177 10.44049549 -2.001482248 0.9579413533 
1.078353286 10.49945259 -2.001597643 0.9579389691 
-0.7978527546 10.52694798 -2.002063036 0.9579293728 
-1.265410185 10.48164177 -2.002179623 0.9579270482 
-1.730516315 10.41557884 -2.002295256 0.957924664 
-4.418657303 9.593197823 -2.002968311 0.9579107761 
-5.65707016 8.921108246 -2.003280401 0.9579043984 
-6.048675537 8.661056519 -2.003379107 0.9579022527 
-6.428179741 8.383824348 -2.003474951 0.9579004645 
-6.79510355 8.089959145 -2.003567457 0.957898438 
-7.487874508 7.454645634 -2.003740788 0.9578949213 
-7.812392235 7.114465237 -2.003821611 0.9578932524 
-8.121453285 6.760160923 -2.003900766 0.957891643 
-8.690775871 6.012021542 -2.004046679 0.9578886628 
-9.970683098 3.506679535 -2.004380465 0.9578817487 
-10.11700153 3.059733868 -2.004419565 0.9578809738 
-10.24327087 2.606711388 -2.004453897 0.9578802586 
-10.54341984 0.7519433498 -2.004539251 0.9578784704 
-10.56647682 0.2821899354 -2.004548073 0.9578782916 
-10.50999451 -1.126701593 -2.004543066 0.9578784108 
-10.44941139 -1.59309566 -2.004531145 0.9578786492 
-10.36810493 -2.056376934 -2.004513979 0.9578790069 
-10.14404488 -2.969670296 -2.004464149 0.9578800201 
-10.00174046 -3.417914867 -2.004431963 0.9578807354 
-9.839621544 -3.859372377 -2.004394531 0.9578814507 
-7.554350376 -7.388097763 -2.003850222 0.9578926563 
-5.736589432 -8.871007919 -2.00340867 0.9579017162 
-5.336035252 -9.116965294 -2.003310919 0.9579036832 
-2.740786076 -10.198493 -2.002673864 0.9579168558 
-1.823364258 -10.40056133 -2.002447367 0.9579214454 
-1.358767033 -10.47076607 -2.002332449 0.9579238892 
-0.8915893435 -10.52023411 -2.002216816 0.9579262733 
-0.4227050543 -10.5488739 -2.002100706 0.9579285979 
0.04694335908 -10.55661392 -2.001984119 0.9579310417 
0.984968245 -10.50943851 -2.001750946 0.9579358101 
2.829499483 -10.16665745 -2.001290083 0.9579453468 
3.278764486 -10.03016567 -2.001177549 0.9579476118 
3.721491575 -9.873847008 -2.001066208 0.9579498768 
4.583845139 -9.502975464 -2.000849485 0.9579543471 
5.001767635 -9.289164543 -2.000744343 0.9579565525 
5.807001591 -8.806962967 -2.00054121 0.9579606652 
6.566132545 -8.255207062 -2.000349045 0.9579646587 
6.926537991 -7.954572678 -2.000257492 0.9579665661 
7.273215294 -7.638254166 -2.000169277 0.9579682946 
7.605463505 -7.30684042 -2.0000844 0.9579700828 
7.922673225 -6.960976601 -2.000003576 0.9579717517 
8.777724266 -5.843911171 -1.999783635 0.957976222 
9.26179409 -5.040302753 -1.999657869 0.9579789042 
9.476576805 -4.623183727 -1.999601722 0.9579800367 
10.00690174 -3.320502758 -1.999461174 0.9579828978 
10.14451122 -2.872021437 -1.999423981 0.9579836726 
10.3593235 -1.958969712 -1.999364257 0.9579848647 
10.49222183 -1.030461431 -1.999324918 0.9579856992 
10.39236546 1.774248004 -1.999330401 0.95798558 
10.30325127 2.23480463 -1.999349475 0.9579852223 
10.06411076 3.141782045 -1.999402523 0.9579841495 
9.349621773 4.87444067 -1.999567986 0.9579806924 
9.123774529 5.285664082 -1.999621272 0.9579796195 
8.879873276 5.686454773 -1.999679089 0.9579784274 
8.618391037 6.076025486 -1.999741197 0.9579771757 
7.145072937 6.624003887 -1.847703218 0.9611091018 
6.528566837 7.233437538 -1.847851992 0.9611060619 
5.145654202 8.276610374 -1.848194242 0.961098969 
4.390124321 8.702094078 -1.848384976 0.9610950351 
3.599695921 9.058797836 -1.848581553 0.9610910416 
3.193344593 9.2104702 -1.84868145 0.9610888958 
2.554410458 10.22787857 -1.999198437 0.9579883218 
1.171754122 10.48932076 -2.001574516 0.957939446 
0.2348181158 10.55317402 -2.001806498 0.9579346776 
-0.234879151 10.55378151 -2.001923084 0.9579322934 
-1.172089815 10.49236584 -2.002156258 0.9579274654 
-1.637762427 10.43044758 -2.002272367 0.9579250813 
-2.100245237 10.3478632 -2.002387762 0.9579227567 
-3.459434748 9.97795105 -2.002727509 0.9579157233 
-4.333041668 9.632049561 -2.002946615 0.957911253 
-4.757459641 9.430263519 -2.003053427 0.9579090476 
-5.172596455 9.209776878 -2.003158092 0.9579067826 
-5.971183777 8.714479446 -2.003359556 0.9579027891 
-6.722802639 8.150014877 -2.003549099 0.9578987956 
-7.748996258 7.183632851 -2.003805399 0.9578928351 
-8.636894226 6.089062214 -2.00403285 0.9578889012 
-9.144493103 5.297668457 -2.00416398 0.957886219 
-9.769044876 4.033747673 -2.004327059 0.9578828812 
-10.08932304 3.149658203 -2.004412174 0.957881093 
-10.32967472 2.240537167 -2.004476547 0.9578797221 
-10.53629875 0.8457177281 -2.004536867 0.95787853 
-10.56983852 -0.09408202767 -2.004551411 0.957878232 
-10.55519009 -0.5641796589 -2.004550695 0.957878232 
-10.51961422 -1.033144474 -2.004544973 0.9578783512 
-10.46318054 -1.50007081 -2.004534006 0.9578785896 
-10.03181171 -3.32877183 -2.004438639 0.957880497 
-9.873620033 -3.771650314 -2.004402161 0.9578813314 
-9.695871353 -4.207040787 -2.004361153 0.9578821659 
-9.498920441 -4.634081841 -2.004314899 0.95788306 
-9.0489645 -5.459704399 -2.004208565 0.9578852654 
-8.527336121 -6.242004395 -2.004084349 0.957887888 
-7.938251972 -6.974714279 -2.003942728 0.957890749 
-7.619841099 -7.320651531 -2.003865957 0.9578923583 
-7.286355019 -7.652060509 -2.003785372 0.9578939676 
-6.576845646 -8.268671989 -2.003613234 0.9578975439 
-6.202233791 -8.552646637 -2.003522158 0.9578994513 
-5.815380573 -8.819680214 -2.003427744 0.957901299 
-5.007978439 -9.300720215 -2.003230572 0.9579054117 
-4.161088943 -9.708007812 -2.003022909 0.9579096437 
-3.72492671 -9.88297081 -2.002915859 0.957911849 
-2.375939846 -10.2891283 -2.002583742 0.9579187036 
0.8913940191 -10.51791477 -2.001774311 0.9579353333 
1.358308077 -10.46724606 -2.001658201 0.9579377174 
1.82248044 -10.39585876 -2.001542568 0.9579401016 
2.282990694 -10.30390358 -2.00142765 0.9579424858 
2.738923311 -10.19156742 -2.001312733 0.9579448104 
3.189394474 -10.05907249 -2.001199961 0.957947135 
4.499130726 -9.5435009 -2.000870943 0.9579539299 
5.329018593 -9.104877472 -2.00066185 0.9579582214 
5.728468895 -8.858371735 -2.000560999 0.9579603076 
6.1165452 -8.594355583 -2.000463009 0.9579623342 
6.855554104 -8.015966415 -2.000275612 0.9579661489 
8.165145874 -6.674389362 -1.99994123 0.957973063 
8.725412369 -5.921845436 -1.999796987 0.9579759836 
9.216630936 -5.122572899 -1.999669552 0.9579786062 
9.43510437 -4.707382679 -1.99961257 0.9579797983 
9.634911537 -4.282897949 -1.999559999 0.9579808712 
9.815664291 -3.849972963 -1.999512315 0.9579818249 
10.11859322 -2.962167978 -1.999431014 0.9579835534 
10.42237759 -1.588979483 -1.999346137 0.9579852819 
10.48265648 -1.123771906 -1.999328017 0.9579856396 
10.52219486 -0.65635252 -1.999315023 0.9579859376 
10.54093456 -0.1876318306 -1.999307036 0.9579861164 
10.47216511 1.217021465 -1.999314547 0.9579859376 
10.09165001 3.052067757 -1.999396324 0.9579842091 
9.946062088 3.49801755 -1.999429464 0.9579835534 
9.596183777 4.368337154 -1.999510288 0.9579818845 
9.392570496 4.791042328 -1.999557853 0.9579809308 
8.930063248 5.607197285 -1.999667168 0.9579786658 
7.203671932 6.56013155 -1.847689033 0.9611093998 
5.219074726 8.230399132 -1.848175764 0.9610993266 
4.848035812 8.454847336 -1.848269582 0.9610974193 
4.467364311 8.662582397 -1.848365545 0.9610954523 
3.680152416 9.026310921 -1.848561645 0.9610913992 
2.863614321 9.318703651 -1.848762631 0.9610872269 
2.594233274 10.00771427 -1.960598111 0.9587824941 
1.729781508 10.41111565 -2.001436472 0.957942307 
1.265015841 10.47835445 -2.00155139 0.9579399228 
0.3287426829 10.55054188 -2.001783371 0.9579351544 
-0.1409118623 10.55533409 -2.001899719 0.9579327703 
-0.6103564501 10.53923607 -2.002016544 0.9579303265 
-1.078637719 10.50226402 -2.002132893 0.9579279423 
-1.54484129 10.44449329 -2.002249002 0.9579255581 
-2.92174077 10.14768314 -2.002592802 0.9579185247 
-3.370441914 10.00823689 -2.002705097 0.9579162002 
-5.090210915 9.255335808 -2.00313735 0.9579075575 
-5.497447491 9.020187378 -2.003240108 0.9579049349 
-6.649959564 8.209464073 -2.003530741 0.9578990936 
-7.68441391 7.252263069 -2.003789425 0.957893908 
-7.999722958 6.903525352 -2.003869534 0.9578922987 
-8.582287788 6.165654182 -2.004018784 0.9578891993 
-9.09691906 5.378828049 -2.004151583 0.9578864574 
-9.327466965 4.968989372 -2.004211426 0.9578852057 
-9.53955555 4.549228191 -2.004266739 0.9578840733 
-9.732728004 4.12047863 -2.004317522 0.95788306 
-10.06087112 3.239282131 -2.004404545 0.9578812718 
-10.19518566 2.788586378 -2.004440308 0.957880497 
-10.30930138 2.332343817 -2.004470825 0.9578798413 
-10.57025623 0 -2.004550695 0.957878232 
-10.52839851 -0.9394726157 -2.004546404 0.9578783512 
-10.30945778 -2.332377911 -2.004501104 0.9578792453 
-10.06106186 -3.239392042 -2.004445553 0.9578803778 
-9.906823158 -3.683669329 -2.004410028 0.9578811526 
-9.732966423 -4.120627403 -2.004369736 0.9578819871 
-8.582619667 -6.165903091 -2.004097462 0.9578875899 
-8.299570084 -6.541359901 -2.004029751 0.9578889608 
-8.00008297 -6.903835297 -2.00395751 0.957890451 
-7.684760571 -7.252592564 -2.003881693 0.9578920007 
-7.354242802 -7.586965084 -2.003801823 0.95789361 
-6.650249004 -8.209870338 -2.003631115 0.9578971863 
-6.278178692 -8.497187614 -2.003540516 0.957899034 
-5.893705845 -8.767636299 -2.003446817 0.9579009414 
-2.008147001 -10.36669445 -2.002493143 0.9579205513 
0.3287109435 -10.55123043 -2.001914263 0.9579324722 
0.7977440953 -10.5255518 -2.001797676 0.9579348564 
1.265092731 -10.47904301 -2.001681328 0.9579372406 
1.729890108 -10.4117918 -2.001565695 0.9579396248 
2.648176193 -10.21563911 -2.001335621 0.9579443932 
3.545246601 -9.938725471 -2.001110554 0.9579489827 
4.41408205 -9.583264351 -2.000892401 0.9579534531 
4.835746765 -9.37693119 -2.000786304 0.9579555988 
5.247809887 -9.152050972 -2.000682354 0.9579578042 
5.64944315 -8.909098625 -2.000581026 0.9579598904 
6.783988953 -8.076747894 -2.000293732 0.9579657912 
7.4743433 -7.441171646 -2.000118017 0.9579693675 
9.17072773 -5.204404354 -1.999681711 0.9579784274 
9.596469879 -4.368474007 -1.999570131 0.9579806924 
9.94629097 -3.498095512 -1.999477386 0.9579825997 
10.09185505 -3.052128792 -1.999438167 0.9579833746 
10.2174654 -2.600148916 -1.999403954 0.9579840899 
10.40785599 -1.681694269 -1.999350429 0.9579851627 
10.47225761 -1.217036128 -1.999331117 0.95798558 
10.51595688 -0.7499853373 -1.999317169 0.957985878 
10.53885746 -0.2814501822 -1.999308228 0.9579860568 
10.5221529 0.6563427448 -1.999305964 0.9579861164 
10.42225838 1.589003921 -1.999324322 0.9579857588 
10.3413496 2.05106926 -1.999341249 0.9579853415 
10.23998547 2.509086847 -1.999363184 0.9579849243 
10.1183691 2.962153196 -1.999390364 0.9579843879 
9.634618759 4.28276825 -1.999501348 0.9579821229 
9.216305733 5.122392654 -1.999599457 0.9579800367 
8.979562759 5.527448654 -1.999655366 0.9579789042 
7.261723518 6.495697975 -1.847675085 0.9611096978 
6.965859413 6.812548637 -1.847746372 0.9611082077 
6.656186581 7.115961552 -1.847821116 0.961106658 
6.333315372 7.405317307 -1.847899318 0.9611051083 
5.997862339 7.680087566 -1.847980857 0.9611033797 
5.650550365 7.939647198 -1.848066688 0.9611016512 
5.292036057 8.183549881 -1.848157048 0.9610997438 
4.923023701 8.411293983 -1.848250866 0.9610977769 
1.822363257 10.39518738 -2.001413584 0.9579427242 
1.358222604 10.46656227 -2.001528502 0.9579403996 
0.8913415074 10.51722527 -2.001643896 0.9579380155 
0.4226367176 10.54708195 -2.001760006 0.9579356313 
-0.5165173411 10.54412079 -2.001993179 0.9579308629 
-0.9851415753 10.51131344 -2.002109528 0.9579284787 
-1.451835871 10.45770073 -2.002225876 0.9579260349 
-4.58879137 9.513240814 -2.003010988 0.9579098821 
-5.007695198 9.30018425 -2.003116369 0.9579077363 
-5.815063477 8.819197655 -2.003320217 0.957903564 
-7.9379282 6.974372387 -2.003853798 0.9578925967 
-8.796543121 5.856440067 -2.004074097 0.9578880668 
-9.048659325 5.459518909 -2.004139185 0.9578866959 
-10.46307373 1.500056148 -2.004514456 0.9578790069 
-10.51954842 1.03314209 -2.004531622 0.9578786492 
-10.55515385 0.5641772151 -2.004543304 0.9578784108 
-10.56356144 -0.3762280047 -2.004551411 0.957878232 
-10.48825169 -1.31361568 -2.004539013 0.9578784704 
-10.21979713 -2.697824717 -2.004481316 0.9578796625 
-9.93926239 -3.595361233 -2.004417419 0.9578809738 
-9.769299507 -4.033850193 -2.00437808 0.9578817487 
-9.579979897 -4.464333534 -2.004333973 0.9578827024 
-9.144809723 -5.297856331 -2.004231453 0.9578847885 
-8.899819374 -5.699235916 -2.00417304 0.9578860402 
-7.749042988 -7.18400383 -2.00389719 0.957891643 
-7.079304218 -7.843659401 -2.003735304 0.9578949809 
-6.723088264 -8.15045166 -2.003648758 0.957896769 
-6.353588581 -8.44107914 -2.003559113 0.9578986168 
-5.57768774 -8.971515656 -2.003369808 0.9579025507 
-5.172824383 -9.210302353 -2.003270864 0.9579045773 
-3.90031004 -9.815326691 -2.002959013 0.957910955 
-3.459645987 -9.978571892 -2.002850771 0.9579131603 
-1.637868643 -10.43112278 -2.00240159 0.9579224586 
-0.7041503787 -10.53419399 -2.002170563 0.957927227 
-0.2348437458 -10.5544796 -2.002053976 0.9579296112 
0.704072237 -10.5323534 -2.001821041 0.9579343796 
1.171828628 -10.49000454 -2.001704693 0.9579367638 
1.637204528 -10.42689228 -2.001588583 0.9579391479 
3.456679583 -9.970014572 -2.001132727 0.9579485059 
3.896542788 -9.805831909 -2.001022339 0.9579507709 
5.166193962 -9.198491096 -2.000702858 0.957957387 
5.56997776 -8.95912075 -2.000601053 0.9579594731 
6.3435812 -8.427797318 -2.000405312 0.9579634666 
7.066921234 -7.829870224 -2.000221729 0.9579672813 
7.734181881 -7.170219421 -2.000051737 0.9579707384 
8.618757248 -6.076286316 -1.999824643 0.9579753876 
8.880194664 -5.686720848 -1.999757051 0.9579768181 
9.124094009 -5.285869122 -1.999693751 0.9579781294 
9.557252884 -4.453742504 -1.999580503 0.957980454 
9.745693207 -4.02405262 -1.999530792 0.9579814672 
10.06434059 -3.141806602 -1.999445558 0.9579832554 
10.1939497 -2.691003323 -1.999410391 0.9579839706 
10.30341244 -2.234794855 -1.999379992 0.9579845667 
10.39249039 -1.774272442 -1.999354839 0.9579851031 
10.50886917 -0.8435595632 -1.999319553 0.9579858184 
10.54218006 0.09379149973 -1.999304771 0.9579861164 
10.49215031 1.030405283 -1.999310851 0.9579859972 
10.43597412 1.496171832 -1.99932158 0.9579858184 
10.35918427 1.958889127 -1.999337435 0.9579854608 
10.2618866 2.417827129 -1.999358535 0.9579850435 
10.14428711 2.872006655 -1.999384522 0.9579845071 
10.00667191 3.320424795 -1.999415517 0.9579838514 
9.849218369 3.762375355 -1.999451518 0.9579831362 
9.672324181 4.196823597 -1.999492645 0.9579822421 
8.46188736 6.194094181 -1.988700032 0.9582042694 
6.719169617 7.056398869 -1.847805858 0.9611070156 
6.065932274 7.626319408 -1.847964287 0.9611037374 
5.720981121 7.888942719 -1.848049283 0.9611020088 
4.997604847 8.367064476 -1.848231912 0.9610981941 
4.620734692 8.581522942 -1.848326802 0.9610962272 
3.840130568 8.959189415 -1.848521829 0.9610922337 
3.02897954 9.266042709 -1.848721862 0.9610881209 
1.914755821 10.37844658 -2.001390696 0.9579432011 
0.04696533084 10.55592346 -2.001853228 0.9579337239 
-0.4226244986 10.54817867 -2.001969814 0.9579313397 
-0.8915295005 10.51954651 -2.002086401 0.9579289556 
-1.82318604 10.39988232 -2.002318621 0.9579241872 
-2.284174681 10.30906487 -2.002433538 0.957921803 
-3.636550188 9.915014267 -2.002771854 0.9579148293 
-4.074272156 9.74395752 -2.002881765 0.9579125643 
-4.503878117 9.553602219 -2.002989531 0.9579103589 
-4.924700737 9.344267845 -2.003095388 0.9579082131 
-5.335734844 9.116448402 -2.0031991 0.9579060674 
-6.502717018 8.326352119 -2.003493786 0.9578998089 
-6.866954327 8.029250145 -2.003585577 0.9578979015 
-7.217669487 7.716149807 -2.003673553 0.9578960538 
-7.554047585 7.387787819 -2.003757238 0.9578943849 
-8.471071243 6.317333698 -2.003990173 0.9578897953 
-9.657755852 4.293005466 -2.004297733 0.9578834176 
-9.839389801 3.859282255 -2.004345655 0.9578824043 
-10.36796379 2.056347609 -2.004487276 0.9578795433 
-10.50990677 1.126740694 -2.004528522 0.9578787088 
-10.56856918 0.1881738305 -2.004549265 0.9578782916 
-10.49953842 -1.220209956 -2.004541159 0.9578784704 
-10.34937 -2.148530245 -2.004509926 0.9578791261 
-9.970890999 -3.506796837 -2.00442481 0.9578808546 
-9.804855347 -3.946748018 -2.004386425 0.9578816295 
-9.61935997 -4.378937721 -2.004343271 0.9578825235 
-9.414843559 -4.802355766 -2.004295111 0.9578834772 
-9.191628456 -5.21630621 -2.00424242 0.9578846097 
-8.414813995 -6.392663479 -2.004057169 0.9578884244 
-8.121801376 -6.760448933 -2.003986835 0.9578898549 
-7.148864746 -7.780419827 -2.003751993 0.9578946829 
-6.4284935 -8.384289742 -2.003577232 0.9578982592 
-6.048925877 -8.661520958 -2.003484726 0.9579001665 
-5.657343388 -8.921630859 -2.003389359 0.9579021335 
-5.254655838 -9.163976669 -2.003290892 0.95790416 
-4.841520786 -9.388207436 -2.003189802 0.9579061866 
-4.418913364 -9.593762398 -2.003086329 0.957908392 
-3.987529278 -9.780344009 -2.002980471 0.9579104781 
-3.548369169 -9.947487831 -2.002872467 0.9579127431 
-2.649912119 -10.22236538 -2.002651215 0.957917273 
-2.192397356 -10.32955551 -2.002538443 0.9579195976 
-1.730678678 -10.41625023 -2.002424479 0.9579219818 
-1.265490651 -10.48232174 -2.002309561 0.957924366 
-0.7979491949 -10.52763653 -2.002193689 0.9579266906 
-0.3287914991 -10.55209732 -2.002077341 0.9579290748 
0.1409545839 -10.55566406 -2.001960754 0.957931459 
0.6103003025 -10.53833008 -2.001844168 0.9579339027 
1.078466773 -10.50013638 -2.001727819 0.9579362869 
1.544345617 -10.44117165 -2.001611948 0.9579386711 
2.007209539 -10.3615303 -2.001496315 0.9579410553 
2.465952158 -10.26140118 -2.001381636 0.9579434395 
4.242870808 -9.660529137 -2.000935316 0.957952559 
5.490104675 -9.008418083 -2.000621319 0.9579590559 
5.885065556 -8.754862785 -2.000521421 0.9579610825 
6.268415451 -8.483979225 -2.000424385 0.957963109 
6.997009277 -7.892541409 -2.000239611 0.9579668641 
7.670138836 -7.238789082 -2.000067949 0.9579704404 
7.984260082 -6.890124321 -1.999987602 0.9579721093 
8.282514572 -6.527917385 -1.999911189 0.957973659 
8.829311371 -5.765544415 -1.999770164 0.9579765201 
9.882543564 -3.674594641 -1.999494433 0.9579822421 
10.03600121 -3.231323242 -1.999453187 0.9579830766 
10.37632084 -1.866674781 -1.999359369 0.9579849839 
10.5009613 -0.9370238781 -1.999322176 0.9579857588 
10.532197 -0.4689306617 -1.999311209 0.9579859972 
10.54259777 0 -1.999305367 0.9579861164 
10.5008955 0.9370166063 -1.999309301 0.9579860568 
10.3761816 1.866640568 -1.999333858 0.9579855204 
10.28296375 2.326432943 -1.999353886 0.9579851627 
10.16945076 2.781545401 -1.99937892 0.9579845667 
10.03578377 3.231252432 -1.99940896 0.9579839706 
9.882297516 3.674499512 -1.999444127 0.9579832554 
9.517004013 4.538471699 -1.999528766 0.9579815269 
9.305905342 4.957495213 -1.999578238 0.9579805136 
9.076435089 5.366657734 -1.999632359 0.9579793811 
8.564055443 6.152499676 -1.99975419 0.9579768777 
7.877866268 6.208984375 -1.902202606 0.9599852562 
7.376042366 6.3653512 -1.847647667 0.9611102939 
7.085886002 6.68739748 -1.847717404 0.9611088037 
6.464003563 7.291298866 -1.847867727 0.9611057639 
6.13349247 7.571987152 -1.847947836 0.961104095 
5.436738014 8.087905884 -1.848120332 0.9611005187 
4.6968503 8.53998661 -1.84830761 0.9610966444 
4.312576771 8.740901947 -1.848404288 0.9610946178 
3.919650793 8.92457962 -1.848502159 0.9610925913 
1.544249177 10.44049549 -2.001482248 0.9579413533 
1.078309298 10.49946022 -2.001597643 0.9579389691 
-0.7978954911 10.52694511 -2.002063036 0.9579293728 
-1.265410185 10.48164177 -2.002179623 0.9579270482 
-1.730561495 10.41557026 -2.002295256 0.957924664 
-2.192258358 10.32888603 -2.00241065 0.9579222798 
-2.649774075 10.22171879 -2.002524853 0.957919836 
-3.101938486 10.09430599 -2.002638102 0.9579176307 
-3.548152924 9.946868896 -2.002749681 0.9579153061 
-4.418657303 9.593197823 -2.002968311 0.9579107761 
-5.254357815 9.163460732 -2.003178596 0.9579064846 
-5.65710783 8.921088219 -2.003280401 0.9579043984 
-6.048675537 8.661056519 -2.003379107 0.9579022527 
-7.148594856 7.779987812 -2.003656149 0.9578966498 
-7.487874508 7.454645634 -2.003740788 0.9578949213 
-8.414477348 6.392404556 -2.003975868 0.9578900933 
-8.690775871 6.012021542 -2.004046679 0.9578886628 
-9.191327095 5.216137409 -2.00417614 0.957885921 
-9.414552689 4.802204609 -2.004234076 0.9578847885 
-9.619093895 4.378813267 -2.00428772 0.957883656 
-9.804616928 3.946647882 -2.004336357 0.9578826427 
-9.9706707 3.506716251 -2.004380465 0.9578817487 
-10.24328327 2.606667519 -2.004453897 0.9578802586 
-10.34923363 2.148503304 -2.004482031 0.9578796625 
-10.49945259 1.220200181 -2.004525185 0.9578787684 
-10.54341507 0.7518994212 -2.004539251 0.9578784704 
-10.56647682 0.2821899354 -2.004548073 0.9578782916 
-10.56858635 -0.1881640553 -2.004551649 0.957878232 
-10.54975033 -0.6580639482 -2.00454998 0.957878232 
-10.50998974 -1.126745582 -2.004543066 0.9578784108 
-10.36810493 -2.056376934 -2.004513979 0.9578790069 
-9.839621544 -3.859372377 -2.004394531 0.9578814507 
-9.658015251 -4.293115139 -2.004352331 0.9578823447 
-7.875827312 -7.045016766 -2.003927708 0.957891047 
-6.867201805 -8.029647827 -2.003683805 0.9578960538 
-4.504148006 -9.554169655 -2.003107309 0.9579079151 
-3.63677001 -9.915632248 -2.002894163 0.9579122663 
-2.740786076 -10.198493 -2.002673864 0.9579168558 
-1.823364258 -10.40056133 -2.002447367 0.9579214454 
-1.358718276 -10.4707737 -2.002332449 0.9579238296 
-0.8915893435 -10.52023411 -2.002216816 0.9579262733 
-0.4226635695 -10.54887676 -2.002100706 0.9579285979 
0.04694335908 -10.55661392 -2.001984119 0.9579310417 
0.5165258646 -10.54346657 -2.001867533 0.9579334259 
1.914873004 -10.37911129 -2.001519442 0.9579405785 
2.374589682 -10.28305912 -2.001404762 0.957942903 
2.829452991 -10.16667461 -2.001290083 0.9579452872 
3.278764486 -10.03016567 -2.001177549 0.9579476118 
3.721445322 -9.873864174 -2.001066208 0.9579498768 
4.156794548 -9.697995186 -2.000957012 0.9579521418 
5.409799576 -9.056977272 -2.000641584 0.9579586983 
5.807001591 -8.806962967 -2.00054121 0.9579606652 
6.192749023 -8.539491653 -2.000443697 0.9579626918 
6.566132545 -8.255207062 -2.000349045 0.9579646587 
6.926569462 -7.954543114 -2.000257492 0.9579665661 
7.273215294 -7.638254166 -2.000169277 0.9579682946 
