# .PCD v0.7 - Point Cloud Data file format
VERSION 0.7
FIELDS x y z intensities
SIZE 4 4 4 4
TYPE F F F F
COUNT 1 1 1 1
WIDTH 925
HEIGHT 1
VIEWPOINT 0 0 0 1 0 0 0
POINTS 925
DATA ascii
1.899507999 12.84234333 -1.852023602 0.9488979578 
0.187324211 14.0309124 -2.001832485 0.9448803663 
-0.4369665384 14.02406502 -2.001647472 0.9448853135 
-2.299030781 13.83730221 -2.001095772 0.9449000955 
-4.711038589 13.20690632 -2.000380516 0.9449192286 
-5.293404579 12.9831419 -2.000207663 0.9449238777 
-6.42530489 12.45919418 -1.999871731 0.944932878 
-9.012587547 10.7301569 -1.99910295 0.94495368 
-10.35861778 9.43321228 -1.998702168 0.9449641109 
-11.15468979 8.47420311 -1.998464823 0.9449705482 
-11.51998615 7.96917963 -1.998354793 0.9449734688 
-12.18148613 6.913002968 -1.998152375 0.9449788928 
-12.74662113 5.8024683 -1.99798274 0.9449834228 
-13.57089329 3.453525305 -1.99773252 0.9449900985 
-13.82360077 2.233605862 -1.997655272 0.944992125 
-13.90908909 1.616450191 -1.997628689 0.9449928403 
-13.96709728 0.9961156845 -1.997610331 0.9449933767 
-13.997509 0.3738183379 -1.997600079 0.9449936152 
-13.97535896 -0.8717455864 -1.997604132 0.9449935555 
-13.92284107 -1.49256587 -1.997618556 0.9449931979 
-13.73545361 -2.724250317 -1.997671604 0.9449917078 
-13.60091782 -3.332609892 -1.997710228 0.9449907541 
-10.84632301 -8.866051674 -1.99851501 0.9449691772 
-10.01660824 -9.796164513 -1.998758793 0.9449626803 
-9.57154274 -10.23270988 -1.998889685 0.9449591637 
-9.107453346 -10.64908409 -1.999026418 0.944955647 
-7.610744476 -11.76919174 -1.999471426 0.9449436069 
-7.080236435 -12.09704304 -1.999629378 0.9449393749 
-5.408513069 -12.935009 -2.000126362 0.9449260235 
-2.422013998 -13.8157444 -2.001014471 0.9449022412 
-1.805207491 -13.91109085 -2.001197577 0.944897294 
-0.5617602468 -14.01904011 -2.001565695 0.9448875189 
0.06241943315 -14.03145218 -2.001750469 0.9448825717 
2.352861166 -12.75278568 -1.850020766 0.9489517808 
3.477614641 -12.49540234 -1.850349069 0.9489430189 
4.030375957 -12.32943058 -1.850512981 0.9489386082 
6.151774883 -11.42494392 -1.851142526 0.9489216208 
6.654443264 -11.14087105 -1.851291895 0.9489176273 
7.144006252 -10.83468437 -1.85143733 0.9489136934 
8.079912186 -10.15837669 -1.851715446 0.9489063025 
9.23154068 -9.694863319 -1.909791827 0.9473466873 
10.55726528 -9.275758743 -2.004850626 0.9447996616 
11.34123039 -8.301701546 -2.005084276 0.9447933435 
11.69992447 -7.789406776 -2.005191326 0.9447904825 
12.03543472 -7.261603832 -2.005291462 0.9447878003 
12.34712887 -6.719347954 -2.005384684 0.9447852969 
13.13314152 -5.016757488 -2.005620003 0.9447790384 
13.91806126 -1.995383263 -2.005857229 0.9447727203 
14.0601368 -0.1251562536 -2.00590229 0.9447714686 
14.01554203 1.125041485 -2.005891323 0.9447717071 
13.95149422 1.747370601 -2.005873203 0.9447722435 
13.42065907 4.189626217 -2.0057199 0.9447763562 
13.22062492 4.782331467 -2.005661726 0.9447779059 
11.23710918 6.509977818 -1.852677107 0.948880434 
10.61299419 7.482233524 -1.852493882 0.9488853216 
10.26909256 7.946483135 -1.852392673 0.9488880634 
8.692026138 9.630502701 -1.850728869 0.9489328265 
8.252859116 10.0049963 -1.850241184 0.9489458799 
7.327260494 10.69348335 -1.849309206 0.9489710331 
5.834764481 11.5656662 -1.848038793 0.949005127 
3.706343889 12.45467091 -1.853792548 0.9488504529 
0.3121581972 14.02895355 -2.001869202 0.944879353 
-0.9357885718 13.99859428 -2.001499653 0.9448892474 
-1.557424307 13.94181824 -2.001315594 0.9448941946 
-2.175867796 13.85746574 -2.00113225 0.9448991418 
-2.789893627 13.7457056 -2.000950336 0.9449040294 
-4.593369007 13.24852657 -2.000415564 0.9449183345 
-5.177721024 13.02996922 -2.000241995 0.944922924 
-6.314250469 12.5160923 -1.999904752 0.9449319839 
-6.864201546 12.22183704 -1.999741316 0.9449363351 
-8.427897453 11.19688129 -1.999276638 0.9449487329 
-9.841142654 9.973385811 -1.998856306 0.9449600577 
-10.68729305 9.058087349 -1.998604178 0.9449667335 
-11.44877148 8.071450233 -1.99837625 0.9449728131 
-12.94467545 5.344990253 -1.997923255 0.9449849725 
-13.16916847 4.76371336 -1.997855544 0.9449868202 
-13.36768723 4.17312479 -1.997795224 0.9449881911 
-13.68496323 2.968305588 -1.99769783 0.9449910522 
-13.80321789 2.356572151 -1.997661591 0.9449919462 
-13.89418221 1.740139127 -1.997633457 0.9449927807 
-13.95769215 1.120339274 -1.997613311 0.9449933171 
-13.93554878 -1.368637681 -1.99761498 0.9449932575 
-13.86102009 -1.987206936 -1.997635961 0.9449927211 
-13.62998486 -3.21139884 -1.997701883 0.9449909925 
-13.47395229 -3.814619064 -1.997746825 0.9449897408 
-12.84751701 -5.574538231 -1.997928858 0.9449849129 
-11.6595726 -7.762548447 -1.998276353 0.9449755549 
-11.30327892 -8.274003983 -1.998380899 0.9449727535 
-10.92465305 -8.769099236 -1.998491883 0.9449697733 
-10.10323715 -9.706535339 -1.998733282 0.944963336 
-8.723383904 -10.96714592 -1.999139786 0.9449519515 
-8.227312088 -11.34515858 -1.999287724 0.9449484944 
-7.715097427 -11.70081043 -1.999440312 0.9449443221 
-7.187524319 -12.03335381 -1.999597311 0.9449402094 
-4.945051193 -13.12020683 -2.000264168 0.944922328 
-4.356906414 -13.32835197 -2.00043869 0.9449176788 
-3.760041475 -13.51017284 -2.000615835 0.9449129105 
-3.155559063 -13.66528988 -2.000795364 0.9449081421 
-2.544787645 -13.793396 -2.000977993 0.9449032545 
-0.06241943315 -14.03118896 -2.001713514 0.944883585 
1.668652296 -12.85880566 -1.849822164 0.9489571452 
3.366193771 -12.52564144 -1.850316286 0.948943913 
3.920400381 -12.36459923 -1.850480318 0.9489395022 
4.466926098 -12.17903996 -1.850642562 0.9489350915 
5.004702091 -11.96932316 -1.850802064 0.9489308 
6.554958344 -11.19946003 -1.851262331 0.9489184022 
7.525580883 -10.57417679 -1.851550698 0.9489107132 
9.072038651 -9.698691368 -1.894571543 0.9477551579 
9.896019936 -9.678227425 -1.974695444 0.9456068873 
10.47414494 -9.369250298 -2.00482583 0.9448003173 
10.88123035 -8.894582748 -2.004947186 0.944797039 
11.26677227 -8.402234077 -2.005062103 0.9447939396 
11.97020721 -7.368371487 -2.005271912 0.9447883368 
12.286726 -6.82892561 -2.005366564 0.9447857738 
12.5788765 -6.275871277 -2.005453825 0.9447834492 
12.84611034 -5.710334301 -2.005533934 0.9447813034 
13.30370045 -4.546301365 -2.005671263 0.9447776675 
13.49317837 -3.950068235 -2.005728483 0.9447761178 
13.89972401 -2.119135618 -2.005851746 0.9447728395 
14.05845642 -0.2502490282 -2.005901814 0.9447715282 
14.02500439 1.000244141 -2.005893707 0.9447717071 
13.88032436 2.242766142 -2.005852938 0.9447727799 
13.62553692 3.46744132 -2.005779505 0.9447748065 
13.45750237 4.070014477 -2.005730629 0.9447760582 
13.26275349 4.664489746 -2.005673885 0.9447775483 
13.04168224 5.24967289 -2.005609274 0.9447793961 
12.79482174 5.824413776 -2.005537271 0.9447812438 
12.23460674 6.240729809 -1.959345818 0.9460180402 
11.30474091 6.415510178 -1.854342341 0.9488356709 
10.997859 6.9055686 -1.852606893 0.9488823414 
10.33950901 7.854894638 -1.852413416 0.9488874674 
9.979280472 8.306578636 -1.852307558 0.948890388 
9.196667671 9.15582943 -1.851331472 0.9489165545 
6.940728664 10.94541454 -1.848956108 0.9489804506 
5.937740326 11.5137701 -1.848118544 0.9490029812 
4.049983025 8.7927742 -1.381045938 0.9616404176 
3.076806545 11.86933231 -1.749249697 0.9516640902 
2.698620558 12.71462345 -1.854278207 0.9488373995 
0.9798669219 12.92846298 -1.849665165 0.9489613175 
-0.1873156726 14.03012562 -2.001721382 0.9448834062 
-1.433293462 13.95537567 -2.00135231 0.9448932409 
-3.880113363 13.47625732 -2.000627041 0.9449126124 
-5.637825966 12.83653545 -2.000105619 0.9449266195 
-6.202747822 12.57198715 -1.999937892 0.9449310899 
-6.755304813 12.28261471 -1.999773622 0.9449355006 
-7.294410229 11.96899223 -1.999613643 0.9449397922 
-7.819005013 11.63175869 -1.999457717 0.9449439645 
-9.295559883 10.48527527 -1.999018669 0.9449557066 
-12.05673409 7.128901005 -1.998189807 0.9449778199 
-12.89669132 5.45998764 -1.997937679 0.9449846148 
-13.12635326 4.880724907 -1.997868419 0.9449864626 
-13.33005619 4.291855335 -1.997806907 0.9449881315 
-13.78173542 2.4792943 -1.997668147 0.944991827 
-13.87817383 1.863747478 -1.997638345 0.9449926615 
-14.00247574 -2.441406195e-06 -1.997597933 0.9449937344 
-13.98863506 -0.622885704 -1.997600794 0.9449936748 
-13.94716072 -1.244533658 -1.997611761 0.9449933171 
-13.87811947 -1.86374259 -1.997631073 0.9449928403 
-13.78166962 -2.479279757 -1.997658372 0.944992125 
-13.65798759 -3.089943886 -1.997693777 0.9449911118 
-13.50730419 -3.694514036 -1.997737288 0.9449899793 
-12.89652348 -5.459982872 -1.997914553 0.9449852109 
-12.36116886 -6.585119247 -1.998070955 0.9449810386 
-12.0565424 -7.128793716 -1.998160005 0.9449786544 
-11.00213814 -8.671405792 -1.998469234 0.9449704289 
-9.751889229 -10.06048298 -1.998836756 0.9449605346 
-9.29522419 -10.48501968 -1.998971105 0.9449572563 
-8.820322037 -10.88889408 -1.999110937 0.9449532628 
-8.327849388 -11.27131367 -1.999257803 0.9449492693 
-7.818808556 -11.63147449 -1.999409437 0.9449452758 
-7.294233322 -11.96870804 -1.999565482 0.9449410439 
-6.755097389 -12.28235531 -1.999726057 0.9449367523 
-3.880012035 -13.47593021 -2.000580311 0.9449139237 
-3.277014017 -13.63641357 -2.000759363 0.9449090958 
-2.052429199 -13.87623787 -2.001124144 0.9448993206 
-1.433264136 -13.95507526 -2.001307726 0.944894433 
-0.8111450076 -14.00630093 -2.001491785 0.9448895454 
0.9798461795 -12.92812729 -1.849620461 0.9489625692 
1.554113746 -12.87292194 -1.849788666 0.9489580393 
2.125400305 -12.792202 -1.849954486 0.9489535689 
2.692563534 -12.6860981 -1.850118995 0.9489492178 
3.254570246 -12.55487728 -1.850283504 0.9489447474 
3.810168266 -12.39877129 -1.850447655 0.9489403367 
5.947265625 -11.53223133 -1.851081848 0.9489232898 
6.949821472 -10.95976257 -1.851379633 0.9489153028 
7.431042194 -10.64057827 -1.851522684 0.9489114881 
7.897604942 -10.30026627 -1.851661325 0.948907733 
8.348588943 -9.939489365 -1.851795435 0.9489040971 
8.914943695 -9.702433586 -1.87972784 0.9481537342 
10.39022446 -9.46200943 -2.004800797 0.9448009133 
11.19141579 -8.5020895 -2.005039692 0.9447945356 
12.22536564 -6.93791008 -2.005348206 0.9447862506 
12.52243137 -6.387497425 -2.005437136 0.944783926 
12.7946949 -5.824347973 -2.005518675 0.9447817802 
13.04161072 -5.249636173 -2.005592585 0.9447796941 
13.26266098 -4.664460182 -2.005658865 0.9447779655 
13.457407 -4.069992542 -2.005717516 0.9447764158 
13.62547302 -3.467419386 -2.005768299 0.9447750449 
13.88026047 -2.242763519 -2.005845785 0.9447730184 
13.96648407 -1.62312007 -2.00587225 0.9447722435 
14.02498722 -1.000249028 -2.005890608 0.9447717667 
14.05846405 0.2502441406 -2.005902529 0.9447714686 
13.89975357 2.119191885 -2.00585866 0.9447726607 
13.65590763 3.346096039 -2.005788326 0.9447745681 
13.30380821 4.546340466 -2.005686045 0.9447772503 
13.0879879 5.133471489 -2.005622864 0.9447789788 
11.35139656 6.309079647 -1.852710724 0.94887954 
11.05900383 6.807470322 -1.852624774 0.9488818049 
10.74469662 7.2923069 -1.852532506 0.9488843083 
10.40911388 7.762630463 -1.85243392 0.9488869905 
10.05294037 8.217520714 -1.852329254 0.948889792 
9.675468445 8.654816628 -1.851951241 0.9488999248 
9.278299332 9.074102402 -1.851433635 0.9489138722 
8.863049507 9.475262642 -1.85092783 0.9489274621 
7.981574535 10.22017193 -1.849955201 0.9489535689 
6.545522213 11.18345451 -1.848612785 0.9489896894 
6.040205002 11.46098518 -1.848199129 0.9490007758 
5.00612545 11.97272301 -1.851328373 0.9489166737 
4.471026421 12.19022179 -1.852340937 0.9488894343 
3.373677969 12.55346203 -1.854425669 0.9488334656 
2.242847919 12.79372501 -1.852991939 0.9488720298 
1.670062184 12.86960697 -1.851376891 0.948915422 
-0.06241577119 14.03150463 -2.001758337 0.9448823333 
-2.544905901 13.79368782 -2.001022816 0.9449020624 
-3.760124445 13.51048565 -2.000662565 0.9449116588 
-4.35700798 13.32865524 -2.000485659 0.9449164271 
-4.945170879 13.12050629 -2.000311136 0.9449210763 
-5.523440838 12.88643265 -2.000139475 0.9449257255 
-6.090695858 12.62691212 -1.999971151 0.9449301958 
-7.187701225 12.03354359 -1.999645352 0.9449392557 
-8.227514267 11.34542942 -1.999336362 0.9449471831 
-8.72340107 10.96740341 -1.999188781 0.9449511766 
-9.662315369 10.1472578 -1.998909593 0.9449585676 
-10.10352898 9.706718445 -1.998778224 0.9449620843 
-10.52459335 9.247085571 -1.998652816 0.944965601 
-11.30353832 8.274106026 -1.998420119 0.9449717402 
-11.6598444 7.762676716 -1.998312235 0.9449744225 
-11.99293804 7.23595953 -1.998209476 0.9449773431 
-12.58748055 6.140841961 -1.998030663 0.9449821115 
-12.84767628 5.57460928 -1.997952342 0.9449841976 
-13.63008308 3.211425781 -1.99771452 0.9449905753 
-13.75916958 2.601887226 -1.99767518 0.9449916482 
-13.86108208 1.987214327 -1.997643709 0.9449924827 
-13.93559265 1.368640065 -1.997620344 0.9449930787 
-13.89412594 -1.740190387 -1.997626424 0.9449929595 
-13.80314445 -2.356567383 -1.997652292 0.9449922442 
-13.16903496 -4.763671875 -1.997835159 0.9449873567 
-12.69441605 -5.915673733 -1.997973561 0.9449836016 
-12.11941338 -7.021130085 -1.998141646 0.9449791312 
-11.4485302 -8.071289062 -1.998338223 0.9449739456 
-11.07876968 -8.573039055 -1.998446822 0.9449709654 
-10.68705559 -9.057897568 -1.998561859 0.9449679255 
-10.27412796 -9.524960518 -1.998683095 0.9449646473 
-9.840886116 -9.973190308 -1.99881053 0.9449612498 
-8.916718483 -10.80983353 -1.999082565 0.9449540377 
-8.427670479 -11.19660664 -1.999228001 0.9449501038 
-7.921860218 -11.56127453 -1.999378562 0.9449460506 
-7.400314808 -11.9031496 -1.999534011 0.9449418783 
-6.864045143 -12.22154999 -1.999693513 0.9449375868 
-5.177587986 -13.02966976 -2.000195026 0.9449241757 
-4.59327364 -13.24824429 -2.000368595 0.9449195266 
-3.398200512 -13.60646248 -2.000723362 0.9449100494 
-2.175822735 -13.85716057 -2.001087666 0.9449003339 
-0.9357104301 -13.99829292 -2.00145483 0.9448904395 
0.3066577017 -13.77923584 -1.966237307 0.9458334446 
2.011455059 -12.81036377 -1.849921346 0.948954463 
2.579562902 -12.70934772 -1.850085974 0.9489499927 
3.142629385 -12.58312225 -1.850250483 0.9489456415 
4.249316216 -12.25617409 -1.85057795 0.9489368796 
4.79072237 -12.05607128 -1.850738525 0.9489325285 
6.851881981 -11.02101803 -1.851350546 0.9489160776 
7.805497646 -10.37001228 -1.851633906 0.9489084482 
8.761496544 -9.707387924 -1.865509272 0.9485356212 
9.558498383 -9.686925888 -1.941444635 0.946497798 
10.72095203 -9.086623192 -2.004899263 0.9447982907 
11.11516285 -8.601271629 -2.005016804 0.9447951317 
12.46500492 -6.498593807 -2.00541997 0.9447843432 
12.99428654 -5.365415096 -2.005578518 0.9447801709 
13.42058849 -4.18953371 -2.005706549 0.9447767138 
13.74049568 -2.98029542 -2.005803108 0.9447741508 
13.95146179 -1.747316837 -2.00586772 0.9447723627 
13.91811752 1.995390534 -2.005863667 0.9447724819 
13.81539059 2.612441301 -2.005834341 0.9447732568 
13.68521976 3.224413872 -2.005796671 0.9447743297 
13.34383297 4.42776823 -2.005697489 0.9447768927 
12.89663792 5.595851898 -2.005567074 0.9447804689 
12.63444519 6.163818359 -2.005490303 0.9447824955 
11.49006557 6.252929688 -1.866183758 0.9485175014 
11.11924076 6.708874226 -1.852642417 0.9488813281 
10.80929947 7.196457386 -1.852551579 0.9488837719 
9.359221458 8.991659164 -1.851536155 0.9489110708 
8.947488785 9.396557808 -1.851027966 0.9489247203 
8.518395424 9.782606125 -1.850532293 0.9489380717 
7.611297607 10.49559689 -1.849582195 0.9489636421 
6.645064354 11.12528038 -1.848697662 0.9489874244 
6.142255783 11.40726948 -1.84828043 0.94899863 
4.257627964 8.826786995 -1.3980546 0.9611769319 
5.111941814 11.92638969 -1.851128459 0.9489220977 
4.036150932 12.34710884 -1.853165865 0.948867321 
3.484835148 12.5215292 -1.854213953 0.948839128 
2.356995821 12.77549076 -1.853313804 0.9488633275 
1.784862041 12.85647964 -1.851700425 0.9489067197 
1.210075617 12.91184998 -1.850081325 0.9489502311 
-1.184733868 13.97919655 -2.001425982 0.944891274 
-1.805299044 13.91137218 -2.001242161 0.9448961616 
-2.422066689 13.81604958 -2.001059294 0.9449010491 
-3.034039259 13.69337082 -2.000877857 0.9449059367 
-4.828269958 13.16423512 -2.000345707 0.9449201822 
-6.535844803 12.40130234 -1.999838948 0.9449337125 
-7.080407619 12.09733486 -1.999677181 0.9449380636 
-7.610981464 11.76943111 -1.999519467 0.9449422956 
-9.107602119 10.64939594 -1.999074459 0.9449543953 
-9.571774483 10.23294926 -1.998936415 0.944957912 
-10.84658527 8.866193771 -1.998556733 0.9449680448 
-11.22952366 8.37448597 -1.998442292 0.9449712634 
-11.59037685 7.866189003 -1.998333216 0.9449740648 
-11.92806149 7.342494965 -1.998229623 0.9449771643 
-12.53242397 6.252695084 -1.998047113 0.9449816346 
-12.7976656 5.688737869 -1.997967482 0.94498384 
-13.25173187 4.528473854 -1.997830629 0.9449874163 
-13.73552227 2.724260092 -1.997682333 0.9449914098 
-13.97537041 0.8717480302 -1.997607708 0.9449934959 
-13.99749279 -0.3738183379 -1.997598648 0.9449936748 
-13.96705055 -0.9961669445 -1.997606516 0.9449934959 
-13.57078075 -3.453562021 -1.99771893 0.9449904561 
-13.21080494 -4.646284103 -1.997823119 0.9449877143 
-12.74643803 -5.80244875 -1.997958302 0.9449840784 
-12.18128872 -6.912961483 -1.998123527 0.9449796081 
-11.86228752 -7.448283672 -1.998216987 0.9449771643 
-11.51977253 -7.969035625 -1.998317361 0.9449744821 
-11.15451908 -8.473996162 -1.99842453 0.9449715614 
-10.76709175 -8.962341309 -1.998538375 0.9449685812 
-10.35842037 -9.432963371 -1.998658419 0.9449653029 
-9.92914772 -9.885070801 -1.998784542 0.9449619055 
-8.024335861 -11.49013424 -1.999348044 0.9449468851 
-6.972453594 -12.15977001 -1.999661326 0.9449384212 
-6.425041199 -12.45891857 -1.999824166 0.9449342489 
-5.293220043 -12.98285389 -2.000160694 0.9449251294 
-4.119094372 -13.40427017 -2.000509501 0.9449157715 
-2.911940813 -13.71977711 -2.00086832 0.9449062347 
-2.299040556 -13.83699894 -2.001050949 0.9449012876 
-0.436960429 -14.02377129 -2.00160265 0.944886446 
0.1873754859 -14.03060722 -2.001787424 0.9448815584 
0.7495580912 -12.94305134 -1.849552751 0.9489643574 
1.324743629 -12.89807129 -1.849721789 0.9489598274 
3.030446768 -12.61037827 -1.850217342 0.9489465356 
3.588767052 -12.46418476 -1.85038209 0.9489421248 
5.740888596 -11.63587379 -1.851020575 0.9489249587 
7.240224361 -10.77085686 -1.851465821 0.9489129782 
7.712817192 -10.43888378 -1.851606369 0.9489092231 
8.170084953 -10.08623314 -1.851742387 0.9489055872 
8.617605209 -9.720554352 -1.853224277 0.9488657117 
9.393761635 -9.690939903 -1.92542243 0.9469274282 
10.21991634 -9.645177841 -2.004750013 0.9448022842 
11.03807354 -8.699719429 -2.004993916 0.9447957277 
11.76888371 -7.685078144 -2.00521183 0.9447899461 
12.68881035 -6.051052094 -2.005486965 0.9447826147 
13.17737961 -4.899706841 -2.005633354 0.9447786212 
13.38266563 -4.308859825 -2.005695105 0.9447770119 
13.83806896 -2.489423752 -2.005832911 0.9447733164 
13.93529987 -1.871481895 -2.005862713 0.9447725415 
14.00492191 -1.249689937 -2.005884171 0.9447719455 
14.04675293 -0.6254101396 -2.005897522 0.9447715282 
14.06069279 2.441406195e-06 -2.005902767 0.9447714686 
13.83812237 2.489431143 -2.005840778 0.9447731376 
13.71341038 3.102543831 -2.005804777 0.9447741508 
13.38277817 4.308884144 -2.005708933 0.9447765946 
13.17746067 4.899736404 -2.00564909 0.9447782636 
12.94601822 5.480932713 -2.005581379 0.9447800517 
11.72846699 6.248058796 -1.895799994 0.9477221966 
11.1786499 6.609641075 -1.852659822 0.9488809109 
10.87300968 7.100075722 -1.852570176 0.9488832951 
10.54588699 7.576279163 -1.852474213 0.9488858581 
9.829057693 8.482247353 -1.852161646 0.9488942623 
9.03122139 9.31708622 -1.851128459 0.9489220381 
8.605546951 9.70693779 -1.850630283 0.9489354491 
8.163038254 10.07753181 -1.850145221 0.9489485025 
7.231451035 10.75778294 -1.849220514 0.9489733577 
6.744191647 11.06617165 -1.848783255 0.9489850998 
6.243785381 11.35267925 -1.848362565 0.9489963651 
5.731386662 11.61662102 -1.847959757 0.9490072727 
1.325140357 12.90284634 -1.850405216 0.9489414692 
-3.519201517 13.57573414 -2.000734091 0.944909811 
-4.119190693 13.40457249 -2.000556231 0.9449145794 
-6.425252438 12.45922089 -1.999871731 0.944932878 
-6.972617149 12.16005325 -1.999709129 0.9449371696 
-7.506086349 11.83686638 -1.9995507 0.9449414611 
-8.527132034 11.12120438 -1.999247193 0.9449495673 
-9.480482101 10.31784153 -1.998963594 0.9449571967 
-11.15471935 8.474153519 -1.998464823 0.9449706078 
-11.86249447 7.448400497 -1.998249888 0.9449762702 
-12.18145466 6.913056374 -1.998152375 0.9449788928 
-12.74659252 5.802519321 -1.99798286 0.9449834228 
-13.40417957 4.053886414 -1.997784019 0.9449887276 
-13.71078873 2.84635973 -1.997689962 0.944991231 
-13.82360935 2.233544827 -1.997655272 0.944992125 
-13.90908909 1.616450191 -1.997628689 0.9449928403 
-13.96709919 0.9960522056 -1.997610331 0.9449933767 
-13.997509 0.3738183379 -1.997600079 0.9449936152 
-13.97535896 -0.8717455864 -1.997604132 0.9449935555 
-13.92283916 -1.492631793 -1.997618556 0.9449931979 
-13.73545361 -2.724250317 -1.997671604 0.9449917078 
-13.43953323 -3.934428692 -1.99775672 0.9449894428 
-13.25159168 -4.528439999 -1.997811198 0.9449879527 
-13.03741646 -5.113632679 -1.997873545 0.9449863434 
-12.79751205 -5.688666821 -1.997943521 0.944984436 
-12.24220181 -6.804245472 -1.998105764 0.9449800849 
-11.92798042 -7.342372894 -1.998197794 0.9449776411 
-11.5901022 -7.866154671 -1.998296738 0.9449749589 
-11.22933769 -8.374320984 -1.998402476 0.9449722171 
-8.625561714 -11.04447937 -1.999168992 0.9449512959 
-8.126122475 -11.41811275 -1.999317884 0.94494766 
-7.080236435 -12.09704304 -1.999629378 0.9449393749 
-6.535676003 -12.40100288 -1.999791265 0.9449350238 
-5.978014946 -12.68053913 -1.999957085 0.944930613 
-5.408566952 -12.93497276 -2.000126362 0.9449260235 
-4.828154087 -13.16392803 -2.000298977 0.9449214339 
-4.238117695 -13.36687183 -2.000473976 0.9449166656 
-3.639694691 -13.54334164 -2.000651598 0.9449119568 
-3.033849955 -13.69308281 -2.000831604 0.9449071884 
-1.18470943 -13.97888851 -2.001381159 0.9448924661 
-0.5617016554 -14.01904011 -2.001565695 0.9448875189 
1.209816813 -12.90910339 -1.849687934 0.9489607811 
1.783088326 -12.84368134 -1.849855661 0.9489562511 
2.91807127 -12.63660622 -1.850184441 0.9489474297 
4.030375957 -12.32943058 -1.850512981 0.9489386082 
5.111132622 -11.92448902 -1.850833654 0.9489299655 
5.637038231 -11.68628597 -1.850989819 0.9489257932 
8.524443626 -9.78955555 -1.851847768 0.9489027262 
9.23154068 -9.694863319 -1.909791827 0.9473466873 
11.34120369 -8.301750183 -2.005084276 0.9447933435 
11.69992447 -7.789406776 -2.005191326 0.9447904825 
13.34372997 -4.427736759 -2.005683422 0.9447773099 
13.81532955 -2.612438917 -2.005825996 0.9447734952 
14.01554203 1.125041485 -2.005891323 0.9447717071 
13.95149612 1.74731195 -2.005873203 0.9447722435 
13.85976982 2.366220713 -2.005847216 0.9447729588 
13.59408188 3.588564396 -2.005770445 0.9447750449 
13.22062492 4.782331467 -2.005661726 0.9447779059 
12.99435806 5.365576267 -2.005595684 0.9447796345 
11.97732925 6.244467735 -1.926970124 0.9468859434 
10.93585682 7.00312233 -1.852588654 0.9488828182 
9.904768944 8.394857407 -1.852267742 0.9488914609 
9.114336014 9.236782074 -1.851229787 0.9489193559 
7.32730341 10.69346333 -1.849309206 0.9489710331 
6.84269619 11.00624657 -1.848869324 0.9489827752 
3.706343889 12.45467091 -1.853792548 0.9488504529 
2.973664522 11.90677547 -1.750796437 0.9516223669 
2.584946156 12.73592281 -1.853957295 0.9488460422 
2.014044046 12.82716179 -1.85234642 0.9488893151 
1.440244079 12.89279366 -1.850729346 0.9489327669 
0.8647338748 12.9364233 -1.84963119 0.9489622712 
-0.3121838272 14.02764416 -2.001684427 0.9448843598 
-1.557424307 13.94181824 -2.001315594 0.9448941946 
-2.17581296 13.85747242 -2.00113225 0.9448991418 
-3.398226261 13.6067915 -2.000769854 0.9449087977 
-3.999842405 13.4409399 -2.000591516 0.9449135661 
-4.593427658 13.24850559 -2.000415564 0.9449183345 
-5.751768589 12.78563118 -2.000071764 0.9449275136 
-6.314250469 12.5160923 -1.999904752 0.9449319839 
-7.922104359 11.56151676 -1.999427199 0.9449447989 
-8.427897453 11.19688129 -1.999276638 0.9449487329 
-10.27428818 9.525168419 -1.998727202 0.9449636936 
-10.68729305 9.058087349 -1.998604178 0.9449667335 
-11.07895947 8.573256493 -1.998487353 0.9449698925 
-11.44877148 8.071450233 -1.99837625 0.9449728131 
-11.79580402 7.553824425 -1.998270512 0.9449757338 
-12.94469547 5.344933987 -1.997923255 0.9449849725 
-13.36775112 4.173098087 -1.997795224 0.9449879527 
-13.53967285 3.574201584 -1.997741938 0.9449898601 
-13.80321789 2.356572151 -1.997661591 0.9449919462 
-13.89418221 1.740139127 -1.997633457 0.9449927807 
-13.95768738 1.120397925 -1.997613311 0.9449933171 
-13.99364185 0.498337388 -1.99760139 0.9449936152 
-13.93555641 -1.368576646 -1.99761498 0.9449932575 
-13.47393799 -3.814682484 -1.997746825 0.9449896812 
-13.082304 -4.997404575 -1.997860551 0.944986701 
-12.84751701 -5.574538231 -1.997928858 0.9449849129 
-12.58728218 -6.140812874 -1.998004913 0.9449828267 
-11.6595726 -7.762548447 -1.998276353 0.9449755549 
-11.30327892 -8.274003983 -1.998380899 0.9449727535 
-10.52436543 -9.246928215 -1.998609543 0.9449666739 
-9.66207695 -10.14702415 -1.99886322 0.9449598789 
-9.201747894 -10.56746101 -1.998998642 0.9449563622 
-7.715097427 -11.70081043 -1.999440312 0.9449443221 
-7.18747282 -12.03338337 -1.999597311 0.9449402094 
-6.090495586 -12.62663746 -1.999923706 0.9449315071 
-4.944997311 -13.12023163 -2.000264168 0.944922328 
-4.356906414 -13.32835197 -2.00043869 0.9449176788 
-3.155612707 -13.66526604 -2.000795364 0.9449081421 
-2.544787645 -13.793396 -2.000977993 0.9449032545 
-1.309016109 -13.96753597 -2.001344442 0.9448934197 
-0.6865112185 -14.0132246 -2.00152874 0.9448885322 
-0.06241943315 -14.03118896 -2.001713514 0.944883585 
2.23922348 -12.772995 -1.849987626 0.9489526749 
2.805485725 -12.66185284 -1.850151658 0.9489483237 
4.466926098 -12.17903996 -1.850642562 0.9489350915 
6.049782753 -11.47903538 -1.851112366 0.9489224553 
6.554906845 -11.1994772 -1.851262331 0.9489184618 
7.047211647 -10.89763927 -1.851408601 0.9489145279 
7.525541782 -10.57422543 -1.851550698 0.9489106536 
7.989103794 -10.2297287 -1.851688504 0.9489069581 
8.444340706 -9.873762131 -1.853474975 0.9488589764 
9.072038651 -9.698691368 -1.894571543 0.9477551579 
10.47414494 -9.369250298 -2.00482583 0.9448003173 
10.88126183 -8.894537926 -2.004947186 0.944797039 
11.26677227 -8.402234077 -2.005062103 0.9447939396 
11.63003159 -7.893110275 -2.005170345 0.9447910786 
12.28674984 -6.828874588 -2.005366564 0.9447857738 
12.5788765 -6.275871277 -2.005453825 0.9447834492 
12.84613037 -5.710285664 -2.005533934 0.9447813034 
13.08787537 -5.133425236 -2.005606413 0.9447793961 
13.30371761 -4.546245098 -2.005671263 0.9447776675 
13.79145432 -2.735353947 -2.005818844 0.9447737336 
13.98038769 -1.498796344 -2.005876541 0.9447721839 
14.05844688 -0.2503051758 -2.005901814 0.9447715282 
14.05566883 0.3753759563 -2.005901814 0.9447715282 
13.9665308 1.623117685 -2.005877495 0.9447720647 
13.76657963 2.857951641 -2.005820274 0.9447737336 
13.62552261 3.467497587 -2.005779505 0.9447748065 
13.45750237 4.070014477 -2.005730629 0.9447760582 
13.04168224 5.24967289 -2.005609274 0.9447793961 
11.30474091 6.415510178 -1.854342341 0.9488356709 
10.33953476 7.854856968 -1.852413416 0.948887527 
9.979280472 8.306578636 -1.852307558 0.948890388 
9.597540855 8.740063667 -1.851846576 0.9489027262 
9.196667671 9.15582943 -1.851331472 0.9489165545 
8.777835846 9.553296089 -1.850828052 0.9489302039 
8.342025757 9.931653023 -1.850337625 0.9489432573 
7.422519207 10.62839127 -1.849399209 0.9489685297 
6.940680981 10.94544506 -1.848956108 0.9489804506 
4.049983025 8.7927742 -1.381045938 0.9616404176 
4.899886131 12.01810741 -1.851529241 0.9489112496 
4.362876892 12.23086071 -1.852545857 0.9488839507 
3.816574574 12.41978741 -1.853582978 0.9488561153 
2.698620558 12.71462345 -1.854278207 0.9488373995 
2.128564358 12.81095695 -1.852669477 0.9488806129 
1.55516839 12.88171768 -1.851053119 0.9489240646 
0.9799206257 12.92846298 -1.849665284 0.9489612579 
0.4370287955 14.02586651 -2.001906157 0.944878459 
-1.433350801 13.95536804 -2.00135231 0.9448933005 
-2.05247426 13.87653732 -2.001168966 0.9448981285 
-2.667537689 13.77024841 -2.000986576 0.9449029565 
-3.880168438 13.47624397 -2.000627041 0.9449126124 
-5.061674595 13.07574081 -2.000276327 0.94492203 
-6.755249977 12.28264618 -1.99977386 0.9449355006 
-7.294410229 11.96899223 -1.999613643 0.9449397922 
-8.820500374 10.88920403 -1.999159932 0.9449519515 
-9.752221107 10.06067848 -1.998882651 0.9449591637 
-10.18933582 9.616316795 -1.998752594 0.9449627995 
-10.6064024 9.15293026 -1.998628378 0.9449661374 
-11.72821522 7.658553123 -1.998291254 0.9449753165 
-12.36133766 6.585207462 -1.998098612 0.9449803233 
-12.64153576 6.028503418 -1.998014331 0.9449825287 
-12.89666748 5.460043907 -1.997937679 0.9449846148 
-13.33003616 4.291911602 -1.997806907 0.9449881315 
-13.65805912 3.090014696 -1.997705936 0.9449908137 
-13.87816334 1.863806129 -1.997638345 0.9449926615 
-13.94718742 1.24454093 -1.997616649 0.9449932575 
-13.09174538 -1.168212891 -1.9978652 0.948210299 
-13.02694511 -1.749440908 -1.997883201 0.9482098222 
-12.93639374 -2.327233791 -1.997909069 0.9482091665 
-12.82027531 -2.900436878 -1.997942328 0.9482083321 
-12.67881584 -3.467929602 -1.997983098 0.9482073188 
-11.8658905 -5.658652306 -1.998219371 0.9482014179 
-11.60287571 -6.181135178 -1.998296261 0.948199451 
-11.00853252 -7.188557148 -1.998470306 0.9481950402 
-10.67837143 -7.671508789 -1.998567104 0.948192656 
-10.32709217 -8.13934803 -1.998670101 0.9481899738 
-9.955336571 -8.591159821 -1.998779416 0.948187232 
-9.563869476 -9.026027679 -1.998894453 0.9481843114 
-7.338832855 -10.91748524 -1.999549627 0.9481678009 
-6.340393066 -11.52826881 -1.999846935 0.9481602907 
-5.821743011 -11.79981422 -2.000001192 0.9481564164 
-5.29148674 -12.04805183 -2.000158787 0.9481524229 
-4.750695705 -12.27249718 -2.000319481 0.9481483698 
-3.641726017 -12.64823914 -2.000648975 0.9481400847 
-1.926337838 -13.02374268 -2.001157999 0.9481272101 
-1.345183134 -13.09766769 -2.001332283 0.948122859 
-0.7613012791 -13.14569092 -2.00150609 0.9481184483 
0.4101684391 -13.16362476 -2.001853228 0.9481096268 
0.9196313024 -12.13353729 -1.849599123 0.9519598484 
1.458583951 -12.08164501 -1.849756598 0.9519558549 
1.994760752 -12.00582504 -1.84991312 0.9519518614 
2.527050734 -11.90619087 -1.850069046 0.9519479871 
3.575873852 -11.63642788 -1.850379467 0.9519400597 
4.090300083 -11.46679878 -1.850532055 0.9519361854 
5.094089031 -11.05963612 -1.850830078 0.9519286752 
6.05784893 -10.56475353 -1.85111618 0.9519214034 
7.452131271 -9.719274521 -1.861614943 0.9516554475 
9.345598221 -9.304103851 -2.004491568 0.9480430484 
9.750815392 -8.879704475 -2.004612446 0.9480400085 
10.13674545 -8.437644005 -2.004727364 0.9480371475 
10.50262451 -7.97880125 -2.004836321 0.9480343461 
10.84771252 -7.504096508 -2.004939318 0.9480317831 
11.17132282 -7.014465332 -2.005035877 0.9480292797 
11.47280693 -6.510859013 -2.005126238 0.9480270743 
12.62888432 -3.819431067 -2.00547266 0.9480183125 
13.10655499 -1.523178697 -2.005617857 0.9480146766 
13.16145515 -0.938647449 -2.005635023 0.9480141997 
13.19024181 -0.3522460759 -2.00564456 0.9480140209 
13.16932583 0.8214843273 -2.005640268 0.9480140805 
13.04395676 1.988676667 -2.005604982 0.9480149746 
12.94239235 2.566921234 -2.005575657 0.9480157495 
12.81515884 3.140046358 -2.00553894 0.9480166435 
12.66251469 3.706921339 -2.005494595 0.948017776 
12.28226089 4.817419529 -2.005383968 0.9480205178 
11.21536827 6.233461857 -1.950359464 0.9494100809 
10.37827396 6.388434887 -1.852422595 0.9518883228 
9.081334114 8.123370171 -1.852041245 0.9518979788 
8.320121765 8.894866943 -1.851314068 0.9519163966 
7.492927074 9.594421387 -1.850400805 0.9519395232 
7.05705452 9.91590786 -1.849966288 0.9519505501 
4.132802486 8.76645565 -1.473161101 0.9615464211 
4.700187683 11.24099922 -1.851991415 0.9518992305 
3.167176485 11.78504944 -1.854900002 0.9518255591 
2.638751268 11.90956306 -1.854166627 0.9518440962 
2.104639769 12.00539017 -1.852658987 0.9518823028 
0.5273278952 13.15995407 -2.001931667 0.9481077194 
-0.6443090439 13.15246105 -2.001584768 0.9481164217 
-1.810428381 13.04089355 -2.001239061 0.9481251836 
-3.529160023 12.68066597 -2.000729561 0.9481380582 
-4.641469479 12.31478691 -2.000399828 0.9481463432 
-6.237793922 11.58469677 -1.999925852 0.9481582642 
-6.746440411 11.29489136 -1.999774694 0.9481621385 
-7.722491264 10.64902592 -1.999484658 0.9481694698 
-10.2545557 8.231185913 -1.998730421 0.9481884837 
-10.94447994 7.286423206 -1.998520255 0.9481935501 
-11.54765511 6.284284592 -1.998338938 0.9481983185 
-11.8152895 5.76414299 -1.998258471 0.9482004046 
-12.27999592 4.690876484 -1.998118758 0.9482038617 
-12.47613525 4.13984108 -1.998059392 0.9482054114 
-12.64760876 3.580666542 -1.998007298 0.9482067227 
-12.91526413 2.442287445 -1.997924805 0.9482088089 
-13.0109272 1.865319729 -1.997895122 0.9482095838 
-13.08088112 1.284685016 -1.997873306 0.9482101202 
-13.12498283 0.7015160918 -1.99785912 0.9482104778 
-13.14315605 0.1169726551 -1.997852564 0.9482106566 
-13.13535595 -0.4677954018 -1.997853756 0.9482106566 
-13.10160637 -1.051657677 -1.997862697 0.9482103586 
-13.04196548 -1.633444786 -1.997879148 0.9482099414 
-12.95655727 -2.212006807 -1.997903228 0.9482093453 
-12.84553146 -2.786215782 -1.997934937 0.9482085705 
-12.54759216 -3.917067766 -1.998021007 0.9482063651 
-12.36126709 -4.471469402 -1.998075008 0.9482049942 
-11.37591076 -6.590407372 -1.99836266 0.9481977224 
-9.237009048 -9.361149788 -1.998990536 0.9481818676 
-8.812002182 -9.763388634 -1.999115705 0.9481787086 
-7.910348892 -10.50934505 -1.999381185 0.948172152 
-6.94603014 -11.17242908 -1.999666691 0.9481648207 
-6.442634106 -11.47120857 -1.999816537 0.9481610656 
-5.398415565 -12.00030041 -2.000127077 0.9481531978 
-4.859604359 -12.22952366 -2.000287056 0.9481492639 
-3.754081964 -12.61513424 -2.000615597 0.9481408596 
-2.042136192 -13.00584221 -2.001123428 0.9481281042 
-1.461645484 -13.08494377 -2.001297474 0.9481237531 
-0.29296875 -13.16538811 -2.001645088 0.948114872 
0.81661129 -12.21603489 -1.860994816 0.9516711831 
1.887785554 -12.02288532 -1.849881649 0.9519526958 
2.94940424 -11.80949879 -1.850193739 0.951944828 
3.472119093 -11.66760445 -1.850348592 0.9519408345 
5.963500977 -10.61808777 -1.851088047 0.9519220591 
6.430412292 -10.34307384 -1.851226807 0.9519185424 
7.325300217 -9.732004166 -1.851492763 0.9519118667 
8.003190994 -9.702297211 -1.91174531 0.950386405 
8.740736961 -9.684426308 -1.982949615 0.9485868812 
9.26229763 -9.386789322 -2.00446701 0.9480437636 
10.06114197 -8.527428627 -2.004704952 0.948037684 
10.43109322 -8.071872711 -2.004815102 0.9480348825 
11.41430855 -6.612648964 -2.005108595 0.9480274916 
11.95783901 -5.572431564 -2.005271196 0.9480233788 
12.75706768 -3.367599964 -2.005511522 0.9480173588 
13.00636959 -2.220502853 -2.005587101 0.948015511 
13.15256119 -1.055744648 -2.005632162 0.9480143189 
13.18657684 -0.4696264565 -2.005643368 0.9480140209 
13.19442558 0.117434077 -2.005646467 0.9480139613 
13.17612076 0.7042528987 -2.005641937 0.9480140805 
13.13166428 1.289665461 -2.005629778 0.9480143785 
13.06117439 1.87251699 -2.005609751 0.9480148554 
12.52230453 4.155163288 -2.005453825 0.9480187893 
12.102705 5.25137949 -2.005331278 0.9480218887 
10.14394474 6.753518105 -1.852353811 0.9518900514 
9.502593994 7.627596378 -1.852165222 0.9518948197 
9.153374672 8.042309761 -1.852062464 0.9518974423 
7.996673584 9.18351078 -1.850942612 0.9519258142 
7.578380108 9.527810097 -1.850489736 0.9519373178 
6.698445797 10.15893745 -1.849629045 0.9519590735 
6.23853159 10.44455338 -1.849221349 0.9519694448 
4.79954195 11.19758511 -1.85180366 0.9519039989 
4.298882961 11.40581989 -1.852750659 0.9518800378 
3.789238214 11.59181499 -1.853717208 0.9518554807 
3.271580696 11.75514221 -1.8547014 0.9518305659 
2.745074511 11.88753891 -1.854466915 0.9518364668 
1.135649443 12.11739731 -1.849927902 0.9519515038 
-1.694334626 13.0567131 -2.001273632 0.9481242895 
-2.847615957 12.85225105 -2.00093174 0.9481329322 
-3.41621685 12.7117815 -2.000763178 0.9481372237 
-5.076505184 12.14099598 -2.000270605 0.9481496215 
-6.134521484 11.63992119 -1.999956489 0.9481575489 
-6.645757675 11.35464859 -1.999804616 0.9481613636 
-7.143738747 11.04695988 -1.999656796 0.9481651187 
-8.096162796 10.36685276 -1.999373555 0.9481722713 
-8.548629761 9.995762825 -1.999238968 0.9481759071 
-10.18107128 8.32220459 -1.998752594 0.9481877685 
-10.8791132 7.383610725 -1.99854064 0.9481936097 
-11.49135685 6.386852741 -1.998355627 0.9481979609 
-11.76361561 5.869108677 -1.998274088 0.948200047 
-12.2378273 4.800009727 -1.998131394 0.9482036233 
-12.43886662 4.250732422 -1.998070598 0.9482051134 
-12.61528873 3.693100452 -1.998017192 0.9482065439 
-12.76679707 3.128200531 -1.997970104 0.9482076764 
-12.89305878 2.557138681 -1.99793148 0.9482086301 
-12.99385262 1.981042385 -1.997900486 0.9482094049 
-13.11825371 0.8182934523 -1.997861266 0.9482103586 
-13.14160633 0.2339404225 -1.997853398 0.948210597 
-13.11043644 -0.9350170493 -1.997860193 0.9482104182 
-13.05595207 -1.517304659 -1.997875214 0.9482101202 
-12.73842525 -3.241691828 -1.997965813 0.948207736 
-12.58189392 -3.805217266 -1.998010993 0.9482066631 
-11.4340086 -6.488844872 -1.998345613 0.9481981993 
-11.13452625 -6.991352558 -1.998433352 0.9481959939 
-10.81301212 -7.480102539 -1.998527646 0.9481936097 
-9.722765923 -8.854160309 -1.998847723 0.9481855631 
-9.319846153 -9.278449059 -1.998966217 0.9481825233 
-8.898417473 -9.684454918 -1.999090195 0.9481794238 
-7.045068264 -11.10999966 -1.999637246 0.9481655955 
-6.544370174 -11.41323662 -1.999786139 0.9481618404 
-6.030651569 -11.69396496 -1.999939084 0.9481579661 
-4.421589375 -12.39556599 -2.000417233 0.9481458664 
-3.302937031 -12.74160385 -2.00074935 0.9481375217 
-1.578005314 -13.07118416 -2.001262426 0.9481246471 
-0.410107404 -13.16201401 -2.001610279 0.9481158257 
0.1758056581 -13.16836643 -2.001784086 0.9481114149 
0.7178051472 -12.39458466 -1.887147069 0.9510089159 
1.243295908 -12.10529232 -1.849693656 0.9519574046 
1.780695796 -12.0390234 -1.849850416 0.9519534111 
2.844150305 -11.83510017 -1.850162625 0.9519455433 
3.368085861 -11.69784355 -1.850317836 0.9519416094 
4.395178318 -11.35406017 -1.850622535 0.9519339204 
4.896286488 -11.14821053 -1.850771308 0.9519301653 
5.387770653 -10.92022705 -1.85091722 0.9519264698 
5.868664265 -10.67056847 -1.851060033 0.9519228339 
7.861845493 -9.70563221 -1.898538589 0.9507205486 
8.58889389 -9.688158989 -1.967984676 0.9489647746 
9.17828846 -9.468723297 -2.004441977 0.9480443597 
9.591003418 -9.051630974 -2.004564762 0.9480412006 
9.984733582 -8.61652565 -2.004682064 0.94803828 
10.35873222 -8.164284706 -2.004793406 0.9480354786 
11.35490704 -6.713915825 -2.005090952 0.9480279684 
11.64282227 -6.202429295 -2.005177021 0.948025763 
12.14893246 -5.143446922 -2.005328417 0.9480220079 
12.55877399 -4.04356432 -2.005451679 0.9480188489 
12.98606873 -2.336164474 -2.005580902 0.9480155706 
13.07732391 -1.756213307 -2.005608797 0.9480148554 
13.1426239 -1.172744155 -2.005629063 0.9480143785 
13.18186283 -0.5869604349 -2.005641699 0.9480140805 
13.18187237 0.5869555473 -2.005643606 0.9480140209 
13.14265633 1.172761202 -2.005632877 0.9480142593 
12.36620331 4.598112583 -2.005408525 0.9480199218 
12.14904308 5.143488884 -2.005344868 0.9480215311 
10.56278515 6.245549202 -1.865217209 0.9515641928 
9.570195198 7.542807579 -1.85218513 0.9518943429 
9.224682808 7.960618496 -1.852083564 0.9518969655 
8.860926628 8.36260891 -1.851976395 0.9518996477 
7.233091831 9.789643288 -1.850138307 0.9519461989 
6.788897514 10.09937096 -1.849712491 0.9519569874 
6.331508636 10.38907433 -1.849301577 0.9519673586 
4.399760723 11.36594677 -1.852559566 0.9518848658 
3.375700712 11.72429943 -1.854503155 0.9518356323 
2.318735361 11.96992397 -1.853263021 0.951867044 
1.243641376 12.10881042 -1.850232005 0.9519438148 
0.1758154184 13.16865063 -2.001827478 0.948110342 
-0.9951452613 13.12989426 -2.001480818 0.9481190443 
-1.578093171 13.07150078 -2.001308203 0.9481233954 
-2.157806396 12.98724365 -2.001136303 0.9481277466 
-2.733178616 12.87730408 -2.000965595 0.9481320381 
-3.86623168 12.5813036 -2.000629663 0.9481405616 
-4.421700478 12.39585686 -2.000464916 0.9481446743 
-4.968337059 12.18589497 -2.000302792 0.948148787 
-5.505051136 11.95186615 -2.00014329 0.9481528401 
-6.544527531 11.41352177 -1.999834657 0.9481605887 
-7.045262337 11.11026859 -1.999685884 0.9481643438 
-8.459489822 10.07159138 -1.999265552 0.9481751323 
-9.320058823 9.278669357 -1.99900949 0.9481813312 
-9.722898483 8.85436058 -1.998889565 0.948184669 
-10.4703083 7.954230785 -1.998665452 0.948190093 
-10.81315517 7.480209827 -1.998560905 0.9481928945 
-11.13469791 6.991457462 -1.998462677 0.948195219 
-11.71101093 5.973620415 -1.998289704 0.9481996298 
-12.19471073 4.908761978 -1.998144388 0.9482032657 
-12.40061474 4.361276627 -1.99808228 0.948204875 
-13.13900089 0.3508911133 -1.997854233 0.948210597 
-13.11821747 -0.8183104992 -1.997858047 0.9482104778 
-12.89299488 -2.557128906 -1.997921348 0.9482089281 
-12.76671886 -3.128180981 -1.997957706 0.9482079744 
-12.61519527 -3.693068743 -1.998001337 0.9482069016 
-12.23771477 -4.799946308 -1.998111129 0.9482041001 
-11.76346874 -5.869047642 -1.998249292 0.9482006431 
-10.54036331 -7.860512733 -1.998607635 0.9481915832 
-10.18080521 -8.322043419 -1.998713136 0.9481889009 
-7.627372742 -10.71722889 -1.999464512 0.9481698871 
-6.645593166 -11.35437489 -1.999756098 0.9481626153 
-5.076333046 -12.14070988 -2.000222683 0.9481508732 
-3.977883101 -12.54591084 -2.000549078 0.9481425285 
-3.416140079 -12.71148396 -2.000715971 0.9481383562 
-2.847546339 -12.85195541 -2.000884533 0.9481340647 
-2.273225069 -12.96700382 -2.001055002 0.9481297731 
-1.694270015 -13.05639839 -2.001227617 0.9481255412 
-1.111965299 -13.12002659 -2.001401663 0.9481209517 
-0.5272119045 -13.15761471 -2.001575708 0.9481166601 
1.135485768 -12.11564922 -1.849662185 0.9519582987 
2.208212852 -11.96882534 -1.849975348 0.9519502521 
2.738649845 -11.85974121 -1.850131512 0.9519463778 
5.77339077 -10.72222424 -1.851031661 0.9519234896 
6.245109558 -10.4555788 -1.851171851 0.9519199729 
6.704528809 -10.16816902 -1.851308227 0.9519165158 
9.093546867 -9.549904823 -2.004416704 0.9480450153 
10.97976017 -7.309982777 -2.004978657 0.9480307698 
11.5870676 -6.305725098 -2.005160093 0.9480262399 
12.84258747 -3.025878906 -2.005537271 0.9480167031 
12.96471882 -2.451647997 -2.005574226 0.9480157495 
13.13164997 -1.289653301 -2.005625486 0.9480144382 
13.17610836 -0.7042431235 -2.005639791 0.9480140805 
13.19442844 -0.1174218729 -2.005646229 0.9480139613 
13.18658638 0.4696264565 -2.00564456 0.9480139613 
13.1525774 1.055742145 -2.005635738 0.9480142593 
13.09248257 1.639760733 -2.005618811 0.9480146766 
12.89457703 2.796838284 -2.005561829 0.9480160475 
12.19440937 5.035197735 -2.005358219 0.9480212331 
10.77167225 6.240339279 -1.892219186 0.9508805275 
9.63704586 7.457428932 -1.8522048 0.9518938065 
9.295271873 7.878305435 -1.852104306 0.9518963695 
8.159672737 9.040628433 -1.851127267 0.9519211054 
6.878834248 10.039011 -1.849796414 0.9519548416 
6.423986435 10.33276463 -1.849382639 0.951965332 
5.477884293 10.85825157 -1.848602533 0.9519851208 
4.500284195 11.3251791 -1.852369308 0.9518896341 
3.479545832 11.69255352 -1.854305506 0.9518405795 
2.95719099 11.84062099 -1.855066299 0.9518212676 
-0.8782653809 13.13845539 -2.001515388 0.9481182098 
-1.461708903 13.08525372 -2.001342535 0.948122561 
-2.042199612 13.00615311 -2.001170397 0.9481269121 
-2.618515491 12.90134144 -2.000999689 0.9481312037 
-4.311285496 12.4349184 -2.00049758 0.9481438398 
-6.442785263 11.47149658 -1.999864936 0.9481598139 
-7.435791969 10.85183811 -1.999570012 0.9481673241 
-7.910603046 10.50959969 -1.999428868 0.9481708407 
-8.812168121 9.763601303 -1.999160528 0.9481776953 
-9.237200737 9.36135006 -1.999034047 0.9481807947 
-10.39924049 8.047168732 -1.99868691 0.948189497 
-11.07214355 7.0903368 -1.998481274 0.9481947422 
-11.65747452 6.077656269 -1.998305917 0.9481992126 
-12.36138153 4.471516132 -1.998094082 0.9482045174 
-12.54769611 3.91710186 -1.998037696 0.9482059479 
-12.70921707 3.354953527 -1.997988343 0.9482071996 
-12.8456068 2.786227942 -1.997946024 0.9482082725 
-13.1016407 1.051657677 -1.99786675 0.9482102394 
-13.13536835 0.4678100348 -1.997855663 0.948210597 
-13.12496758 -0.7015087605 -1.997856379 0.9482105374 
-12.91520691 -2.442285061 -1.99791503 0.9482090473 
-12.79400635 -3.014426231 -1.997949839 0.9482081532 
-12.64750957 -3.580641985 -1.997992039 0.94820714 
-12.27986526 -4.690815449 -1.998098731 0.9482044578 
-12.05943775 -5.232592583 -1.998162985 0.9482027888 
-10.9442234 -7.286327839 -1.998489141 0.9481945634 
-9.878588676 -8.679504395 -1.998801947 0.9481866956 
-9.483276367 -9.110883713 -1.998918056 0.9481837153 
-7.722323895 -10.64876652 -1.999436617 0.9481706619 
-6.237641335 -11.58441639 -1.999877453 0.9481595159 
-4.641345024 -12.3144989 -2.000351906 0.9481475353 
-4.089296818 -12.50979996 -2.000515938 0.948143363 
-1.22864747 -13.10937691 -2.001367092 0.9481218457 
-0.6443017721 -13.15217495 -2.001540899 0.9481175542 
0.5148168802 -12.84755135 -1.954408646 0.9493077993 
2.101555109 -11.98779011 -1.849944115 0.9519510865 
2.632956505 -11.88344002 -1.850100398 0.9519471526 
3.159233332 -11.75553894 -1.850255847 0.9519432187 
4.69695282 -11.23322487 -1.850712061 0.9519316554 
5.192404747 -11.01403999 -1.850859165 0.9519279599 
6.613678932 -10.22727776 -1.851281285 0.9519172311 
7.06257534 -9.923662186 -1.851414561 0.9519138932 
7.584821701 -9.712099075 -1.873095989 0.9513646364 
8.291826248 -9.695385933 -1.939159751 0.949693203 
9.428152084 -9.220664024 -2.004516363 0.9480424523 
10.91417217 -7.407331467 -2.004959106 0.9480312467 
11.23339844 -6.914821625 -2.005054474 0.9480289221 
11.53039265 -6.408561707 -2.005143166 0.9480266571 
11.80454063 -5.889543533 -2.00522542 0.9480245709 
12.05531216 -5.358781815 -2.005300283 0.9480226636 
12.94234562 -2.566916466 -2.005567551 0.9480159283 
13.04391861 -1.988679171 -2.005598545 0.9480151534 
13.16929913 -0.8214648366 -2.005637407 0.9480141997 
13.19286823 -0.2348388582 -2.005645514 0.9480139613 
13.19025135 0.3522631824 -2.005645514 0.9480139613 
13.10658932 1.523185968 -2.005622625 0.9480145574 
12.91898918 2.681994677 -2.005568981 0.9480159283 
12.78666687 3.25395751 -2.005530596 0.9480168223 
12.00713825 5.465876579 -2.005303383 0.948022604 
11.75167656 5.994360447 -2.005228758 0.9480245113 
10.32092285 6.480485916 -1.852405667 0.9518887401 
10.02195263 6.932856083 -1.852317929 0.9518909454 
9.703144073 7.371423244 -1.852224231 0.9518933296 
9.00856781 8.203775406 -1.852019906 0.9518985152 
8.633199692 8.594865799 -1.851693034 0.9519068003 
7.406895638 9.660261154 -1.850312352 0.9519417286 
6.968211651 9.977858543 -1.849881053 0.9519526958 
5.574518681 10.809515 -1.848677635 0.9519832134 
4.04995966 8.792776108 -1.47146821 0.9615897536 
4.600418568 11.28352547 -1.852180004 0.9518944621 
4.096045971 11.48291397 -1.85313499 0.9518702626 
3.583078623 11.65988636 -1.854108691 0.9518455863 
3.062497377 11.81404018 -1.85509944 0.9518204927 
2.532246113 11.93062592 -1.853865981 0.9518517852 
1.997396231 12.02167416 -1.852356315 0.9518899918 
0.9196435213 12.13385105 -1.849646091 0.9519586563 
-0.1758032143 13.16797924 -2.001723528 0.948112905 
-1.345229506 13.09795856 -2.001377106 0.9481217265 
-2.50361681 12.92435074 -2.001033783 0.9481303692 
-3.64182353 12.64854336 -2.000696182 0.948138833 
-4.200522423 12.47298717 -2.000530481 0.948143065 
-4.750813961 12.27278805 -2.000367165 0.9481471777 
-5.821872234 11.8000803 -2.000049353 0.9481552243 
-6.340540409 11.52854729 -1.999895334 0.9481590986 
-6.84658432 11.23423672 -1.999745011 0.9481628537 
-7.816866398 10.5797224 -1.999456644 0.9481701255 
