# .PCD v0.7 - Point Cloud Data file format
VERSION 0.7
FIELDS x y z intensities
SIZE 4 4 4 4
TYPE F F F F
COUNT 1 1 1 1
WIDTH 944
HEIGHT 1
VIEWPOINT 0 0 0 1 0 0 0
POINTS 944
DATA ascii
-14.03973579 9.347208977 4.332121372 0.9327141643 
-28.81429672 -22.29729271 9.357877731 0.8603069186 
-21.69556427 -18.38827324 7.304636002 0.8891832829 
-19.86453819 -18.41593552 6.957353592 0.8941623569 
-18.16026306 -18.40431404 6.640885353 0.8987239003 
-16.60134315 -18.39366341 6.364008427 0.9027338624 
-15.16440868 -18.38385963 6.120919704 0.9062692523 
-10.30642319 -18.35070992 5.405777931 0.9167503715 
-9.23383522 -18.30324364 5.265460014 0.918821156 
-8.248903275 -18.33668709 5.164296627 0.9203169346 
-6.352980614 -18.32374191 4.981200218 0.9230303168 
-5.439094067 -18.27734566 4.897898674 0.9242674708 
-4.563263893 -18.27136421 4.837051868 0.9251722097 
-3.707248449 -18.26552963 4.787062645 0.9259161353 
-2.867111683 -18.25979233 4.747395515 0.9265068769 
-1.219880342 -18.2485466 4.697507381 0.9272503853 
-0.4059692323 -18.24299049 4.686778545 0.9274103642 
0.4058227539 -18.23744774 4.68535614 0.9274315834 
0.8514037728 -12.7365942 3.278632641 0.9486480951 
2.035998583 -18.22631645 4.710454464 0.9270573854 
4.049026012 -16.21240044 4.291973591 0.9333164096 
5.528562069 -15.94588566 4.334795475 0.9326739907 
6.999079227 -15.55842972 4.38183403 0.9319688082 
10.06165791 -16.18380547 4.894579887 0.9243168235 
14.57895756 -16.15297127 5.588747978 0.9140573144 
20.47670555 -15.84543133 6.650112629 0.8985905647 
27.30046654 -17.48259544 8.32651329 0.8746925592 
60.11030197 32.71226883 17.5771656 0.7538025975 
50.97449112 33.93720245 15.72873783 0.7765424252 
50.89676666 40.85408401 16.76301575 0.7637352943 
50.83934402 44.66830826 17.38195229 0.7561722398 
12.18880081 11.71018791 4.34132719 0.9325760603 
12.51964569 13.147995 4.663071632 0.9277639389 
42.14765549 48.4030838 16.48471642 0.7671604156 
13.90000916 32.42943954 9.062215805 0.8644064665 
12.20813179 32.39068604 8.890672684 0.8667939901 
10.60242653 32.43432617 8.76438427 0.8685559034 
2.440163612 8.767791748 2.337552309 0.9631118774 
6.089112282 33.00411606 8.6200037 0.8705746531 
-23.79053879 88.5242691 23.54376221 0.6848452091 
-28.05913353 88.49511719 23.84468651 0.6815395355 
-41.66156006 99.63807678 27.73856926 0.6401767731 
-46.05116272 97.68321991 27.73774529 0.6401854157 
-54.54800797 93.198349 27.73616409 0.6402013898 
-58.63817215 90.67707825 27.73540688 0.6402093768 
-13.90169239 9.434933662 4.315264702 0.9329669476 
-20.54182816 -10.47808838 5.9228158 0.9091607332 
-24.19387436 -16.73657417 7.556025982 0.8855963349 
-16.90266228 -18.39572906 6.416512966 0.901972115 
-15.4429884 -18.38576317 6.167071819 0.9055970311 
-12.82757568 -18.36791801 5.75428009 0.9116276503 
-9.439831734 -18.30463982 5.289823532 0.9184613228 
-6.536682129 -18.32499695 4.997159958 0.9227935076 
-3.034035683 -18.26092911 4.754526138 0.9264007211 
-1.383205533 -18.24966431 4.700778484 0.9272016287 
-0.5684692264 -18.24409866 4.688176155 0.9273895025 
0.2434789985 -18.23855591 4.68489933 0.9274384379 
2.695168495 -18.2218132 4.731099606 0.9267497063 
4.27666235 -14.85349846 3.970032215 0.9381603003 
5.348776817 -15.88267326 4.304498672 0.9331284165 
6.311711311 -16.30507088 4.490697384 0.9303389192 
8.514299393 -17.25723839 4.942550659 0.9236041307 
15.44719982 -15.9360075 5.700407028 0.9124177098 
16.8752861 -15.9262619 5.959802151 0.9086201191 
18.6853981 -16.12495232 6.339220047 0.9030937552 
20.1126442 -15.85186768 6.577438354 0.8996412754 
27.0980835 -17.69501114 8.312491417 0.8748898506 
29.54157448 -17.46731567 8.81472683 0.8678531051 
32.82086563 -17.48449516 9.551441193 0.8576334715 
51.05478287 33.33868027 15.66133308 0.7773845196 
50.87071991 40.09404373 16.63625526 0.765293479 
50.84476471 43.87749863 17.24962044 0.7577829957 
13.59947968 12.83469582 4.8028965 0.9256803989 
42.91562271 48.40832901 16.61592865 0.7655436397 
39.24346161 48.44699097 16.01352692 0.7729947567 
32.49270248 48.33716583 14.95944214 0.7862077951 
15.99078369 32.41095352 9.282640457 0.8613482118 
14.22958755 32.39892578 9.0887146 0.8640381098 
12.76632786 32.97937775 9.08307457 0.8641164899 
7.790615082 32.41835403 8.56354332 0.8713652492 
5.779613018 56.27366257 14.5296278 0.7916600108 
-27.10259056 104.5523376 27.74132347 0.6401484609 
-27.19638824 88.50101471 23.78009796 0.6822476983 
-45.18033981 98.08982849 27.73790932 0.6401835084 
-53.71662903 93.68062592 27.73631859 0.6401999593 
-57.82923889 91.19580841 27.73555565 0.6402077675 
-24.53271675 -15.10134029 7.399196625 0.8878322244 
-28.81975937 -21.49243927 9.233937263 0.8620230556 
-28.80580711 -23.54657936 9.555929184 0.8575716019 
-17.17122269 -18.35739899 6.456182003 0.9013968706 
-13.07347393 -18.36959648 5.791025639 0.9110892415 
-11.87379169 -18.36140823 5.616206646 0.9136538506 
-10.74222851 -18.35368347 5.462127686 0.915920198 
-8.645852089 -18.33939743 5.207581043 0.9196766019 
-7.665427208 -18.33270264 5.10369873 0.9212140441 
-6.721569538 -18.32626152 5.013617039 0.922549367 
-5.795915604 -18.27978325 4.9254179 0.923858583 
-4.910983562 -18.27375221 4.860056877 0.9248300195 
-1.546769977 -18.25078392 4.704424381 0.9271472692 
-0.7310815454 -18.24521255 4.689952374 0.9273630977 
1.196767569 -12.76958179 3.294177771 0.9484109879 
2.529826641 -18.22294235 4.725358963 0.9268352389 
4.205392838 -18.21150589 4.800623894 0.9257142544 
5.1183424 -15.65768242 4.231010437 0.9342316985 
5.682301998 -15.07627678 4.138175964 0.9356272817 
6.787575722 -15.8357296 4.425205708 0.9313191772 
9.668175697 -16.1864872 4.842573166 0.9250900745 
11.72796154 -16.17243385 5.13106823 0.9208087921 
12.75982666 -16.04214478 5.264779091 0.9188312292 
15.37590504 -16.14753151 5.726901054 0.9120291471 
18.12983513 -15.92919636 6.198590755 0.9051381946 
19.78652954 -15.88236523 6.516758442 0.9005194306 
32.44838715 -17.6585083 9.488396645 0.8585032821 
50.99177551 39.45892334 16.56035042 0.7662280202 
33.12405396 48.34147263 15.05140972 0.7850459218 
18.2116375 32.42612076 9.552131653 0.8576239347 
16.35224724 32.41342163 9.324654579 0.86076653 
14.57594967 32.40129471 9.125408173 0.8635285497 
13.11764908 33.01116943 9.123634338 0.863553226 
11.22583675 32.37841797 8.801874161 0.8680323958 
9.650407791 32.42892075 8.69018364 0.8695927262 
6.585490704 32.44685364 8.503718376 0.8722037673 
5.907859802 37.62591553 9.782422066 0.8544541001 
5.867569447 52.52629852 13.5750227 0.8039051294 
-25.00356674 100.1146088 26.50374031 0.6530144215 
-26.33832741 88.50687408 23.7177639 0.6829321384 
-48.64165878 96.41741943 27.73726082 0.6401902437 
-24.32394791 -16.19412804 7.505427837 0.8863171339 
-28.82244301 -21.09792137 9.174271584 0.862850368 
-17.48218918 -18.35951805 6.511404991 0.9005969763 
-16.0130291 -18.38965034 6.262999535 0.9042013288 
-14.61946487 -18.38014412 6.032073975 0.9075648189 
-12.08132076 -18.32266235 5.637017727 0.9133481979 
-10.96357155 -18.35519218 5.491394997 0.9154892564 
-9.879401207 -18.34779549 5.352268696 0.917539537 
-8.846833229 -18.34076309 5.230118752 0.9193433523 
-7.858434677 -18.33402061 5.123337746 0.9209231734 
-6.907682896 -18.32753181 5.030581474 0.9222977161 
-1.710588336 -18.2518959 4.708451271 0.9270872474 
-0.08119872957 -18.24077415 4.68509531 0.9274354577 
0.7306908965 -18.23523712 4.687384605 0.9274013042 
1.074851036 -12.6826067 3.269144297 0.9487928152 
3.193825722 -18.21841431 4.750667095 0.92645818 
4.035285473 -18.21266747 4.791274071 0.9258534312 
4.375763893 -16.28225708 4.330403328 0.9327398539 
4.864055157 -15.34083176 4.133528233 0.9356971979 
5.888136864 -16.05396271 4.391971111 0.9318169355 
7.234748363 -15.34623241 4.357656002 0.9323312044 
10.46381569 -16.18106079 4.949299812 0.9235038757 
13.81901073 -16.15815544 5.460906029 0.9159381986 
15.10592937 -16.14937782 5.679648399 0.9127222896 
18.03152466 -16.1294117 6.213807106 0.9049167037 
28.72817612 -17.68390846 8.664580345 0.8699508309 
58.41398239 33.15015411 17.25096321 0.757766664 
52.11063385 32.72019196 15.80404949 0.7756027579 
50.82823181 46.28744888 17.65709877 0.7528343201 
12.99902821 12.94131851 4.711212158 0.9270460606 
40.70041656 48.45619965 16.25348663 0.7700181007 
18.59465027 32.42873764 9.601270676 0.856946528 
16.71704483 32.41591644 9.367801666 0.8601695895 
14.92515373 32.40367889 9.16313076 0.8630049825 
13.412673 32.89749527 9.124845505 0.8635364175 
9.96594429 32.43071365 8.714089394 0.8692585826 
2.285891056 8.818169594 2.339765787 0.9630776048 
6.878757 32.40910721 8.509538651 0.8721222281 
5.921518326 35.63967514 9.279356003 0.8613936901 
5.834285736 48.32645798 12.50252628 0.8178884387 
-24.23903084 100.8631744 26.64369583 0.6515460014 
-25.48501205 88.51270294 23.65760422 0.6835928559 
-34.46982574 102.354332 27.73992348 0.640162766 
-47.78197098 96.84700775 27.73742294 0.640188694 
-56.19744873 92.2117157 27.73585892 0.6402046084 
-60.05184555 89.33517456 27.64752579 0.6411145329 
-24.37755585 -14.41396236 7.273870468 0.8896232843 
-24.42051506 -15.94659901 7.491137505 0.886520803 
-22.88812637 -16.44322014 7.238500118 0.8901293874 
-21.34907913 -18.42359161 7.24289465 0.8900663853 
-19.51076698 -18.41352654 6.890568733 0.8951230645 
-10.09184837 -18.34924507 5.378677845 0.917149961 
-8.052887917 -18.33534431 5.143529415 0.9206242561 
-7.095124245 -18.32881546 5.048070431 0.9220384359 
-1.056774855 -18.24743462 4.694613934 0.927293539 
2.200285673 -18.22519302 4.715038776 0.9269890785 
3.027150869 -18.21955299 4.743751526 0.9265611768 
5.731184006 -16.06689644 4.381378174 0.9319756031 
9.282877922 -16.18912315 4.793165207 0.9258252978 
10.12838078 -15.97230721 4.857688427 0.9248653054 
13.57331276 -16.15984154 5.420431614 0.9165344834 
14.8402853 -16.15119362 5.633603573 0.9133983254 
16.21378136 -16.141819 5.876333714 0.909840405 
17.71414757 -16.13157463 6.153665543 0.9057922363 
25.4017601 -17.57210732 7.933255672 0.8802409768 
28.16970825 -17.68771744 8.543275833 0.8716492653 
53.16757584 32.7277832 16.03562164 0.7727200985 
50.97032928 34.59302902 15.82183552 0.7753810287 
50.88542938 37.94797897 16.30383301 0.7693949938 
50.83382797 45.4714241 17.51773071 0.7545231581 
12.10247326 11.83617783 4.347929001 0.932477057 
41.39159012 48.3979187 16.35684776 0.7687394023 
38.76774216 49.64070129 16.17742348 0.770960331 
34.45449066 48.41218567 15.26195908 0.782392621 
18.98172569 32.43137741 9.651696205 0.8562520742 
13.63467216 32.6088562 9.078083038 0.8641859293 
11.8771019 32.38286591 8.859156609 0.867233336 
10.28324795 32.43251419 8.738814354 0.8689130545 
2.357228994 8.771254539 2.332790136 0.963185668 
7.181772232 32.41379166 8.527215958 0.871874392 
5.933837891 33.84801865 8.82626915 0.8676920533 
5.856279373 45.12889481 11.68831348 0.8286665678 
-38.08996582 101.0600891 27.73924065 0.6401699781 
-42.54645538 99.26273346 27.73839951 0.6401785016 
-46.9185257 97.26900482 27.73758507 0.6401868463 
-51.19744873 95.08281708 27.73678398 0.6401952505 
-55.37488174 92.70865631 27.7360096 0.6402031779 
-59.34594727 90.00470734 27.69034195 0.6406747699 
-14.03977871 9.34719944 4.332129002 0.932714045 
-20.51675797 -10.69646263 5.942799568 0.9088686705 
-31.54712486 -18.27617836 9.364237785 0.860218823 
-28.81429672 -22.29725838 9.357870102 0.8603069782 
-21.69562149 -18.38827324 7.304646492 0.8891831636 
-19.86461067 -18.41593933 6.957365513 0.894162178 
-15.16435528 -18.38386345 6.120909691 0.9062693715 
-13.83067608 -18.37476349 5.906982422 0.9093921185 
-12.5803051 -18.35984612 5.71644783 0.9121824503 
-10.30640888 -18.35070992 5.405778885 0.9167504311 
-9.233825684 -18.30324364 5.2654562 0.918821156 
-6.352995396 -18.32374191 4.981201172 0.9230303168 
-5.43910408 -18.27734566 4.897901058 0.9242674708 
-4.563278675 -18.27136421 4.837051868 0.9251722097 
-2.867131233 -18.25979233 4.7473979 0.9265068769 
-2.039167404 -18.25413704 4.717647552 0.9269502163 
-1.219909668 -18.24854279 4.697508335 0.9272503853 
-0.4059301615 -18.24299049 4.686778545 0.9274103642 
0.4058617949 -18.23744774 4.68535614 0.9274315834 
2.860959291 -18.22068596 4.737228394 0.9266583323 
4.049035549 -16.21240044 4.291974545 0.9333164096 
8.511681557 -16.87185669 4.853674889 0.9249249101 
9.093092918 -16.19041252 4.769394398 0.9261792302 
10.06163311 -16.18380165 4.894577026 0.9243168831 
11.08446503 -16.17682266 5.036745071 0.9222063422 
13.33116913 -16.16148567 5.380970955 0.9171162248 
14.5790205 -16.15297127 5.588760376 0.9140571356 
17.17686272 -15.92420101 6.016008377 0.9077993035 
19.02247238 -16.12264824 6.404633522 0.9021444321 
20.47674561 -15.84543133 6.650122643 0.8985904455 
27.30049515 -17.48258972 8.326518059 0.8746924996 
60.11042023 32.71227264 17.57719612 0.7538022399 
54.25353241 32.73394775 16.27463531 0.7697562575 
50.95318222 37.29765701 16.21856689 0.7704504728 
50.8968544 40.85437012 16.76306915 0.7637345195 
50.8393364 44.66850662 17.3819828 0.7561718822 
12.18879604 11.71020889 4.341331482 0.9325760007 
12.51963615 13.14799976 4.663070679 0.9277639985 
42.14757538 48.4030838 16.48470497 0.7671605349 
38.77384567 48.74798584 15.99832249 0.7731838822 
31.86901474 48.33290863 14.86975193 0.7873423696 
19.37285614 32.43405533 9.703415871 0.855540216 
17.45710564 32.4209671 9.457579613 0.8589287996 
15.63250923 32.40850449 9.241726875 0.8619150519 
12.20817375 32.39071274 8.890681267 0.8667938709 
10.60246849 32.43432617 8.764385223 0.8685558438 
6.08906126 33.00423431 8.620031357 0.8705742359 
-23.79053879 88.5242691 23.54376221 0.6848452091 
-37.18912888 101.3958206 27.7394104 0.6401680708 
-41.66143417 99.63812256 27.73856926 0.6401767731 
-50.34933472 95.53536987 27.73694611 0.640193522 
-54.54776382 93.19843292 27.73616409 0.640201509 
-58.63835907 90.67694092 27.73540688 0.6402093768 
-13.90169239 9.434933662 4.315264702 0.9329669476 
-24.19386482 -16.73659325 7.556026936 0.8855963349 
-28.81704712 -21.89225769 9.295133591 0.8611752391 
-28.80289459 -23.97504044 9.625378609 0.8566144705 
-20.18081284 -18.37793159 7.010564327 0.8933976293 
-18.48863983 -18.40654945 6.700798988 0.8978585005 
-16.90266228 -18.39572906 6.416512966 0.901972115 
-14.08998775 -18.37653542 5.947632313 0.9087978601 
-11.64237499 -18.35983086 5.583809853 0.9141299129 
-10.52322483 -18.35219383 5.433594227 0.9163404703 
-9.439855576 -18.30463982 5.289823532 0.9184612632 
-7.473981857 -18.33140373 5.084626198 0.9214966297 
-6.53663826 -18.32499313 4.997156143 0.9227935672 
-3.877028704 -18.26668739 4.796216488 0.9257798791 
-2.203908682 -18.25526619 4.722817898 0.9268730879 
-1.383185983 -18.24966431 4.700777531 0.9272016287 
-0.5684692264 -18.24409866 4.688176155 0.9273895025 
0.2434789985 -18.23855591 4.68489933 0.9274384379 
0.7390014529 -12.76065636 3.283003569 0.9485813975 
1.872038484 -18.22743416 4.706252098 0.9271200299 
2.695168495 -18.2218132 4.731099606 0.9267497063 
3.528688908 -18.21612549 4.765695572 0.9262343645 
4.376179218 -18.21033859 4.810393333 0.9255688787 
6.311672211 -16.3050518 4.490688801 0.9303390384 
6.880295277 -15.66546631 4.394565105 0.9317780733 
8.514299393 -17.25715065 4.942529202 0.9236044884 
8.905251503 -16.19170189 4.746243 0.9265240431 
10.87520218 -16.17824936 5.006865501 0.9226495028 
11.88877678 -16.09083176 5.13855505 0.9206979275 
13.09261417 -16.16311646 5.342514992 0.9176834226 
14.13576412 -15.94496346 5.473036289 0.9157595634 
15.44719982 -15.9360075 5.700407028 0.9124177098 
16.8752861 -15.9262619 5.959802151 0.9086201191 
24.47121239 -17.58053017 7.739151955 0.882992506 
32.82085037 -17.48453331 9.551441193 0.8576334119 
61.53891373 32.78335571 17.90888596 0.7497925758 
50.95754623 36.60874557 16.11559105 0.7717272043 
50.87071991 40.09404373 16.63625526 0.765293479 
42.91570282 48.40832901 16.61594391 0.7655434608 
39.24356079 48.44700241 16.01354218 0.7729945779 
19.9489994 32.73323822 9.845662117 0.8535857201 
15.990695 32.41095352 9.282627106 0.861348331 
14.22950363 32.39892578 9.088708878 0.864038229 
6.321044922 32.63095093 8.536886215 0.8717387915 
5.779613018 56.27366257 14.5296278 0.7916600108 
-27.19669151 88.50101471 23.78012466 0.6822474599 
-40.77360153 100.005455 27.7387352 0.6401749849 
-49.49769592 95.98009491 27.7371006 0.640191853 
-57.82923889 91.19580841 27.73555565 0.6402077675 
-32.58824539 -18.11244392 9.576057434 0.857294023 
-18.82311249 -18.40883446 6.762364388 0.8969702125 
-15.69133282 -18.34730721 6.200779438 0.9051063061 
-13.0734148 -18.36959267 5.791018009 0.9110893607 
-11.87373257 -18.36140823 5.616195679 0.9136539698 
-9.668972015 -18.34636497 5.326532364 0.9179192781 
-8.645803452 -18.33939743 5.207576275 0.9196766615 
-7.665427208 -18.33270264 5.10369873 0.9212140441 
-6.721569538 -18.32626152 5.013617039 0.922549367 
-5.795915604 -18.27978325 4.9254179 0.923858583 
-4.910983562 -18.27375221 4.860056877 0.9248300195 
-4.047536373 -18.26784325 4.805792332 0.9256373644 
-2.36909914 -18.25638962 4.72837925 0.9267902374 
-1.546769977 -18.25078392 4.704424381 0.9271472692 
-0.7311205864 -18.24520683 4.689953327 0.9273630977 
0.6265112162 -12.78962135 3.288890839 0.9484916329 
1.196806669 -12.76972389 3.294214964 0.9484104514 
4.551486492 -16.35393715 4.360070229 0.932295084 
5.1183424 -15.65768242 4.231010437 0.9342316985 
8.517008781 -17.65701294 5.035141945 0.9222301841 
11.72796154 -16.17243385 5.13106823 0.9208087921 
12.75982666 -16.04214478 5.264779091 0.9188312292 
16.78850746 -16.12929916 5.979621887 0.9083305597 
21.64250755 -15.84215069 6.888866901 0.8951476216 
26.58371353 -17.69851685 8.202692986 0.8764358163 
62.90226364 32.79423523 18.21997833 0.7460514307 
56.42228317 32.68707275 16.74800301 0.7639194727 
50.96186447 35.92842865 16.01517677 0.7729741931 
50.85011673 43.09835052 17.12059402 0.7593567371 
50.88506699 47.17416763 17.82194901 0.7508414984 
12.83943558 13.01205158 4.695168972 0.927285254 
39.96639252 48.45156097 16.1319561 0.7715242505 
30.0413208 48.32042313 14.61387157 0.7905884385 
14.57594967 32.40129471 9.125408173 0.8635285497 
9.650407791 32.42892075 8.69018364 0.8695927262 
6.585561275 32.44680405 8.503714561 0.8722039461 
5.907863617 37.62540817 9.782294273 0.8544558287 
5.867576599 52.52542877 13.5748024 0.8039079905 
-26.33832741 88.50687408 23.7177639 0.6829321384 
-40.28025055 89.54007721 25.21782112 0.6666569114 
-50.17789841 89.34253693 26.3187294 0.6549606323 
-14.54421997 9.313774109 4.435921669 0.9311587214 
-24.32403564 -16.19412804 7.505449772 0.8863168359 
-28.82243919 -21.09801865 9.174285889 0.8628501892 
-17.48211098 -18.35951805 6.511392117 0.9005971551 
-14.61946487 -18.38014412 6.032073975 0.9075648189 
-13.32256031 -18.37129593 5.828710079 0.9105373621 
-10.96357155 -18.35519218 5.491394997 0.9154892564 
-7.858434677 -18.33402061 5.123337746 0.9209231734 
-6.90773201 -18.32753181 5.030585289 0.9222976565 
-5.975895882 -18.2810173 4.939888954 0.9236437082 
-3.369460344 -18.26321983 4.769979 0.9261705279 
-0.08115966618 -18.24077415 4.68509531 0.9274354577 
1.074851036 -12.6826067 3.269144297 0.9487928152 
2.364875317 -18.2240696 4.720004559 0.9269150496 
3.193825722 -18.21841431 4.750667095 0.92645818 
4.375763893 -16.28225708 4.330403328 0.9327398539 
4.864055157 -15.34083176 4.133528233 0.9356971979 
7.234719276 -15.34626198 4.357658386 0.9323312044 
8.506735802 -16.14109612 4.686270714 0.9274179339 
10.46385956 -16.18105698 4.949306011 0.9235038161 
11.41712666 -16.04220009 5.057321548 0.9219012856 
19.47244835 -15.9172678 6.459717751 0.9013457298 
25.81348801 -17.51932907 8.012830734 0.8791154623 
28.72817612 -17.68390846 8.664580345 0.8699508309 
31.61702347 -17.572649 9.290665627 0.8612371087 
64.30409241 32.80078888 18.54076576 0.7422133088 
52.11037827 32.72019196 15.80399418 0.7756034136 
50.96612167 35.25681686 15.91730595 0.7741915584 
50.82823181 46.28744888 17.65709877 0.7528343201 
12.99902821 12.94131851 4.711212158 0.9270460606 
12.66474342 13.78347588 4.80773735 0.9256083965 
40.70041656 48.45619965 16.25348663 0.7700181007 
33.76317596 48.34582901 15.14572811 0.7838563323 
30.64361572 48.32453918 14.69703484 0.7895320058 
18.59472466 32.42873764 9.60128212 0.8569464087 
16.71714592 32.41591644 9.36781311 0.8601694107 
13.41271687 32.89739609 9.124824524 0.8635367155 
5.921514988 35.6401329 9.279465675 0.8613920808 
5.834285736 48.32645798 12.50252628 0.8178884387 
-25.48482132 88.51270294 23.65758896 0.6835930347 
-38.98775482 100.7164536 27.73907089 0.6401716471 
-47.78220749 96.84689331 27.73742294 0.6401886344 
-60.05212784 89.33516693 27.64743614 0.6411142349 
-14.26486301 9.314959526 4.375836849 0.9320588112 
-22.88812637 -16.44322014 7.238500118 0.8901293874 
-28.81150627 -22.70798111 9.422239304 0.8594170213 
-21.34907913 -18.42359161 7.24289465 0.8900663853 
-19.51076698 -18.41352654 6.890568733 0.8951230645 
-17.83766747 -18.40210152 6.582550049 0.8995673656 
-16.30485535 -18.39164352 6.31285429 0.9034767151 
-14.88999271 -18.38198853 6.075939655 0.906924963 
-11.16279984 -18.31639862 5.509300232 0.9152257442 
-10.09178925 -18.34924507 5.378671169 0.9171500802 
-9.049543381 -18.34214592 5.253267288 0.9190012813 
-6.170427322 -18.3224926 4.965736389 0.9232599139 
-1.874699712 -18.25301933 4.712854385 0.9270215631 
-0.2435571253 -18.24188232 4.685750008 0.9274256825 
2.200246572 -18.22519302 4.715037346 0.9269890785 
3.865783691 -18.2138195 4.782340527 0.9259865284 
6.552453518 -16.07122231 4.45771122 0.9308325052 
10.12838078 -15.97230721 4.857688427 0.9248653054 
11.29636478 -16.17537308 5.067403316 0.9217518568 
12.23554897 -15.95793152 5.164844036 0.9203088284 
13.57331276 -16.15984154 5.420431614 0.9165344834 
14.8402853 -16.15119362 5.633603573 0.9133983254 
15.61095905 8.676527977 4.587282181 0.9288952351 
53.16757584 32.7277832 16.03562164 0.7727200985 
50.88542938 37.94797897 16.30383301 0.7693949938 
34.45433426 48.41218567 15.26194763 0.7823929191 
17.08528328 32.41843033 9.412098885 0.8595571518 
10.28324795 32.43251419 8.738814354 0.8689130545 
2.357228994 8.771254539 2.332790136 0.963185668 
7.181772232 32.41379166 8.527215958 0.871874392 
5.856279373 45.12889481 11.68831348 0.8286665678 
-24.30243301 105.2406311 27.74185562 0.640142858 
-24.63578796 88.51848602 23.59961891 0.6842305064 
-28.92647552 88.48919678 23.91151619 0.6808075905 
-42.54645538 99.26273346 27.73839951 0.6401785016 
-46.9185257 97.26900482 27.73758507 0.6401868463 
-51.19744873 95.08281708 27.73678398 0.6401952505 
-14.03977871 9.34719944 4.332129002 0.932714045 
-20.51675797 -10.69646263 5.942799568 0.9088686705 
-31.54712486 -18.27617836 9.364237785 0.860218823 
-24.87230682 -15.92764378 7.5859375 0.8851705194 
-23.27831459 -16.4113636 7.315403461 0.8890293241 
-28.81429672 -22.29725838 9.357870102 0.8603069782 
-21.69562149 -18.38827324 7.304646492 0.8891831636 
-18.16018295 -18.40430832 6.640869141 0.8987241387 
-16.60126114 -18.39366341 6.363994122 0.9027341008 
-13.83067608 -18.37476349 5.906982422 0.9093921185 
-11.41353703 -18.35826874 5.552216053 0.9145944118 
-8.248903275 -18.33668709 5.164296627 0.9203169346 
-7.283835411 -18.33009911 5.066075325 0.9217715263 
-6.352995396 -18.32374191 4.981201172 0.9230303168 
-4.563278675 -18.27136421 4.837051868 0.9251722097 
-2.867131233 -18.25979233 4.7473979 0.9265068769 
-2.039167404 -18.25413704 4.717647552 0.9269502163 
0.4058617949 -18.23744774 4.68535614 0.9274315834 
2.860959291 -18.22068596 4.737228394 0.9266583323 
5.528562069 -15.94588566 4.334795475 0.9326739907 
6.999069691 -15.55843925 4.38183403 0.9319688082 
8.511681557 -16.87185669 4.853674889 0.9249249101 
9.093092918 -16.19041252 4.769394398 0.9261792302 
10.06163311 -16.18380165 4.894577026 0.9243168831 
11.08446503 -16.17682266 5.036745071 0.9222063422 
12.03153038 -15.98450851 5.138581276 0.9206975102 
19.02247238 -16.12264824 6.404633522 0.9021444321 
20.47658348 -15.84542656 6.650085449 0.8985909224 
25.11824989 -17.70852661 7.893615723 0.8808022141 
30.2741127 -17.5386734 8.986364365 0.8654613495 
60.11042023 32.71227264 17.57719612 0.7538022399 
50.95318222 37.29765701 16.21856689 0.7704504728 
50.896698 40.85386276 16.7629509 0.76373595 
50.8393364 44.66850662 17.3819828 0.7561718822 
12.51963615 13.14799976 4.663070679 0.9277639985 
38.77384567 48.74798584 15.99832249 0.7731838822 
35.16143417 48.48590851 15.38329792 0.7808678746 
19.37268066 32.4340477 9.703392982 0.8555405736 
17.45710564 32.4209671 9.457579613 0.8589287996 
13.90004826 32.42941284 9.062210083 0.8644064665 
2.440135479 8.767783165 2.337548256 0.963111937 
6.179190636 44.50918961 11.54159164 0.8306236863 
-23.79053879 88.5242691 23.54376221 0.6848452091 
-28.05921173 88.49511719 23.8447113 0.6815394759 
-46.05111313 97.6832962 27.73774529 0.6401853561 
-54.54776382 93.19843292 27.73616409 0.640201509 
-58.63835907 90.67694092 27.73540688 0.6402093768 
-13.90161324 9.434788704 4.315226555 0.9329675436 
-24.5960083 -15.44373226 7.459447384 0.8869727254 
-24.19386482 -16.73659325 7.556026936 0.8855963349 
-28.81705284 -21.89206314 9.295102119 0.8611755967 
-18.48863983 -18.40654945 6.700798988 0.8978585005 
-16.9025135 -18.39572906 6.416486263 0.9019724727 
-15.4429884 -18.38576317 6.167071819 0.9055970311 
-12.82757568 -18.36791801 5.75428009 0.9116276503 
-8.446559906 -18.33803368 5.185647488 0.92000103 
-5.616970062 -18.27856255 4.911422729 0.9240665436 
-3.877028704 -18.26668739 4.796216488 0.9257798791 
-1.383264184 -18.24966431 4.700779915 0.9272016287 
-0.5684692264 -18.24409866 4.688176155 0.9273895025 
0.2435620129 -18.23855591 4.68489933 0.9274384379 
1.872116685 -18.22743416 4.706254959 0.9271200299 
3.528767109 -18.21612549 4.765699387 0.9262342453 
8.514299393 -17.25715065 4.942529202 0.9236044884 
9.863903999 -16.18515396 4.868246555 0.9247082472 
10.8751049 -16.17824936 5.00685215 0.9226497412 
13.09249687 -16.16312218 5.342493057 0.9176837206 
14.13576412 -15.94496346 5.473036289 0.9157595634 
15.44733143 -15.9360075 5.700419903 0.9124174118 
16.8752861 -15.9262619 5.959802151 0.9086201191 
18.6855545 -16.12495232 6.339248657 0.9030932784 
20.11260414 -15.85186768 6.577430248 0.8996413946 
24.47121239 -17.58036423 7.739127636 0.8829928637 
27.09801483 -17.69501114 8.312477112 0.8748900294 
32.82085037 -17.48453331 9.551441193 0.8576334119 
61.53891373 32.78335571 17.90888596 0.7497925758 
55.2691803 32.67920685 16.49138069 0.7670782208 
51.05475616 33.33873749 15.66133308 0.7773845196 
50.95754623 36.60842133 16.1155529 0.7717278004 
50.87071991 40.09404373 16.63625526 0.765293479 
50.84476471 43.87784958 17.24967575 0.7577822208 
13.59947968 12.83469582 4.8028965 0.9256803989 
39.24320984 48.44699097 16.01348686 0.7729952931 
17.83241081 32.42353058 9.504232407 0.8582847118 
12.76644516 32.97937775 9.08308506 0.8641163111 
2.545317411 8.840153694 2.362793684 0.9627211094 
6.574995041 44.45272827 11.54166985 0.8306227326 
5.779598236 56.27588654 14.53019619 0.7916527987 
-27.10281372 104.5522995 27.74132347 0.6401484013 
-27.19630623 88.50101471 23.78010941 0.6822477579 
-49.49729538 95.98032379 27.7371006 0.6401917338 
-57.82961655 91.19556427 27.73555565 0.6402078271 
-24.53271675 -15.10134029 7.399196625 0.8878322244 
-23.88437271 -16.21021652 7.414034843 0.8876205683 
-28.81975937 -21.49243927 9.233937263 0.8620230556 
-28.80580711 -23.54678345 9.555963516 0.857571125 
-18.82293701 -18.40883064 6.762333393 0.8969706893 
-15.69120121 -18.34730148 6.20075655 0.9051066637 
-13.0734148 -18.36959267 5.791018009 0.9110893607 
-11.8738451 -18.36140823 5.616213799 0.9136537313 
-9.669074059 -18.34635925 5.326545715 0.9179191589 
-4.910983562 -18.27375221 4.860056877 0.9248300195 
-4.047453403 -18.26784897 4.805788517 0.925637424 
-2.369020939 -18.25638962 4.728375912 0.926790297 
-1.546769977 -18.25078392 4.704424381 0.9271472692 
0.0811303705 -18.23966599 4.684813023 0.9274396896 
1.196726084 -12.76944065 3.294140577 0.9484115839 
3.360954523 -18.2172718 4.757978439 0.9263492823 
4.205431938 -18.21150589 4.800626755 0.9257141948 
5.1183424 -15.65768242 4.231010437 0.9342316985 
6.787575722 -15.8357296 4.425205708 0.9313191772 
8.605900764 -15.98269749 4.662341118 0.9277748466 
9.668273926 -16.1864872 4.842585564 0.9250898957 
14.06854248 -16.1564579 5.502446175 0.9153265953 
15.37583256 -16.14753532 5.726889133 0.912029326 
16.78850365 -16.12917137 5.979600906 0.9083309174 
18.12983513 -15.92926502 6.198600769 0.9051380157 
28.95680809 -17.47130585 8.686307907 0.8696469665 
32.44838715 -17.6585083 9.488396645 0.8585032821 
51.36398315 32.89258575 15.66581345 0.77732867 
50.96186447 35.92842865 16.01517677 0.7729741931 
50.85011673 43.09835052 17.12059402 0.7593567371 
12.83950901 13.01201916 4.695174217 0.9272851348 
39.96673584 48.45156097 16.13201523 0.7715235949 
37.5205574 49.84805679 16.02476692 0.7728550434 
18.21180916 32.42612457 9.552153587 0.8576235771 
16.35224724 32.41342163 9.324654579 0.86076653 
14.57578373 32.40129089 9.125390053 0.8635287881 
8.096747398 32.42009354 8.582686424 0.8710970283 
5.907856464 37.62641907 9.782546997 0.8544523716 
-25.00313759 100.1146088 26.50377464 0.6530146599 
-57.01553726 91.70745087 27.73570442 0.6402061582 
-14.54408455 9.313770294 4.435891628 0.9311591983 
-24.32403564 -16.19412804 7.505449772 0.8863168359 
-28.80868149 -23.12423515 9.488223076 0.8585057259 
-19.16378784 -18.41115379 6.825609207 0.8960584998 
-17.48211098 -18.35951805 6.511392117 0.9005971551 
-13.32244873 -18.37129021 5.828690529 0.9105376005 
-10.96346378 -18.35519218 5.491380692 0.9154894948 
-9.879401207 -18.34779549 5.352268696 0.917539537 
-7.858434677 -18.33402061 5.123337746 0.9209231734 
-2.534694672 -18.25752068 4.734326839 0.9267016053 
-0.8939037919 -18.24632072 4.692095757 0.92733109 
0.7306127548 -18.23523712 4.687383175 0.9274013042 
1.074851036 -12.6826067 3.269144297 0.9487928152 
2.364953518 -18.2240696 4.720007896 0.9269149899 
4.035363674 -18.21266747 4.791279316 0.9258533716 
4.375763893 -16.28225708 4.330403328 0.9327398539 
5.888136864 -16.05396271 4.391971111 0.9318169355 
6.680622578 -15.97727776 4.447974682 0.9309782386 
9.47449398 -16.18780899 4.817544937 0.9254624248 
11.41712093 -16.04234505 5.057353973 0.9219008684 
12.62538338 -16.16630554 5.268449783 0.918776989 
19.47244835 -15.91712093 6.459688663 0.9013460875 
28.72817612 -17.68390846 8.664580345 0.8699508309 
31.61702347 -17.57247353 9.290643692 0.8612374067 
64.30480957 32.80078125 18.54092789 0.7422113419 
58.4139328 33.15028381 17.25096321 0.7577665448 
52.11088562 32.72019577 15.80410767 0.7756020427 
50.96612167 35.25681686 15.91730595 0.7741915584 
51.02582932 42.47299576 17.05185699 0.7601965666 
12.66475773 13.78361511 4.807765961 0.9256079793 
40.70041656 48.45619965 16.25348663 0.7700181007 
38.22373581 49.8528595 16.13500977 0.771486342 
33.76317596 48.34582901 15.14572811 0.7838563323 
30.64332199 48.32453918 14.69699574 0.7895325422 
18.59472466 32.42873764 9.60128212 0.8569464087 
11.55049515 32.38063812 8.830083847 0.8676388264 
5.92152071 35.63922119 9.279239655 0.8613952994 
-24.23904037 100.8640442 26.64376068 0.6515438557 
-25.48521233 88.51269531 23.65761948 0.6835926771 
-34.4696312 102.3544006 27.73992348 0.640162766 
-43.42760468 98.87967682 27.73823738 0.6401802301 
-49.60679626 90.1969223 26.43922043 0.6536923647 
-60.05153275 89.33517456 27.64761162 0.6411149502 
-34.19897079 -18.21861458 9.57574749 0.8524346352 
-30.72902489 -18.16941071 8.821953773 0.8632158041 
-24.49692345 -15.99646187 7.230118275 0.8864332438 
-28.81143951 -22.70789337 9.065537453 0.8597170711 
-19.51077271 -18.41353226 6.629734993 0.8953512311 
-17.83765984 -18.40211105 6.333367348 0.8997864127 
-13.54512405 -18.33265877 5.632852077 0.9103574753 
-10.09185791 -18.34925079 5.175071239 0.9173324704 
-4.390607834 -18.2701931 4.643513203 0.9254987836 
-2.700646877 -18.25865364 4.561208248 0.9267697334 
-1.874699712 -18.25301552 4.534455299 0.9271832705 
-1.056774855 -18.24743462 4.51690197 0.9274545908 
-0.2435522377 -18.24188614 4.508375168 0.9275864363 
0.5682055354 -18.23634529 4.508793831 0.927579999 
0.9630883336 -12.70695496 3.149178982 0.9488476515 
2.200270891 -18.22519684 4.53655529 0.9271507859 
3.865817785 -18.2138195 4.601305485 0.926150322 
4.207863808 -16.23253059 4.144006729 0.9332389235 
5.697541237 -15.97254562 4.190775871 0.9325115085 
6.505465984 -15.95604229 4.258226871 0.9314633012 
7.109318733 -15.43487549 4.199459076 0.9323764443 
8.852907181 -15.43927956 4.398117542 0.9292932749 
13.39708233 -15.95000172 5.147528648 0.9177538753 
14.8403101 -16.15119362 5.420351505 0.9135886431 
17.7141037 -16.13157845 5.920712948 0.9059985876 
19.36648178 -16.12029457 6.226912498 0.9013849497 
20.99909782 -15.95292187 6.516991615 0.8970358968 
22.88722801 -15.83264351 6.877358913 0.8916621804 
34.30194855 -17.49693489 9.515851974 0.8532862067 
12.87586403 12.59251785 4.450666428 0.9284794331 
12.67793655 13.55370235 4.586317062 0.9263818264 
41.44545746 48.46089554 15.75814915 0.7689421773 
37.77787781 48.37324142 15.1676178 0.776550591 
31.25270653 48.32868958 14.22271919 0.7888816595 
18.98170662 32.43137741 9.286333084 0.8565579057 
17.08530998 32.4184227 9.055807114 0.8598564863 
13.65787315 32.66424942 8.749283791 0.8642623425 
2.357228994 8.771255493 2.244485378 0.9632687569 
5.862027645 45.17346573 11.25696373 0.8288714886 
-25.25818062 109.380249 27.74160767 0.6296805143 
-29.4727459 90.16127014 23.44106865 0.676489234 
-33.45318222 88.75816345 23.44031525 0.6764976382 
-53.21090698 98.82220459 27.73633957 0.6297358274 
-57.55259705 96.35454559 27.73553658 0.6297442317 
-31.54710388 -18.27618408 9.009759903 0.8605169654 
-24.51091003 -15.6962328 7.192723274 0.8869859576 
-28.81422615 -22.29722786 9.003615379 0.8606051207 
-19.86455345 -18.41593933 6.693989277 0.89439255 
-18.16026497 -18.40430832 6.389500141 0.8989447355 
-16.60133553 -18.39366913 6.123104095 0.9029464722 
-13.80032921 -18.33439636 5.670898438 0.9097801447 
-11.41356182 -18.35826874 5.342043877 0.9147822261 
-9.233839989 -18.30324936 5.066141129 0.9190000892 
-7.2678442 -18.28983688 4.863595963 0.9221088886 
-3.707248449 -18.26552391 4.605852127 0.9260801673 
-2.867106915 -18.25979233 4.567687988 0.9266696572 
-1.21988523 -18.2485466 4.519686222 0.9274115562 
-0.4059741199 -18.24299431 4.509364128 0.9275711775 
2.86093998 -18.22068596 4.557903767 0.9268208146 
5.492477894 -15.84179878 4.143479347 0.9332470894 
6.991286278 -15.54111576 4.211271763 0.932192862 
9.555753708 -15.37007999 4.472511292 0.9281412363 
12.17073917 -16.16941643 5.001259804 0.9199948311 
13.23217964 -16.04141808 5.138815403 0.9178871512 
15.92966557 -16.14376259 5.604690552 0.9107850194 
17.40277481 -16.13370323 5.864417076 0.9068493843 
20.81649208 -16.10837173 6.504552364 0.8972219229 
22.4563694 -15.83192635 6.789963245 0.8929624557 
60.1102829 32.7122612 16.91177177 0.7542930245 
54.25337601 32.73394394 15.65853214 0.7702203393 
50.95330048 37.29757309 15.60464191 0.7709127665 
52.29035187 41.97270584 16.56963158 0.7586032152 
12.63428974 13.2683754 4.52763176 0.9272886515 
42.20213699 48.46567154 15.88121033 0.7673659921 
15.6325264 32.40850449 8.891890526 0.8622097373 
12.24449444 32.48718262 8.579597473 0.8667108417 
10.60241222 32.43432236 8.432610512 0.868837595 
2.440168381 8.76778698 2.249066353 0.9631952047 
7.485651493 32.41661453 8.221673965 0.8718986511 
6.225026608 44.84008026 11.18724442 0.8298354745 
-28.66942978 90.42058563 23.44121933 0.6764874458 
-32.66221237 89.05288696 23.44046593 0.6764960289 
-47.86234283 101.5250778 27.73733902 0.6297252178 
-52.32959747 99.29249573 27.73650551 0.6297339797 
-31.83610725 -18.06711197 9.046011925 0.8599969149 
-24.09738922 -15.13070965 7.031582355 0.8893723488 
-24.18268204 -16.7288208 7.266631126 0.8858936429 
-22.14310455 -18.43148613 7.119680405 0.8880669475 
-18.4887085 -18.40655518 6.447154999 0.898080945 
-15.44299793 -18.38577271 5.933622837 0.9058036208 
-14.08999252 -18.37653542 5.722493172 0.9089978933 
-11.64235115 -18.35983086 5.372435093 0.9143188 
-10.5231905 -18.35219002 5.227907181 0.9165247679 
-5.617013931 -18.27856636 4.725511551 0.9242343903 
-4.736725807 -18.27256012 4.664805889 0.9251703024 
-3.034035683 -18.26092911 4.57454443 0.9265636802 
-1.383200645 -18.24966431 4.522831917 0.9273629189 
-0.5684741139 -18.24410439 4.510711193 0.9275503755 
1.055910587 -18.23300934 4.513331413 0.9275098443 
4.684133053 -16.26869392 4.183681965 0.9326217771 
6.266447544 -16.18812752 4.289716721 0.9309744239 
8.514333725 -17.25732231 4.755475521 0.9237726927 
8.457448959 -15.37757492 4.3369627 0.9302412868 
9.367921829 -15.37135983 4.448449612 0.9285137057 
15.44719982 -15.93601322 5.484623432 0.9126101732 
16.87528992 -15.9262619 5.734211445 0.9088204503 
18.44278526 -15.91556835 6.020056248 0.9044991136 
22.04124641 -15.8347578 6.706786156 0.8942016959 
26.88028908 -17.55279541 7.933541775 0.8760973811 
51.00346756 33.30518341 15.05333614 0.778031528 
50.95766449 36.60874557 15.5055685 0.7721871138 
52.21455002 41.1532135 16.42934036 0.7603849173 
12.74241924 13.14565277 4.52427721 0.9273405671 
12.39754105 13.98429012 4.618336678 0.9258873463 
32.49271011 48.3371582 14.39315033 0.7866430283 
19.94881248 32.73304749 9.472898483 0.8538976312 
17.83248901 32.42352676 9.144465446 0.8585864305 
15.9907732 32.41094971 8.931250572 0.8616440892 
2.545268536 8.840083122 2.273329496 0.9628055692 
5.805130482 56.52213669 14.04134274 0.7912709117 
-27.86371803 90.67272949 23.44137383 0.6764858365 
-31.86851311 89.34062195 23.4406147 0.67649436 
-36.05829239 88.44050598 23.60232353 0.6746727824 
-46.95723343 101.9475784 27.73750877 0.6297235489 
-51.44414902 99.75479889 27.73666954 0.62973243 
-55.82912827 97.36477661 27.73585701 0.6297408342 
-18.78166962 -18.36839485 6.492067814 0.8974087238 
-15.69126892 -18.34730148 5.966042519 0.9053141475 
-14.35286808 -18.37832642 5.762600422 0.908390224 
-11.87379646 -18.36140823 5.403608799 0.9138436913 
-9.66903019 -18.34636497 5.124907494 0.9181001186 
-8.645852089 -18.33939743 5.010452271 0.9198538065 
-4.910983562 -18.27374649 4.676081657 0.924996376 
-4.047536373 -18.26784897 4.623874187 0.9258019328 
-3.201506376 -18.26207161 4.58178997 0.9264518023 
-2.36909914 -18.25639343 4.549386978 0.9269523621 
-1.546769977 -18.2507782 4.526342869 0.9273086786 
0.08115966618 -18.2396698 4.507471085 0.9276004434 
0.893234849 -18.23412895 4.511459351 0.9275387526 
1.19675529 -12.76947212 3.169450521 0.9485270381 
2.529826641 -18.22294617 4.546483517 0.926997304 
6.063703537 -16.0882206 4.248771191 0.931610167 
6.753220081 -15.75555897 4.236136913 0.9318064451 
8.517043114 -17.65712166 4.8445611 0.9224015474 
12.75986099 -16.04220009 5.065502167 0.9190099835 
14.06847858 -16.1564579 5.294146061 0.9155130982 
16.78854752 -16.12928009 5.753270626 0.908531487 
18.12988472 -15.92923069 5.963961124 0.9053455591 
21.63609123 -15.83752155 6.626134872 0.8954049349 
26.583601 -17.69852829 7.892156124 0.8767021894 
28.95693588 -17.47131157 8.35751915 0.869926095 
62.7800293 32.73049545 17.49619484 0.7469787002 
56.52547836 32.74684906 16.14348984 0.7640175223 
51.30686569 32.85568619 15.05598068 0.7779973149 
50.96198273 35.92868805 15.40898991 0.7734315395 
51.09025192 43.30208969 16.55031776 0.7588525414 
12.89079285 13.06404877 4.535494804 0.9271671176 
12.34429932 13.67704201 4.552976131 0.9268969297 
39.96655273 48.45155334 15.52131653 0.7719845772 
16.35225105 32.41341782 8.971679688 0.86106354 
8.096899986 32.42008591 8.257803917 0.8713735938 
6.585494041 32.4468956 8.18182373 0.8724781275 
5.907928467 37.6263504 9.412220001 0.8547618389 
-31.07239342 89.62125397 23.44076538 0.676492691 
-35.14609909 88.4467392 23.51958656 0.6756042242 
-50.17787933 89.3425293 25.32233429 0.6555988193 
-59.25785828 95.31375885 27.73521996 0.6297476292 
-20.39027977 -12.30256367 5.885026932 0.90653795 
-24.20157433 -16.11264801 7.184984207 0.8871004581 
-28.82237816 -21.09787369 8.826967239 0.8631436229 
-19.16370773 -18.41115379 6.567215919 0.8962850571 
-17.52067566 -18.39994812 6.278713703 0.9006067514 
-16.01303482 -18.38965607 6.025914669 0.9044108391 
-14.61946964 -18.38014793 5.80373621 0.907767415 
-10.96358109 -18.35519791 5.283525467 0.9156752825 
-9.879406929 -18.3477993 5.149660587 0.9177212119 
-8.846837997 -18.34076309 5.032141209 0.9195212722 
-5.975856781 -18.28101349 4.752889156 0.9238125682 
-5.086105824 -18.27494431 4.687782288 0.9248158932 
-4.218698502 -18.26902008 4.633488655 0.9256535172 
-3.369499445 -18.26322556 4.589417458 0.9263339043 
-1.710588336 -18.2518959 4.530216694 0.927248776 
-0.0812036097 -18.24077797 4.507743359 0.9275962114 
0.7306908965 -18.23523712 4.509944439 0.9275621772 
1.074853539 -12.68260479 3.145391226 0.9489076138 
2.364880323 -18.22407341 4.541333675 0.9270768762 
4.035285473 -18.21266365 4.609904766 0.9260175824 
5.20955801 -16.43052864 4.25955677 0.931442678 
6.632814884 -15.86305428 4.248997688 0.9316066504 
8.19826889 -15.5557251 4.345362663 0.9301110506 
8.998161316 -15.37388897 4.402126312 0.9292311072 
12.62533951 -16.16631126 5.069009781 0.9189561605 
13.63958263 -15.94835186 5.185965061 0.917165935 
15.10593987 -16.14937782 5.464650154 0.9129140973 
21.24897194 -15.84647655 6.550507069 0.8965347409 
25.81354141 -17.51937675 7.7095294 0.879375875 
28.72818947 -17.68390846 8.336592674 0.8702297211 
31.61708641 -17.57270622 8.938995361 0.861532867 
58.41408157 33.15022659 16.5979557 0.7582500577 
51.47377777 42.8458786 16.55039787 0.7588517666 
13.94459915 12.69885826 4.660808086 0.9252319336 
12.67690372 13.79671001 4.630183697 0.9257045388 
16.71707726 32.41590881 9.013190269 0.860467732 
13.41270256 32.89757538 8.779446602 0.8638277054 
11.57153988 32.43982697 8.511346817 0.8676977158 
9.965938568 32.43070602 8.38421154 0.8695389032 
2.285891056 8.81818676 2.251198292 0.9631609321 
5.834368706 48.32719803 12.0294342 0.8182643652 
-38.83473969 88.42156219 23.86553192 0.6717184186 
-24.49694061 -15.99650097 7.230124474 0.8864331245 
-21.35196495 -18.42608643 6.969666481 0.8902909756 
-19.51077271 -18.41353226 6.629734993 0.8953512311 
-17.83766365 -18.40211105 6.333370209 0.8997864127 
-16.30485535 -18.39164734 6.073886395 0.9036877751 
-12.3448658 -18.36462593 5.468359947 0.9128577113 
-11.16274166 -18.31639862 5.300743103 0.915412426 
-10.09184837 -18.34925079 5.175073147 0.9173324704 
-9.04958725 -18.34215546 5.054414749 0.9191797972 
-8.035197258 -18.29507065 4.937957764 0.9209663868 
-7.079538345 -18.28854752 4.846308708 0.9223747253 
-3.538064003 -18.26437187 4.597438812 0.9262101054 
-1.874699712 -18.25301552 4.534454823 0.9271832705 
3.865822554 -18.21383095 4.601305485 0.926150322 
4.207873344 -16.23253059 4.144007683 0.9332389235 
4.68145752 -15.23420143 3.938453197 0.9364427924 
5.697536469 -15.97254086 4.190774441 0.9325115085 
7.10930872 -15.43487549 4.199459553 0.9323764443 
8.200613022 -15.90167713 4.421437263 0.9289320111 
8.85292244 -15.43927002 4.398117542 0.9292932749 
12.39652061 -16.16787338 5.034709454 0.9194818735 
14.84029007 -16.15119362 5.420351982 0.9135887027 
16.21377563 -16.141819 5.653888226 0.9100382328 
17.71415329 -16.13157845 5.920722008 0.9059984088 
22.88725281 -15.83264351 6.877363205 0.8916621208 
28.16971779 -17.68772697 8.219882965 0.871924758 
34.30194473 -17.49695015 9.515859604 0.8532861471 
53.16754913 32.72777176 15.42860603 0.7731787562 
51.85338593 42.38619995 16.55047607 0.7588506937 
50.83395386 45.47154236 16.8546524 0.755011797 
12.87581253 12.59250355 4.450654984 0.9284796119 
37.77784729 48.37324142 15.16761208 0.7765506506 
31.25270653 48.32868958 14.22271919 0.7888816595 
13.65782928 32.66427994 8.749279976 0.8642623425 
11.89869118 32.44168472 8.539278984 0.8672937155 
2.35722518 8.771258354 2.244484663 0.9632687569 
5.993412971 34.1878624 8.577417374 0.8667423725 
5.862056732 45.17357254 11.25696278 0.8288711309 
-25.25836182 109.3802109 27.74160767 0.6296804547 
-24.929739 89.57481384 22.97726059 0.6817412376 
-29.47283936 90.1612854 23.44106865 0.6764891148 
-37.90259933 88.42791748 23.77526855 0.672729969 
-59.34574127 90.0044632 26.64201164 0.6413323283 
-24.51090431 -15.69620323 7.192717552 0.8869860768 
-23.30162811 -16.42779922 7.045534134 0.8891654611 
-18.16018486 -18.40431404 6.38948679 0.8989449143 
-16.60125732 -18.39366913 6.123090744 0.902946651 
-15.16436481 -18.38386345 5.889205933 0.9064746499 
-13.80029011 -18.33439636 5.670892239 0.9097802639 
-11.41354179 -18.35826874 5.342042923 0.9147822857 
-9.233825684 -18.30324936 5.066138268 0.9190001488 
-8.248908043 -18.3366909 4.968806267 0.9204927683 
-6.339055061 -18.28349304 4.782114983 0.9233624935 
-4.563273907 -18.27136993 4.653948784 0.9253377318 
-2.039167404 -18.25414276 4.5390625 0.9271119833 
-0.4059350491 -18.24299431 4.509364128 0.9275711775 
1.218771935 -18.23190117 4.515563965 0.9274753332 
4.600588322 -15.45968914 3.98600769 0.935700655 
6.377741337 -16.0498848 4.267954826 0.931312263 
6.991276741 -15.54112053 4.211271286 0.932192862 
8.511720657 -16.87192535 4.669965267 0.9250907302 
8.680827141 -15.4563694 4.380802631 0.929561615 
9.555734634 -15.37007999 4.472507954 0.9281412959 
11.08447456 -16.17682266 4.846084595 0.9223781824 
13.23214531 -16.04143715 5.138815403 0.9178872108 
15.92972374 -16.14375687 5.604700565 0.9107848406 
19.0224781 -16.12264824 6.162187576 0.9023581743 
20.81649208 -16.10833168 6.504545689 0.8972220421 
22.45642281 -15.83192635 6.789972782 0.8929622769 
60.11042786 32.7122612 16.91180801 0.7542926073 
50.91331863 33.89633942 15.11516666 0.7772300243 
50.95330048 37.29774475 15.60466003 0.7709124684 
52.29034042 41.97286987 16.56981659 0.758602798 
42.20206833 48.46567154 15.88120461 0.7673661709 
17.45710945 32.42095947 9.099564552 0.8592294455 
13.92348099 32.48412704 8.733880043 0.8644843102 
12.24455547 32.48722458 8.579613686 0.8667106032 
7.485723495 32.41661453 8.221678734 0.8718986511 
6.089078426 33.00432968 8.293750763 0.8708515763 
6.224930286 44.84007645 11.18723869 0.8298355341 
-24.2839222 109.6014557 27.74179649 0.6296784878 
-36.97712708 88.43423462 23.68754387 0.6737146974 
-47.86224365 101.525116 27.73733902 0.6297252178 
-15.10274029 9.296629906 4.382643223 0.929533124 
-31.83594704 -18.06711197 9.045978546 0.8599974513 
-24.18263435 -16.72882462 7.266625404 0.8858937621 
-22.14304924 -18.43148613 7.119668961 0.8880670667 
-18.48864937 -18.40655518 6.447146893 0.8980811238 
-16.902668 -18.39572906 6.17361927 0.9021862745 
-14.08999252 -18.37653542 5.722493172 0.9089978933 
-11.64237499 -18.35983086 5.372437477 0.9143187404 
-9.439855576 -18.30464554 5.089581966 0.9186410308 
-8.446564674 -18.33803368 4.989347458 0.9201775789 
-5.616970062 -18.27857208 4.725507736 0.9242343903 
-4.736681938 -18.27256012 4.664802551 0.9251703024 
-1.383181095 -18.24966049 4.522831917 0.9273629189 
0.2434789985 -18.23856163 4.507554054 0.9275991917 
2.695163488 -18.22181892 4.552006245 0.9269119501 
4.37617445 -18.21034431 4.628302097 0.9257336259 
4.684118748 -16.26869392 4.183681488 0.9326217771 
5.31408453 -15.77970409 4.114702702 0.9336949587 
6.266423225 -16.18817139 4.289722919 0.9309743047 
6.872624397 -15.64798069 4.223493099 0.932002902 
8.457492828 -15.37757492 4.336969376 0.9302412271 
9.367951393 -15.37135983 4.448452473 0.9285136461 
10.87520218 -16.17825317 4.817335129 0.9228204489 
13.08882999 -16.15844917 5.138789177 0.9178875685 
15.44719982 -15.93601322 5.484623432 0.9126101732 
16.87528992 -15.9262619 5.734211445 0.9088204503 
18.44278526 -15.91556835 6.020056248 0.9044991136 
20.18414307 -15.9082489 6.350955009 0.8995226622 
26.88026619 -17.55281448 7.933542728 0.8760974407 
50.95766449 36.60884094 15.50558186 0.7721869349 
13.38270473 12.63010597 4.547424316 0.9269827008 
12.74241924 13.14565277 4.52427721 0.9273405671 
35.97355652 48.68832016 14.95987034 0.7792450786 
32.49277878 48.3371582 14.39315987 0.7866429687 
14.252141 32.45042038 8.75855732 0.86412853 
10.92342758 32.43614578 8.458018303 0.8684695959 
2.545253754 8.84006691 2.273325682 0.9628056884 
6.32104826 32.63098526 8.213739395 0.8720140457 
5.892712116 39.83997345 9.95244503 0.8470973372 
