# .PCD v0.7 - Point Cloud Data file format
VERSION 0.7
FIELDS x y z intensities
SIZE 4 4 4 4
TYPE F F F F
COUNT 1 1 1 1
WIDTH 924
HEIGHT 1
VIEWPOINT 0 0 0 1 0 0 0
POINTS 924
DATA ascii
7.244345665 -0.064453125 -2.002632141 0.970382154 
7.188444614 0.9002953768 -2.002623558 0.9703822732 
7.079924107 1.535624981 -2.00260973 0.9703825116 
7.004570007 1.84906733 -2.002600431 0.9703825712 
6.915356159 2.158779144 -2.002589703 0.97038275 
6.696003437 2.764882803 -2.002563238 0.9703831673 
6.566349983 3.059956074 -2.002547741 0.9703833461 
6.268283367 3.631396294 -2.002512455 0.9703838825 
5.920602798 4.174062252 -2.002471447 0.9703844786 
4.853288651 5.377299786 -2.002346754 0.9703862667 
4.356025219 5.787207127 -2.002289057 0.9703871608 
4.094245434 5.975141525 -2.002258778 0.970387578 
3.47549057 6.188117504 -1.961909294 0.9709755778 
3.125876427 6.196103573 -1.918406963 0.9716099501 
2.471811533 6.220478535 -1.850310802 0.9726037383 
2.191850424 6.32199192 -1.849640489 0.9726135135 
1.037814975 6.609716415 -1.849507809 0.9726154804 
0.4464526176 6.679001331 -1.850395203 0.9726024866 
0.1488549709 6.688676834 -1.849406958 0.9726169109 
-0.1510058492 6.785043716 -1.876053929 0.972227931 
-1.123198271 7.153495789 -2.001666784 0.9703962207 
-1.440307617 7.096323013 -2.001632214 0.9703966975 
-2.673796415 6.728730202 -2.001492262 0.9703987241 
-2.970446825 6.603007793 -2.001458645 0.9703992009 
-3.261149883 6.464245319 -2.001425505 0.9703996778 
-4.092348576 5.972373009 -2.001331329 0.9704011083 
-4.353879452 5.784352779 -2.001301765 0.9704015255 
-5.084843636 5.153159142 -2.001219273 0.9704027176 
-5.308952332 4.92182827 -2.001194 0.9704030752 
-5.522594929 4.680715084 -2.00116992 0.9704034328 
-5.725261211 4.430390358 -2.00114727 0.9704037309 
-6.26383543 3.628813505 -2.001087189 0.9704046249 
-6.690942287 2.762719631 -2.001039743 0.9704053402 
-6.909926414 2.157087326 -2.001015663 0.9704056382 
-7.215461254 0.5791918635 -2.000983477 0.9704061747 
-7.234079361 0.2576196194 -2.000982046 0.9704061747 
-7.238378525 -0.06440429389 -2.000982046 0.9704061747 
-7.20402813 -0.7074902058 -2.000987053 0.9704061151 
-7.165439129 -1.027287602 -2.000991821 0.9704059958 
-7.045829773 -1.660092711 -2.001006842 0.970405817 
-6.870468616 -2.279770374 -2.001027822 0.970405519 
-6.762290001 -2.583181143 -2.001040697 0.9704052806 
-6.506037235 -3.174030781 -2.001070976 0.9704048634 
-6.198293209 -3.739789963 -2.001107216 0.9704043269 
-5.645593166 -4.531618595 -2.001171589 0.9704033732 
-4.99237299 -5.242941856 -2.001247406 0.9704023004 
-4.75429678 -5.459880352 -2.001275063 0.9704018831 
-3.432563305 -6.374882698 -2.00142765 0.9703996778 
-3.145610332 -6.521386623 -2.001460791 0.9703992009 
-2.249785185 -6.882387638 -2.001563787 0.9703977108 
-1.629240632 -7.055361271 -2.001634598 0.9703966379 
-1.313774347 -7.120974064 -2.001670361 0.9703961611 
-0.9957543612 -7.172507286 -2.0017066 0.970395565 
-0.3543457091 -7.232875824 -2.001779795 0.9703945518 
-0.03221679479 -7.241611004 -2.001816273 0.9703940153 
0.6115649343 -7.216078758 -2.001889706 0.9703929424 
0.9320043921 -7.181865215 -2.001926184 0.970392406 
1.250544429 -7.133432388 -2.001962423 0.9703918695 
1.566689372 -7.070859432 -2.001998425 0.9703913331 
2.189016104 -6.903874397 -2.002069235 0.9703903198 
2.493964672 -6.799794674 -2.002103806 0.970389843 
2.794050217 -6.682226181 -2.002137899 0.9703893065 
3.088557005 -6.551442623 -2.002171278 0.9703888297 
3.377011538 -6.407658577 -2.002203941 0.9703883529 
3.65874505 -6.25121069 -2.002235889 0.970387876 
4.199992657 -5.901464939 -2.002296925 0.970386982 
4.708019733 -5.504972935 -2.002354145 0.9703861475 
4.948327541 -5.290136814 -2.002381086 0.9703857899 
5.399059772 -4.829526424 -2.002431631 0.9703850746 
5.608642578 -4.584601879 -2.002454996 0.970384717 
5.807072639 -4.330649376 -2.002477169 0.9703843594 
6.332009315 -3.519277334 -2.002535343 0.9703835249 
6.855270863 -2.342634201 -2.002592564 0.9703826904 
6.95271492 -2.035410166 -2.002603054 0.9703825712 
7.036420822 -1.724089265 -2.002611876 0.9703823924 
7.106164455 -1.409414053 -2.002619267 0.9703823328 
7.203344345 -0.7722509503 -2.002629042 0.970382154 
7.230576038 -0.4510229528 -2.002631426 0.970382154 
7.242043495 0.1934082061 -2.002631426 0.970382154 
7.226264477 0.5153955221 -2.002628803 0.9703822136 
6.93429184 2.097172737 -2.002591848 0.97038275 
6.834091663 2.403564453 -2.002579689 0.9703829288 
6.720368385 2.705146313 -2.002566099 0.9703831077 
6.593317509 3.001413584 -2.00255084 0.9703833461 
6.300356388 3.575493097 -2.002516031 0.9703838229 
5.567519188 4.634308815 -2.002429962 0.9703850746 
5.133464336 5.110678673 -2.002379417 0.9703857899 
4.407353401 5.748239517 -2.002295017 0.9703870416 
4.147253513 5.938498497 -2.002264738 0.9703874588 
3.547299623 6.186396122 -1.971292257 0.9708388448 
2.534067392 6.215380669 -1.855427504 0.9725289941 
2.248073578 6.302246094 -1.849646926 0.9726134539 
1.389152765 6.545043945 -1.849548101 0.9726148844 
1.096635699 6.600239277 -1.849514723 0.9726153612 
0.8019067049 6.64236784 -1.849480867 0.9726158381 
0.5056567192 6.671347618 -1.849447131 0.9726163149 
-0.09016600996 6.751303673 -1.866427898 0.9723684192 
-0.4014721513 6.932290077 -1.919501424 0.971593976 
-1.059516549 7.163229942 -2.001673698 0.9703961015 
-1.377119064 7.108884335 -2.001638889 0.9703965783 
-1.691923738 7.040473461 -2.001603842 0.9703971148 
-2.911533117 6.629218578 -2.001465321 0.9703991413 
-3.48910141 6.344001293 -2.001399755 0.970400095 
-4.039016247 6.008598328 -2.00133729 0.9704009891 
-4.556931019 5.625673771 -2.001278877 0.9704018235 
-4.802629471 5.417302132 -2.001251221 0.9704022408 
-5.03881073 5.198207855 -2.001224518 0.970402658 
-5.480749607 4.729677677 -2.001174688 0.9704033136 
-5.68562746 4.481157303 -2.0011518 0.9704037309 
-6.061279297 3.958014965 -2.001109838 0.9704043269 
-6.231301308 3.684404135 -2.001090765 0.9704045653 
-6.388959885 3.403564453 -2.00107336 0.9704048634 
-6.784990311 2.522834301 -2.001029491 0.9704054594 
-7.17427969 0.9634863138 -2.00098753 0.9704060555 
-7.210029125 0.6433618069 -2.000983953 0.9704061151 
-6.989318848 -2.441406195e-06 -2.001010418 0.9713382721 
-6.817109108 -1.542292476 -2.001032591 0.9713379741 
-6.436476707 -2.724990129 -2.001078129 0.971337378 
-6.16891098 -3.286328077 -2.001109838 0.9713369012 
-6.016667366 -3.557524443 -2.001127481 0.9713366628 
-5.852509499 -3.821681976 -2.001146793 0.9713364244 
-5.291955471 -4.566794395 -2.00121212 0.9713354707 
-4.399997234 -5.431896687 -2.001315355 0.9713339806 
-3.368935585 -6.125483036 -2.001434326 0.9713323116 
-3.093159199 -6.269382 -2.001466274 0.9713318944 
-2.523784161 -6.519697189 -2.001531839 0.9713309407 
-2.231306076 -6.625627518 -2.001565456 0.9713304639 
-1.633647442 -6.797963619 -2.001633644 0.9713294506 
-1.329650879 -6.864016056 -2.001667976 0.9713290334 
-1.023020029 -6.916489124 -2.001703024 0.9713284969 
-0.7143432498 -6.955268383 -2.00173831 0.9713280201 
-0.4042529166 -6.980288029 -2.001773596 0.9713275433 
0.2177636623 -6.988842487 -2.001844168 0.97132653 
0.5284472704 -6.972355843 -2.001879692 0.9713260531 
2.349484921 -6.586581707 -2.002086878 0.9713230729 
2.640192747 -6.475654125 -2.00211978 0.9713226557 
2.925690889 -6.351899147 -2.002152205 0.9713221788 
3.205400229 -6.215566158 -2.002183914 0.9713217616 
4.004350662 -5.733884335 -2.002274036 0.9713204503 
4.732097149 -5.15009737 -2.002356052 0.9713193178 
5.375658989 -4.474601746 -2.002428293 0.9713183045 
6.488732815 -2.611918926 -2.002551317 0.971316576 
6.598537445 -2.32070303 -2.002563238 0.9713163972 
6.778747559 -1.725068331 -2.00258255 0.9713160992 
6.948100567 -0.8074755669 -2.002599955 0.9713158607 
6.977153301 -0.4976000786 -2.002602577 0.9713158607 
6.992387772 -0.1867333949 -2.002603531 0.9713158011 
6.981298447 0.4354833961 -2.002600908 0.9713158607 
6.955007076 0.7456005812 -2.002597332 0.9713159204 
6.914931297 1.054247975 -2.002591848 0.97131598 
6.79380846 1.664663076 -2.002576828 0.9713162184 
6.713000298 1.965214849 -2.002567053 0.9713163376 
6.618901253 2.261879921 -2.002555609 0.9713165164 
6.391586781 2.841166973 -2.002528191 0.971316874 
6.113664627 3.397951603 -2.002495289 0.9713173509 
5.956406116 3.666520834 -2.002476692 0.9713175893 
5.787351131 3.927812338 -2.002456665 0.9713178873 
5.606840611 4.181323051 -2.002435446 0.9713181853 
5.212895393 4.663002968 -2.002389431 0.971318841 
5.000246525 4.89021492 -2.002364635 0.9713191986 
4.05518055 5.697958946 -2.002254963 0.9713207483 
3.532597542 6.035644531 -2.002194405 0.9713216424 
3.257524252 6.180966854 -2.000300169 0.9713483453 
2.590409994 6.195241451 -1.922476292 0.9724475741 
1.676699162 6.239013672 -1.849581718 0.9734783173 
1.11550045 6.363124847 -1.849517345 0.9734792113 
0.831328094 6.406335354 -1.849484801 0.9734796882 
-0.0298510734 6.707746506 -1.920417786 0.9724766612 
-0.9614184499 6.925246239 -2.00168395 0.971328795 
-1.268505812 6.875510216 -2.00165081 0.9713292718 
-2.172236204 6.64516592 -2.001549721 0.9713307023 
-2.46564436 6.541850567 -2.001516342 0.9713311791 
-3.314265013 6.155173302 -2.001420021 0.97133255 
-3.584733725 6.001554966 -2.001389265 0.9713329673 
-4.590451717 5.271745682 -2.001275539 0.971334517 
-5.040698051 4.842758656 -2.001224995 0.9713352919 
-5.451047421 4.375478268 -2.001178741 0.9713359475 
-5.818246841 3.87360096 -2.001137733 0.971336484 
-5.984743595 3.610913038 -2.001119137 0.971336782 
-6.281891823 3.064643383 -2.001085997 0.9713372588 
-6.803100586 1.602890611 -2.001028776 0.9713380337 
-6.867643833 1.298676729 -2.0010221 0.9713381529 
-6.955861568 0.6831396222 -2.001013041 0.9713382721 
-6.979352951 0.373034656 -2.001010895 0.9713383317 
-6.984889984 -0.2487622052 -2.001011372 0.9713382721 
-6.966916561 -0.5592333674 -2.001013994 0.9713382721 
-6.889679909 -1.17624259 -2.001023769 0.9713380933 
-6.830556393 -1.481557608 -2.001030922 0.9713380337 
-6.671908855 -2.0828197 -2.001050234 0.9713377357 
-6.572695255 -2.377561092 -2.001061916 0.9713375568 
-5.886283875 -3.769443274 -2.00114274 0.9713364244 
-5.712834358 -4.027597427 -2.001163006 0.9713361263 
-5.528078556 -4.277778149 -2.001184702 0.9713358283 
-5.332375526 -4.519509315 -2.001207352 0.9713355303 
-5.126110554 -4.752299786 -2.001231432 0.9713351727 
-4.909701824 -4.975688457 -2.001256466 0.971334815 
-4.68356657 -5.189226151 -2.001282692 0.9713344574 
-4.448149204 -5.39250946 -2.001309872 0.9713340998 
-3.951376915 -5.766679764 -2.001367331 0.9713332653 
-3.148825645 -6.241586685 -2.001459837 0.971331954 
-2.868100405 -6.375580788 -2.001492023 0.9713315368 
-2.581699133 -6.496967793 -2.001525164 0.9713310003 
-2.290170908 -6.6054883 -2.001558542 0.9713305235 
-1.694074631 -6.783127308 -2.00162673 0.9713295698 
-0.1555590779 -6.9903512 -2.001801968 0.971327126 
0.1555541903 -6.990468502 -2.001837254 0.9713266492 
0.7762768269 -6.949228287 -2.001907825 0.9713256359 
1.39090085 -6.852968693 -2.001977682 0.9713246226 
1.694404244 -6.784430981 -2.002012491 0.9713241458 
2.582451105 -6.498871803 -2.002113342 0.9713227153 
3.424636126 -6.097617149 -2.00220871 0.971321404 
4.205937386 -5.587792873 -2.002296925 0.9713201523 
4.450402737 -5.395239353 -2.002324581 0.9713197351 
4.912443638 -4.978471756 -2.002376318 0.9713190198 
5.335608006 -4.522255898 -2.002423763 0.9713183641 
5.531562328 -4.280473709 -2.002445698 0.9713180661 
5.890224457 -3.771970034 -2.002485514 0.9713175297 
6.052246094 -3.506249905 -2.002503395 0.9713172317 
6.577611923 -2.379331112 -2.002561092 0.9713164568 
6.676984787 -2.084394455 -2.002571583 0.971316278 
6.835874081 -1.482714772 -2.002588511 0.9713160396 
6.990451336 -0.248955071 -2.002603531 0.9713158011 
6.984897137 0.3733349442 -2.002601385 0.9713158607 
6.924059868 0.9926831126 -2.002593279 0.9713159204 
6.873010159 1.299687505 -2.002586603 0.9713160992 
6.808366776 1.604135752 -2.002578497 0.9713161588 
6.73023653 1.905405283 -2.00256896 0.971316278 
6.534169674 2.496001005 -2.002545357 0.9713166952 
6.286379337 3.066830873 -2.002515554 0.9713170528 
5.9888134 3.613368988 -2.002480507 0.9713175297 
5.82208252 3.876162052 -2.002460957 0.9713178277 
5.254199028 4.616430759 -2.002394438 0.9713187814 
4.822976112 5.065029144 -2.002343893 0.9713194966 
4.592829704 5.27448225 -2.00231719 0.9713199139 
4.35359621 5.473500729 -2.002289534 0.9713202715 
4.105739594 5.661664963 -2.002260685 0.9713206887 
2.654882669 6.193979263 -1.929342031 0.9723505974 
2.028356791 6.205029011 -1.86898005 0.9732038975 
1.733735323 6.229489803 -1.851260185 0.973454535 
1.172094703 6.352968693 -1.849523902 0.9734790921 
0.6046557426 6.451713562 -1.855191588 0.9733989239 
0.3207397461 6.547492504 -1.876767397 0.9730937481 
-0.5904345512 6.966833115 -2.001724958 0.9713282585 
-0.8997558355 6.933554649 -2.001690865 0.9713287354 
-1.512390137 6.825920105 -2.001624823 0.9713296294 
-2.113019943 6.664255142 -2.001556396 0.9713305831 
-2.407336473 6.563557148 -2.001523018 0.9713310599 
-2.69687748 6.449865341 -2.001489878 0.9713315368 
-2.981071711 6.323415279 -2.001457691 0.9713320136 
-3.531193733 6.033239841 -2.001395464 0.9713328481 
-3.796022892 5.870097637 -2.001365423 0.9713333249 
-4.053325176 5.695346355 -2.001336336 0.9713336825 
-4.543361664 5.312404633 -2.001281023 0.9713344574 
-5.209811687 4.660243988 -2.001205921 0.9713355899 
-5.603278637 4.178659439 -2.001161814 0.9713361859 
-5.78355217 3.925234318 -2.001141548 0.9713364244 
-6.254379749 3.120432138 -2.001089096 0.9713371992 
-6.613930702 2.260170937 -2.001049519 0.9713377357 
-6.788568974 1.66336906 -2.001030445 0.9713380337 
-6.988205433 0.1243969724 -2.00101018 0.9713383317 
-6.986825943 -0.1865844727 -2.001010895 0.9713382721 
-6.942609787 -0.8068407774 -2.001017094 0.9713382125 
-6.77352047 -1.72374022 -2.001037836 0.9713379145 
-6.3614645 -2.895859241 -2.00108695 0.9713372588 
-6.226398945 -3.17600584 -2.001102924 0.9713370204 
-6.079010963 -3.449863195 -2.001120329 0.9713367224 
-5.919584751 -3.716899395 -2.001138926 0.971336484 
-5.748437405 -3.976586819 -2.001158953 0.9713361859 
-5.372373104 -4.471862793 -2.001202583 0.9713355899 
-4.729545593 -5.147326469 -2.001277208 0.971334517 
-4.495949745 -5.35269022 -2.001304388 0.9713341594 
-3.743674278 -5.903728008 -2.001391172 0.9713329673 
-2.924719095 -6.349782467 -2.001485586 0.9713315964 
-2.63939929 -6.473711014 -2.001518488 0.9713311195 
-2.053652287 -6.682900429 -2.001585722 0.9713301659 
-1.754372478 -6.767753601 -2.001620054 0.971329689 
-0.5284203887 -6.971935749 -2.001759529 0.9713277221 
0.7144018412 -6.955834866 -2.001900673 0.9713257551 
1.329855919 -6.865053654 -2.001971006 0.9713247418 
1.633950114 -6.799218655 -2.002005577 0.971324265 
1.934816837 -6.719914436 -2.002039671 0.9713237882 
2.524511576 -6.521574497 -2.002106667 0.9713228345 
2.812155724 -6.402924538 -2.00213933 0.9713223577 
3.094248056 -6.271591663 -2.002171278 0.9713219404 
3.370224476 -6.127831936 -2.002202511 0.9713214636 
3.901640654 -5.80421114 -2.002262592 0.9713206291 
4.156032562 -5.624987602 -2.002291203 0.9713202119 
4.4021945 -5.43461895 -2.002319098 0.9713198543 
4.867934227 -5.021977425 -2.002371311 0.9713190794 
5.295138836 -4.569545746 -2.002419233 0.9713184237 
5.49323225 -4.329518795 -2.002441406 0.9713181257 
5.680449009 -4.080922604 -2.002462149 0.9713178277 
5.85641098 -3.824230909 -2.002481699 0.9713175893 
6.441203594 -2.726987362 -2.002546072 0.9713166356 
6.556164265 -2.437780619 -2.002558708 0.9713164568 
6.658151627 -2.143735409 -2.002569675 0.9713163376 
6.746962547 -1.845439434 -2.002579212 0.9713161588 
6.822402 -1.543491125 -2.00258708 0.9713160396 
6.88433075 -1.238481402 -2.002593517 0.97131598 
6.987948895 0.311152339 -2.0026021 0.9713158607 
6.884313583 1.238469243 -2.002588034 0.9713160396 
6.822375298 1.543476582 -2.002580404 0.9713161588 
6.746928692 1.845432043 -2.002571106 0.971316278 
6.556135178 2.437763691 -2.002547979 0.9713166356 
6.441162109 2.726967812 -2.002534151 0.9713168144 
6.020744324 3.559943676 -2.002484322 0.9713174701 
5.680400372 4.080883503 -2.002444267 0.9713180661 
5.493178368 4.32948494 -2.002422333 0.9713183641 
3.901591778 5.804132938 -2.002237082 0.9713209867 
3.639484882 5.971860409 -2.002206564 0.971321404 
2.089333534 6.204071999 -1.874217749 0.9731298089 
1.228583932 6.342304707 -1.849530339 0.9734790325 
0.9452245831 6.390571117 -1.849497795 0.9734794497 
0.661013186 6.43601799 -1.852296352 0.9734398723 
0.377912581 6.525568485 -1.871372819 0.973170042 
-0.2120532244 6.805253983 -1.949260712 0.9720690846 
-1.754353046 6.767673016 -2.001597166 0.9713300467 
-2.053632736 6.682819843 -2.001563311 0.9713305235 
-2.348832846 6.584738731 -2.001529694 0.9713310003 
-2.92468977 6.349707127 -2.001464128 0.971331954 
-3.477365732 6.064450741 -2.001401424 0.9713327885 
-3.743647337 5.903664589 -2.001371145 0.9713332057 
-4.002494812 5.73120594 -2.001342058 0.9713336229 
-4.953725338 4.931738377 -2.00123477 0.9713351727 
-5.565883636 4.228363991 -2.001165867 0.9713361263 
-5.748403072 3.976552725 -2.001145363 0.9713364244 
-5.919548035 3.716872454 -2.001126289 0.9713366628 
-6.361440182 2.895842314 -2.001077175 0.971337378 
-6.483915806 2.609977961 -2.001063585 0.9713375568 
-6.593561649 2.318940401 -2.001051664 0.9713377357 
-6.843451977 1.420700669 -2.001024485 0.9713380933 
-6.971608639 0.4972021282 -2.001011372 0.9713383317 
-6.986825943 0.1865844727 -2.001010418 0.9713382721 
-6.988212585 -0.1244140565 -2.001010656 0.9713382721 
-6.975769043 -0.4351464808 -2.001012564 0.9713382721 
-6.949516296 -0.7450243831 -2.00101614 0.9713382125 
-6.613952637 -2.260187864 -2.001057148 0.9713376164 
-6.506908894 -2.552177668 -2.001069784 0.9713374376 
-6.10945797 -3.395620108 -2.001116514 0.971336782 
-5.603312969 -4.178689003 -2.00117588 0.9713360071 
-5.411948204 -4.423859596 -2.001198053 0.9713356495 
-5.209860802 -4.66027832 -2.001221657 0.9713353515 
-4.99745369 -4.887487888 -2.001246214 0.9713349938 
-4.775148869 -5.105017185 -2.001271963 0.9713346362 
-4.543395996 -5.312456131 -2.001298904 0.971334219 
-4.302639008 -5.509384632 -2.001326799 0.9713338017 
-3.796054602 -5.870158672 -2.001385212 0.9713330269 
-3.259399414 -6.184506893 -2.001447201 0.9713321328 
-2.981110811 -6.323478699 -2.001479149 0.9713317156 
-2.69689703 -6.449941158 -2.001511812 0.9713312387 
-1.81452632 -6.751850605 -2.001613379 0.9713298082 
-1.512404799 -6.826005936 -2.001647234 0.9713292718 
-0.8997631669 -6.93364954 -2.001717091 0.9713283181 
-0.2799438536 -6.986430645 -2.001787663 0.9713273048 
0.3421240151 -6.983906269 -2.001858473 0.9713262916 
1.573361754 -6.813466549 -2.001998663 0.9713243842 
1.874926686 -6.736850262 -2.002032995 0.9713238478 
2.172802687 -6.646884441 -2.002066851 0.9713233709 
3.849821806 -5.838686466 -2.002256632 0.9713206887 
4.105791092 -5.661737919 -2.00228548 0.9713203311 
4.353637695 -5.473567009 -2.002313375 0.9713199139 
4.592887878 -5.27454567 -2.002340555 0.9713195562 
6.416665077 -2.784199238 -2.002543449 0.9713166952 
6.73026371 -1.905410171 -2.002577543 0.9713162184 
6.80838871 -1.604147911 -2.002585649 0.9713160992 
6.873029709 -1.299702168 -2.002592325 0.97131598 
6.924059868 -0.9926806688 -2.00259757 0.9713159204 
6.990444183 0.2489501834 -2.002602339 0.9713158607 
6.972438812 0.5596703887 -2.002599478 0.9713158607 
6.940624714 0.8692675829 -2.002595425 0.9713159204 
6.8950634 1.177148461 -2.002589464 0.9713160396 
6.83585453 1.482695222 -2.002582073 0.9713160992 
6.763090611 1.785327077 -2.002573013 0.971316278 
6.676943302 2.08438468 -2.002562523 0.9713163972 
6.577578068 2.37931633 -2.002550364 0.971316576 
6.202233791 3.233549833 -2.002505779 0.9713172317 
5.890180588 3.771933556 -2.002468824 0.9713177085 
5.716501236 4.030185223 -2.00244832 0.9713180065 
5.531503677 4.280434608 -2.002426624 0.9713183045 
4.912387371 4.97840786 -2.002354383 0.9713193774 
4.686007977 5.191933632 -2.002328157 0.9713197351 
4.450354099 5.395175457 -2.002300739 0.9713200927 
4.205888748 5.58771944 -2.002272367 0.9713205099 
3.692492485 5.939250469 -2.002213001 0.9713213444 
3.119833946 6.184133053 -1.983036876 0.9715920687 
2.785222054 6.191357136 -1.943658829 0.9721482396 
2.150659084 6.203085899 -1.87962687 0.9730533361 
1.002060533 6.381928444 -1.849504352 0.9734793901 
0.4347876012 6.504262447 -1.866298795 0.973241806 
-0.1506835967 6.771315575 -1.939078808 0.9722129703 
-0.4650756717 6.957334042 -1.996300817 0.9714047909 
-1.0845263 6.906994343 -2.001670599 0.9713289738 
-1.694062471 6.783041954 -2.00160408 0.9713299274 
-1.994086862 6.700851917 -2.001569986 0.9713304043 
-2.290151358 6.605405331 -2.001536131 0.9713308811 
-3.423264027 6.095173359 -2.001407623 0.9713327289 
-3.951345205 5.766615868 -2.00134778 0.9713335633 
-4.203888893 5.585058689 -2.00131917 0.9713339806 
-5.332334042 4.519477367 -2.001192093 0.9713357091 
-5.528044224 4.277739048 -2.001170158 0.9713360667 
-5.886252403 3.769411564 -2.001130104 0.9713366032 
-6.3354249 2.952338696 -2.001080036 0.9713373184 
-6.460439205 2.667577982 -2.001066208 0.9713374972 
-6.572665691 2.37754631 -2.00105381 0.971337676 
-6.671884537 2.082802773 -2.001043081 0.9713378549 
-6.757907391 1.783930659 -2.001033783 0.9713379741 
-6.830544472 1.481545329 -2.001025915 0.9713380933 
-6.889665604 1.176228046 -2.001019716 0.9713381529 
-6.966916561 0.5592260361 -2.001011848 0.9713382721 
-6.984882832 0.2487573177 -2.001010418 0.9713383317 
-6.989042759 -0.06220214814 -2.001010656 0.9713382721 
-6.955866337 -0.6831493974 -2.001015186 0.9713382125 
-6.918608189 -0.9918969274 -2.001020193 0.9713381529 
-6.867658615 -1.298686504 -2.001026392 0.9713380933 
-6.529352665 -2.494167328 -2.001067162 0.9713374972 
-6.411987305 -2.782167912 -2.00108099 0.9713373184 
-6.281919003 -3.064670324 -2.001096487 0.97133708 
-5.81827879 -3.873627901 -2.001150846 0.9713363051 
-5.251118183 -4.613725662 -2.001216888 0.9713353515 
-5.040747166 -4.842802525 -2.001241207 0.9713350534 
-4.590480804 -5.271799088 -2.001293421 0.9713342786 
-4.351486683 -5.470864296 -2.001321077 0.971333921 
-3.314299345 -6.155239105 -2.001440763 0.971332252 
-2.754196644 -6.42565918 -2.001505136 0.9713312984 
-2.172248602 -6.645244122 -2.001572132 0.9713304043 
-1.874528766 -6.735412598 -2.001606226 0.9713298678 
-1.573085904 -6.812245846 -2.001640558 0.971329391 
-1.26851809 -6.875600338 -2.001674891 0.9713289142 
-0.961428225 -6.925341606 -2.001709938 0.9713284373 
-0.3421142399 -6.983632565 -2.001780748 0.971327424 
0.2799633741 -6.986645222 -2.001851559 0.9713264108 
0.590488255 -6.967399597 -2.001886606 0.9713259339 
1.207448721 -6.887582779 -2.00195694 0.9713249803 
1.512665987 -6.827172756 -2.001991749 0.9713244438 
1.814895034 -6.753242016 -2.002026081 0.971323967 
2.697739124 -6.451916218 -2.002126455 0.9713225365 
3.260607719 -6.186809063 -2.002190113 0.9713216424 
4.304746151 -5.512080193 -2.002307892 0.9713199735 
4.777758598 -5.107783318 -2.002361298 0.9713192582 
5.212949276 -4.663046837 -2.002409935 0.971318543 
5.787399769 -3.92784667 -2.00247407 0.9713176489 
5.956457615 -3.666552544 -2.002492666 0.9713173509 
6.11371088 -3.397983313 -2.002510071 0.9713171721 
6.258859634 -3.122683048 -2.002526283 0.9713169336 
6.511733055 -2.554067373 -2.002553701 0.9713165164 
6.618935585 -2.261889696 -2.002565384 0.9713163376 
6.713032246 -1.965227008 -2.002575397 0.9713162184 
6.86118412 -1.360815406 -2.002591133 0.9713160396 
6.914941311 -1.054257751 -2.002596617 0.97131598 
6.981313229 -0.4354736209 -2.002602816 0.9713158011 
6.992384911 0.1867382824 -2.002602816 0.9713158011 
6.977140903 0.4975976348 -2.002600431 0.9713158607 
6.948085785 0.8074706793 -2.002596378 0.9713159204 
6.905271053 1.115742207 -2.002590656 0.9713160396 
6.848779202 1.421811461 -2.002583504 0.9713160992 
6.778725624 1.72504878 -2.002574921 0.9713162184 
6.598498344 2.320698261 -2.002552986 0.9713165164 
6.488698483 2.611904144 -2.002539873 0.9713166952 
6.366034985 2.897939444 -2.002525091 0.9713169336 
6.230771542 3.178227425 -2.002509117 0.9713171721 
6.083176136 3.4522264 -2.002491713 0.9713174105 
5.923525333 3.719370127 -2.002472878 0.9713177085 
5.752153397 3.979155302 -2.002452612 0.9713179469 
5.375605583 4.474563122 -2.002408504 0.971318543 
4.956513405 4.934506893 -2.002359629 0.9713192582 
4.732040882 5.150036335 -2.002333403 0.9713196754 
4.498198032 5.355375767 -2.002306223 0.9713200331 
4.2554636 5.550085545 -2.00227809 0.9713203907 
4.004306316 5.733806133 -2.002249002 0.9713208079 
3.74522686 5.906164646 -2.002218962 0.9713212848 
3.478720665 6.06683588 -2.002188206 0.971321702 
2.851113319 6.189990044 -1.951118469 0.9720428586 
2.526362181 6.196464539 -1.915801048 0.9725419283 
1.621103525 6.253666878 -1.849575281 0.9734783769 
1.058833003 6.37277317 -1.849510789 0.9734793305 
0.4915209711 6.48519516 -1.862008929 0.9733024836 
0.2055590749 6.597221375 -1.889673114 0.9729112387 
-0.08996093273 6.737699986 -1.929148078 0.9723532796 
-0.4006127715 6.917446136 -1.983754039 0.9715819359 
-0.7143383622 6.9551754 -2.00171113 0.9713284373 
-1.329636216 6.863927841 -2.001644373 0.971329391 
-1.633637667 6.797871113 -2.001610994 0.9713298082 
-2.811232805 6.400800705 -2.001477003 0.9713317156 
-3.368896484 6.125417233 -2.001413822 0.9713326097 
-3.637988091 5.969401836 -2.001383305 0.9713330269 
-4.399960995 5.431835651 -2.001296997 0.9713342786 
-5.0835886 4.79769516 -2.001219988 0.9713353515 
-5.48976326 4.326786995 -2.00117445 0.9713360071 
-5.676735878 4.078258991 -2.001153469 0.9713363051 
-6.016635418 3.557497501 -2.001115561 0.9713368416 
-6.168884277 3.286298752 -2.001098633 0.9713370204 
-6.308910847 3.008610725 -2.001083136 0.9713372588 
-6.436452389 2.724970579 -2.001069069 0.9713374972 
-6.551254749 2.435942411 -2.001056433 0.971337676 
-6.741762638 1.844016075 -2.001035452 0.9713379741 
-6.817094803 1.542272925 -2.001027584 0.9713380337 
-6.961662292 0.6212011576 -2.001012564 0.9713382721 
-6.989318848 -2.441406195e-06 -2.001010418 0.9713382721 
-6.961667538 -0.6212084889 -2.001014471 0.9713382721 
-6.927160263 -0.9302758574 -2.001019001 0.9713381529 
-6.878937721 -1.237517118 -2.001024961 0.9713380933 
-6.741784573 -1.844033122 -2.001041889 0.9713378549 
-6.436476707 -2.724990129 -2.001078129 0.971337378 
-6.308938026 -3.008630276 -2.001093149 0.9713371396 
-6.168913364 -3.286325693 -2.001109838 0.9713369012 
-5.852507114 -3.821686983 -2.001146793 0.9713364244 
-5.676772118 -4.078293324 -2.001167297 0.9713360667 
-5.4897995 -4.326818943 -2.001188993 0.9713357687 
-4.865234375 -5.019194126 -2.001261473 0.9713347554 
-4.637214184 -5.230712891 -2.001287937 0.9713343978 
-3.368935585 -6.125483036 -2.001434326 0.9713323116 
-3.093159199 -6.269382 -2.001466274 0.9713318944 
-2.811257362 -6.400878906 -2.001498699 0.9713314176 
-2.231306076 -6.625622272 -2.001565456 0.9713304639 
-1.934384704 -6.718437195 -2.001599312 0.971329987 
0.2177587897 -6.988842487 -2.001844168 0.97132653 
0.8381054401 -6.942065239 -2.001914978 0.9713255167 
1.754716754 -6.769111156 -2.002019405 0.9713240266 
2.925690889 -6.351899147 -2.002152205 0.9713221788 
3.205410004 -6.21556139 -2.002183914 0.9713217616 
3.745273352 -5.906244755 -2.002244949 0.9713208675 
4.004355431 -5.733881474 -2.002274036 0.9713204503 
4.498251915 -5.355439186 -2.002329826 0.9713196754 
4.73208952 -5.15009737 -2.002356052 0.9713193178 
4.956557274 -4.934570312 -2.002381325 0.9713189602 
5.1712327 -4.709238052 -2.002405405 0.9713186622 
5.752206802 -3.979189396 -2.002470255 0.9713177085 
6.083220005 -3.452250957 -2.002506733 0.9713171721 
6.366074085 -2.897958994 -2.002537966 0.9713167548 
6.488732815 -2.611909151 -2.002551317 0.971316576 
6.778747559 -1.725068331 -2.00258255 0.9713160992 
6.905287743 -1.115751982 -2.002595663 0.9713159204 
6.977155685 -0.4976000786 -2.002602577 0.9713158011 
6.99377203 0.1245068312 -2.002603054 0.9713158011 
6.981296062 0.4354907274 -2.002600908 0.9713158607 
6.71300745 1.965214849 -2.002567053 0.9713163376 
6.618896484 2.261874914 -2.002555609 0.9713165164 
6.511684418 2.554062366 -2.002542496 0.9713166952 
6.391586781 2.841179132 -2.002528191 0.971316874 
6.25881815 3.12265873 -2.002512455 0.9713171124 
5.956403732 3.66651845 -2.002476692 0.9713175893 
5.606840611 4.181323051 -2.002435446 0.9713181853 
5.212897778 4.662997723 -2.002389431 0.971318841 
5.000241756 4.89021492 -2.002364635 0.9713191986 
4.545695782 5.315136433 -2.002311707 0.9713199735 
4.05518055 5.697958946 -2.002254963 0.9713207483 
3.532599926 6.035644531 -2.002194405 0.9713216424 
3.257531643 6.180963993 -2.000301123 0.9713483453 
2.917495012 6.188583851 -1.958781123 0.9719346166 
2.274355412 6.201010704 -1.890966415 0.9728929996 
1.397482872 6.307312012 -1.849549651 0.9734787345 
1.115505338 6.363124847 -1.849517345 0.9734792113 
0.5481079221 6.467343807 -1.85820961 0.9733562469 
0.2633569241 6.572282791 -1.88312602 0.9730038047 
-0.3369286954 6.878007889 -1.971504927 0.9717549086 
-1.268520474 6.875510216 -2.00165081 0.9713292718 
-2.465651751 6.541848183 -2.001516342 0.9713311791 
-3.037224054 6.296611309 -2.001451254 0.9713320732 
-3.584733725 6.001554966 -2.001389265 0.9713329673 
-3.848100424 5.836064339 -2.001359463 0.9713333845 
-4.590436935 5.271745682 -2.001275539 0.9713345766 
-5.251081467 4.61367178 -2.001201391 0.9713355899 
-6.281897068 3.064638615 -2.001085997 0.9713372588 
-6.411952972 2.78214097 -2.001071692 0.9713374376 
-6.725092411 1.903940439 -2.001037359 0.9713379145 
-6.803098202 1.602890611 -2.001028776 0.9713380337 
-6.867646217 1.298676729 -2.0010221 0.9713381529 
-6.979357719 0.3730419874 -2.001010895 0.9713382721 
-6.989037991 0.06221191213 -2.00101018 0.9713383317 
-6.984889984 -0.2487744093 -2.001011372 0.9713382721 
-6.889677525 -1.176252365 -2.001023769 0.9713380933 
-6.830556393 -1.48157227 -2.001030922 0.9713380337 
-6.671906471 -2.082827091 -2.001050234 0.9713377357 
-6.048080921 -3.503832817 -2.001123905 0.9713366628 
-5.886286259 -3.769438505 -2.00114274 0.9713364244 
-5.528083324 -4.277775764 -2.001184702 0.9713358283 
-5.332382679 -4.519496918 -2.001207352 0.9713355303 
-4.683552265 -5.189233303 -2.001282692 0.9713344574 
-4.448139668 -5.39251709 -2.001309872 0.9713340998 
-4.203916073 -5.585122108 -2.001338243 0.9713336825 
-3.423295736 -6.095236778 -2.001428127 0.9713324308 
-2.868100405 -6.375580788 -2.001492023 0.9713315368 
-2.581699133 -6.496967793 -2.001525164 0.9713310003 
-2.290178061 -6.6054883 -2.001558542 0.9713305235 
-1.9941113 -6.700934887 -2.001592398 0.9713301063 
-0.4663647413 -6.976391315 -2.001766443 0.9713276029 
0.1555688381 -6.99047327 -2.001837254 0.9713266492 
0.4663891494 -6.976757526 -2.001872778 0.9713261127 
0.7762890458 -6.949225903 -2.001907825 0.9713256359 
1.084665537 -6.907939434 -2.001943111 0.9713250995 
1.390905738 -6.852968693 -2.001977682 0.9713246226 
1.994555593 -6.702451229 -2.002046585 0.971323669 
2.869040489 -6.377668381 -2.002145767 0.9713222384 
3.424631357 -6.097621918 -2.00220871 0.971321404 
4.205924988 -5.587797642 -2.002296925 0.9713201523 
5.12911129 -4.755063534 -2.002400637 0.9713186622 
5.335615158 -4.5222435 -2.002423763 0.9713183641 
5.531564713 -4.280468464 -2.002445698 0.9713180661 
5.716552734 -4.030204773 -2.002466202 0.9713177681 
6.05224371 -3.506245136 -2.002503395 0.9713172317 
6.20227766 -3.233571768 -2.002519846 0.9713169932 
6.340026855 -2.954497099 -2.002535105 0.9713168144 
6.465221882 -2.669560432 -2.002548695 0.971316576 
6.676980019 -2.084399462 -2.002571583 0.971316278 
6.763120174 -1.785327077 -2.002580881 0.9713161588 
6.835866451 -1.482724547 -2.002588511 0.9713160396 
6.940637112 -0.8692626953 -2.002599239 0.9713159204 
6.994599342 0.06226562336 -2.002603292 0.9713158607 
6.984897137 0.3733447194 -2.002601385 0.9713158607 
6.873010159 1.299692392 -2.002586603 0.9713160396 
6.808366776 1.604135752 -2.002578497 0.9713161588 
6.638776779 2.202885628 -2.002557993 0.9713164568 
6.534169674 2.496001005 -2.002545357 0.9713166952 
5.988818169 3.613361835 -2.002480507 0.9713175297 
5.82209444 3.876152277 -2.002460957 0.9713178277 
5.454411507 4.378198147 -2.002417803 0.9713184237 
5.043569088 4.845544338 -2.002369881 0.971319139 
4.592822075 5.274492264 -2.00231719 0.9713198543 
4.353591442 5.473505974 -2.002289534 0.9713202715 
2.336770058 6.199926853 -1.896902919 0.9728090167 
2.028366566 6.205029011 -1.868979812 0.9732038975 
1.733740211 6.229486942 -1.851260781 0.973454535 
1.453574181 6.29464817 -1.849556088 0.9734786749 
0.02970947139 6.678534985 -1.912054658 0.9725948572 
-0.2740698159 6.839521408 -1.959697247 0.9719216824 
-2.113015175 6.664259911 -2.001556396 0.9713305831 
-2.407329082 6.563559532 -2.001523018 0.9713310599 
-2.696874857 6.449868202 -2.001489878 0.9713315368 
-2.981066942 6.323415279 -2.001457691 0.9713320136 
-3.259352922 6.184445858 -2.00142622 0.9713324308 
-4.543366432 5.312395096 -2.001281023 0.971334517 
-4.775122166 5.104960918 -2.001254797 0.9713348746 
-4.997419357 4.887434006 -2.001229763 0.9713352323 
-5.209821701 4.66023922 -2.001205921 0.9713355303 
-5.78355217 3.925234318 -2.001141548 0.9713364244 
-5.952382565 3.664040327 -2.001122713 0.9713367224 
-6.109426022 3.395593166 -2.00110507 0.9713369608 
-6.254377365 3.120434523 -2.001089096 0.9713371992 
-6.386945724 2.839111328 -2.001074314 0.9713374376 
-6.506875038 2.552167892 -2.001061201 0.9713376164 
-6.613927841 2.26018548 -2.001049519 0.9713377357 
-6.707888126 1.963730454 -2.001039267 0.9713378549 
-6.949511528 0.7450000048 -2.001013517 0.9713382721 
-6.988205433 0.1243896484 -2.00101018 0.9713383317 
-6.986825943 -0.1865942329 -2.001010895 0.9713382721 
-6.942609787 -0.8068407774 -2.001017094 0.9713382125 
-6.899868011 -1.114875436 -2.001022339 0.9713381529 
-6.773525238 -1.723735332 -2.001037836 0.9713379145 
-6.690177917 -2.023344755 -2.00104785 0.9713377357 
-6.593586445 -2.318959951 -2.001059532 0.9713376164 
-6.361469746 -2.895849466 -2.00108695 0.9713372588 
-6.2263937 -3.176020384 -2.001102924 0.9713369608 
-5.919577599 -3.716911554 -2.001138926 0.971336484 
-5.565910339 -4.228408337 -2.001180172 0.9713358879 
-5.168185711 -4.706481934 -2.001226425 0.9713352323 
-4.953769207 -4.931782246 -2.001251221 0.9713348746 
-4.729545593 -5.147326469 -2.001277208 0.971334517 
-4.495949745 -5.35269022 -2.001304388 0.9713341594 
-4.253454685 -5.547472954 -2.001332283 0.9713337421 
-3.477411985 -6.064506531 -2.001421928 0.9713324904 
-3.204245567 -6.213288307 -2.0014534 0.9713320732 
-2.639416456 -6.473703384 -2.001518488 0.9713311195 
-2.348842621 -6.584824085 -2.001551867 0.9713306427 
-2.053640127 -6.682905197 -2.001585722 0.9713301659 
-1.754357815 -6.767753601 -2.001620054 0.971329689 
-1.451594234 -6.839208603 -2.001654148 0.9713292122 
-0.2177587897 -6.988667011 -2.001794577 0.9713272452 
1.023129821 -6.917292118 -2.001935959 0.9713252187 
1.32984376 -6.865053654 -2.001971006 0.9713247418 
1.633942842 -6.799225807 -2.002005577 0.9713242054 
1.93481195 -6.719916821 -2.002039671 0.9713237882 
2.524494648 -6.52158165 -2.002106667 0.9713228345 
3.639538527 -5.971930981 -2.002233028 0.9713210464 
3.901652813 -5.804203987 -2.002262592 0.9713206291 
4.156039715 -5.624985218 -2.002291203 0.9713202119 
4.639665604 -5.233481407 -2.0023458 0.971319437 
5.85641098 -3.824243069 -2.002481699 0.9713175297 
6.17323494 -3.288652182 -2.002516747 0.9713170528 
6.441205978 -2.72697258 -2.002546072 0.9713166356 
6.556176662 -2.437763691 -2.002558708 0.9713164568 
6.746965408 -1.845429659 -2.002579212 0.9713161588 
6.822399616 -1.543486238 -2.00258708 0.9713160396 
6.884333134 -1.238471627 -2.002593517 0.97131598 
6.932631493 -0.9310082793 -2.002598286 0.9713158607 
6.967187405 -0.6216943264 -2.002601624 0.9713158607 
6.987956524 -0.3111572266 -2.002603292 0.9713158011 
6.987948895 0.311152339 -2.0026021 0.9713158607 
6.932609558 0.931000948 -2.002594233 0.97131598 
6.82238245 1.543466806 -2.002580404 0.9713161588 
6.74693346 1.845422268 -2.002571106 0.971316278 
6.65812254 2.143740177 -2.002560139 0.9713164568 
6.556132793 2.437773466 -2.002547979 0.9713166356 
6.44115448 2.726979971 -2.002534151 0.9713168144 
6.17318821 3.288622856 -2.002502203 0.9713172913 
5.680395603 4.080893517 -2.002444267 0.9713180661 
5.493178368 4.32948494 -2.002422333 0.9713183641 
5.295087814 4.569504261 -2.002399206 0.9713187218 
5.086520672 4.800468445 -2.002374649 0.9713190198 
4.867878437 5.021918774 -2.002349138 0.971319437 
4.402148247 5.434545994 -2.002295017 0.9713202119 
3.639494658 5.971850395 -2.002206564 0.971321404 
3.051835775 6.185654163 -1.974736333 0.971709311 
2.399550676 6.198803425 -1.903016925 0.97272259 
2.089328527 6.204071999 -1.874217153 0.9731298089 
1.509523869 6.281484127 -1.849562526 0.9734785557 
1.228583932 6.342304707 -1.849530339 0.9734790325 
0.661013186 6.43601799 -1.852296352 0.9734398723 
-1.145932555 6.897050858 -2.001663923 0.971329093 
-1.754365206 6.767670631 -2.001597166 0.9713300467 
-2.639389515 6.473625183 -2.001496553 0.9713314772 
-2.924699545 6.349709511 -2.001464128 0.9713318944 
-3.204211235 6.213224888 -2.001432419 0.9713323712 
-3.477372885 6.064445496 -2.001401424 0.9713327885 
-4.953725338 4.931738377 -2.00123477 0.9713351727 
-5.168147087 4.706435204 -2.00121069 0.9713354707 
-5.372326374 4.471833229 -2.001187563 0.9713358283 
-5.748393536 3.9765625 -2.001145363 0.9713364244 
-6.078984261 3.449824095 -2.001108408 0.9713369012 
-6.483920574 2.609965801 -2.001063585 0.9713375568 
-6.593561649 2.318940401 -2.001051664 0.9713377357 
-6.690155983 2.023327589 -2.001041174 0.9713378549 
-6.773508072 1.723723054 -2.001032114 0.9713379741 
-6.899855614 1.114865661 -2.001018524 0.9713382125 
-6.971608639 0.4972021282 -2.001011372 0.9713383317 
-6.90951395 -1.053420424 -2.001021147 0.9713381529 
-6.855832577 -1.359770536 -2.001027822 0.9713380337 
-6.788583755 -1.663400888 -2.001035929 0.9713379741 
-6.506904125 -2.552192211 -2.001069784 0.9713374376 
-6.10945797 -3.395620108 -2.001116514 0.971336782 
-5.952414513 -3.6640625 -2.001135111 0.9713365436 
-5.78359127 -3.925261259 -2.001154661 0.9713362455 
-4.775160789 -5.105009556 -2.001271963 0.9713346362 
-4.302629471 -5.5093894 -2.001326799 0.9713338614 
-4.053351879 -5.695412636 -2.001355648 0.9713334441 
-3.796047211 -5.870170593 -2.001385212 0.9713330269 
-3.531213284 -6.033312798 -2.00141573 0.9713326097 
-3.259389639 -6.184518814 -2.001447201 0.9713321328 
-2.113032103 -6.664333344 -2.001579046 0.9713302851 
-1.81452632 -6.751850605 -2.001613379 0.9713298082 
-1.207285166 -6.88663578 -2.001682043 0.9713288546 
0.03110351413 -6.992082596 -2.001823187 0.971326828 
1.573378921 -6.813466549 -2.001998663 0.9713243246 
1.874941349 -6.736845493 -2.002032995 0.9713238478 
2.466367245 -6.543759823 -2.002100229 0.9713228941 
3.038305521 -6.29886198 -2.002165079 0.971322 
3.586227894 -6.004072189 -2.002227068 0.9713211656 
3.849821806 -5.838686466 -2.002256632 0.9713206887 
4.353637695 -5.473567009 -2.002313375 0.9713199139 
5.454482079 -4.378220081 -2.002436876 0.9713181853 
5.822148323 -3.876183987 -2.002477884 0.9713175893 
6.143725395 -3.343442202 -2.002513647 0.9713171124 
6.53420639 -2.49602294 -2.002556324 0.9713165164 
6.73026371 -1.905410171 -2.002577543 0.9713162184 
6.80838871 -1.604147911 -2.002585649 0.9713160992 
6.873029709 -1.299702168 -2.002592325 0.97131598 
6.924059868 -0.9926806688 -2.00259757 0.9713159204 
6.961369514 -0.6836913824 -2.002601147 0.9713158607 
6.984904766 -0.3733471632 -2.002603054 0.9713158607 
6.994601727 -0.06226073951 -2.002603531 0.9713158011 
6.835846901 1.482714772 -2.002582073 0.9713161588 
6.763090611 1.785327077 -2.002573013 0.971316278 
6.676943302 2.08438468 -2.002562523 0.9713163972 
5.335566521 4.522199631 -2.002403736 0.9713186622 
4.450336933 5.395180702 -2.002300739 0.9713200927 
3.119833946 6.184133053 -1.983036876 0.9715920687 
2.785222054 6.191357136 -1.943658829 0.9721482396 
2.462756395 6.197651386 -1.909318089 0.9726335406 
2.150659084 6.203085899 -1.87962687 0.9730533361 
1.850602984 6.218718052 -1.857554317 0.9733654857 
-0.1506982446 6.771325588 -1.93908155 0.9722129107 
-1.0845263 6.906994343 -2.001670599 0.9713289738 
-1.390678644 6.851804256 -2.001637936 0.9713294506 
-1.694062471 6.783041954 -2.00160408 0.9713299274 
-1.994086862 6.700851917 -2.001569986 0.9713304043 
-3.148786545 6.241518497 -2.001438618 0.971332252 
-3.423264027 6.095173359 -2.001407623 0.9713327289 
-3.951332808 5.766623497 -2.00134778 0.9713335633 
-4.203876972 5.585068226 -2.00131917 0.9713339806 
-5.126076698 4.752245903 -2.001215219 0.9713354111 
-5.332343578 4.519465446 -2.001192093 0.9713357091 
-5.528044224 4.277739048 -2.001170158 0.9713360667 
-5.71280241 4.027560711 -2.001149416 0.9713363051 
-5.886252403 3.769411564 -2.001130104 0.9713366032 
-6.048046589 3.503808498 -2.001111984 0.9713368416 
-6.197870731 3.231266975 -2.001095295 0.97133708 
-6.3354249 2.952338696 -2.001080036 0.9713373184 
-6.757900238 1.783945322 -2.001033783 0.9713379741 
-6.830539227 1.481559992 -2.001025915 0.9713380933 
-6.935148716 0.8685742021 -2.001015186 0.9713382721 
-6.989040375 -0.06221191213 -2.001010656 0.9713382721 
-6.979357719 -0.3730517626 -2.001012087 0.9713382721 
-6.955866337 -0.6831493974 -2.001015186 0.9713382125 
-6.867658615 -1.298686504 -2.001026392 0.9713380933 
-6.725111961 -1.903954983 -2.001043797 0.9713378549 
-6.529352665 -2.494167328 -2.001067162 0.9713374972 
-6.411987305 -2.782167912 -2.00108099 0.9713373184 
-5.984787464 -3.610930204 -2.001131296 0.9713366032 
-5.640258789 -4.128666878 -2.001171589 0.9713360071 
-5.25110817 -4.613735199 -2.001216888 0.9713353515 
-5.040737152 -4.842814922 -2.001241207 0.9713350534 
-4.590480804 -5.271799088 -2.001293421 0.9713342786 
-4.351486683 -5.470864296 -2.001321077 0.971333921 
-3.848134756 -5.836127758 -2.001379251 0.9713330865 
-3.03725338 -6.296679497 -2.001472712 0.9713317752 
-2.465676308 -6.541928768 -2.001538515 0.9713308215 
-2.17226553 -6.645244122 -2.001572132 0.9713303447 
-1.874538541 -6.735407352 -2.001606226 0.9713299274 
-1.573071241 -6.812245846 -2.001640558 0.9713294506 
-1.268500924 -6.875605106 -2.001674891 0.9713289142 
-0.9614135623 -6.925346375 -2.001709938 0.9713284373 
-0.6524096727 -6.961381912 -2.001745224 0.9713279009 
-0.3421044946 -6.983632565 -2.001780748 0.971327424 
-0.03110839799 -6.992067814 -2.001816034 0.9713268876 
0.2799633741 -6.986645222 -2.001851559 0.9713264108 
0.590488255 -6.967399597 -2.001886606 0.9713259339 
0.8998510838 -6.934360027 -2.001921892 0.9713254571 
1.512665987 -6.827172756 -2.001991749 0.9713244438 
2.113542318 -6.665942192 -2.002059937 0.9713234901 
2.408010244 -6.565424442 -2.002093554 0.9713230729 
2.697729349 -6.451923847 -2.002126455 0.9713225365 
2.982109308 -6.32563448 -2.002158642 0.9713221192 
3.260593176 -6.1868186 -2.002190113 0.9713216424 
3.797707319 -5.872694969 -2.00225091 0.9713208079 
4.304758072 -5.512070179 -2.002307892 0.9713199735 
4.545756817 -5.315199852 -2.002335072 0.9713196158 
5.000305176 -4.890258789 -2.002386093 0.9713189006 
5.415278435 -4.426584244 -2.002432585 0.9713182449 
5.787399769 -3.92784667 -2.00247407 0.9713176489 
6.11371088 -3.397983313 -2.002510071 0.9713171721 
6.258859634 -3.122683048 -2.002526283 0.9713169336 
6.618927956 -2.26190424 -2.002565384 0.9713163972 
6.914956093 -1.054243088 -2.002596617 0.9713159204 
6.95501709 -0.7455932498 -2.002600431 0.9713158607 
6.992384911 0.1867382824 -2.002602816 0.9713158011 
6.977140903 0.4975976348 -2.002600431 0.9713158607 
6.778725624 1.72504878 -2.002574921 0.9713162184 
6.695241451 2.024873018 -2.002564907 0.9713163972 
6.366042137 2.897924662 -2.002525091 0.9713169336 
5.923517704 3.719389677 -2.002472878 0.9713176489 
5.569391727 4.231054783 -2.002431154 0.9713182449 
5.375605583 4.474563122 -2.002408504 0.971318543 
5.171174049 4.709201336 -2.002384663 0.9713189006 
4.732040882 5.150036335 -2.002333403 0.9713196754 
4.498198032 5.355375767 -2.002306223 0.9713200331 
4.2554636 5.550085545 -2.00227809 0.9713203907 
4.004306316 5.733806133 -2.002249002 0.9713208079 
3.74522686 5.906164646 -2.002218962 0.9713212848 
3.478735209 6.066825867 -2.002188206 0.971321702 
2.851127863 6.189990044 -1.951120734 0.9720428586 
2.212306976 6.202065468 -1.885207653 0.9729744196 
1.341276884 6.319479942 -1.849543214 0.9734788537 
0.7742724419 6.413456917 -1.849478245 0.9734797478 
0.2055590749 6.597221375 -1.889673114 0.9729112387 
-0.08996093273 6.737699986 -1.929148078 0.9723532796 
-0.4006127715 6.917446136 -1.983754039 0.9715819359 
-1.329636216 6.863927841 -2.001644373 0.971329391 
-1.934370041 6.718358994 -2.001576662 0.9713303447 
-2.811244965 6.400793076 -2.001477003 0.9713317156 
-3.368911028 6.12541008 -2.001413822 0.9713326097 
-3.638002872 5.969394207 -2.001383305 0.9713330269 
-4.154033184 5.622265339 -2.001324892 0.9713338614 
-6.016625881 3.557507277 -2.001115561 0.9713368416 
-6.436457157 2.724956036 -2.001069069 0.9713374972 
-6.653098106 2.142080069 -2.001045227 0.9713377953 
-6.741765022 1.844001412 -2.001035452 0.9713379741 
-6.817094803 1.542272925 -2.001027584 0.9713380337 
-6.878930569 1.237492681 -2.001020908 0.9713381529 
-6.927148342 0.9302660823 -2.001015902 0.9713382125 
-6.961662292 0.6212011576 -2.001012564 0.9713382721 
-6.989318848 -2.441406195e-06 -2.001010418 0.9713382721 
-6.98239994 -0.3109130859 -2.00101161 0.9713382721 
-6.817109108 -1.542287588 -2.001032591 0.9713379741 
-6.741789341 -1.844016075 -2.001041889 0.9713378549 
-6.436469555 -2.724999905 -2.001078129 0.971337378 
-6.308935642 -3.008647442 -2.001093149 0.9713371396 
-6.168908596 -3.286342621 -2.001109838 0.9713369012 
-5.4897995 -4.326818943 -2.001188993 0.9713357687 
-5.083625317 -4.797741413 -2.0012362 0.971335113 
-4.865234375 -5.019194126 -2.001261473 0.9713347554 
-4.637214184 -5.230712891 -2.001287937 0.9713343978 
-4.400000095 -5.431894302 -2.001315355 0.9713339806 
-3.899919271 -5.801623344 -2.001373291 0.9713332057 
-3.638034582 -5.969452858 -2.00140357 0.9713327885 
-3.368916035 -6.125490665 -2.001434326 0.9713323116 
-2.523772001 -6.519706726 -2.001531839 0.9713309407 
-1.633640051 -6.797954082 -2.001633644 0.9713295102 
-1.023015141 -6.91648674 -2.001703024 0.9713285565 
-0.7143432498 -6.955268383 -2.00173831 0.9713280201 
0.2177587897 -6.988842487 -2.001844168 0.97132653 
0.5284423828 -6.972355843 -2.001879692 0.9713260531 
0.8380907774 -6.942067623 -2.001914978 0.9713255167 
1.146088839 -6.898036957 -2.001950026 0.9713250399 
1.451828599 -6.840343952 -2.001984835 0.971324563 
1.754733801 -6.769106388 -2.002019405 0.9713240266 
2.349494457 -6.586576939 -2.002086878 0.9713231325 
2.640204906 -6.475644588 -2.00211978 0.9713226557 
2.92569828 -6.351894379 -2.002152205 0.9713221788 
3.205410004 -6.21556139 -2.002183914 0.9713217616 
4.004355431 -5.733881474 -2.002274036 0.9713204503 
4.956557274 -4.934570312 -2.002381325 0.9713189602 
5.171225548 -4.709255219 -2.002405405 0.9713186026 
5.752211571 -3.979174614 -2.002470255 0.9713177085 
5.923578739 -3.719392061 -2.00248909 0.9713174701 
6.083222389 -3.452245951 -2.002506733 0.9713171721 
6.488732815 -2.611909151 -2.002551317 0.971316576 
6.695273399 -2.024887562 -2.002573729 0.9713162184 
6.848801136 -1.421811461 -2.002589941 0.9713160396 
6.977155685 -0.4976000786 -2.002602577 0.9713158011 
6.993766785 0.1244873032 -2.002603054 0.9713158607 
6.981296062 0.4354736209 -2.002600908 0.9713158607 
6.955004692 0.7455883622 -2.002597332 0.9713159204 
6.914928913 1.054262638 -2.002591848 0.97131598 
6.861159325 1.360815406 -2.002585173 0.9713160992 
6.713000298 1.965224624 -2.002567053 0.9713163376 
6.391586781 2.841179132 -2.002528191 0.971316874 
6.113667011 3.397963762 -2.002495289 0.9713173509 
5.956403732 3.66651845 -2.002476692 0.9713175893 
5.787351131 3.927812338 -2.002456665 0.9713178873 
5.606840611 4.181323051 -2.002435446 0.9713181853 
5.415229321 4.426542759 -2.002413034 0.971318543 
4.777705193 5.107727051 -2.002338886 0.9713195562 
4.304682732 5.512021542 -2.002283812 0.9713203311 
3.532587767 6.035651684 -2.002194405 0.9713216424 
3.257514477 6.180966854 -2.000299692 0.9713483453 
