# .PCD v0.7 - Point Cloud Data file format
VERSION 0.7
FIELDS x y z intensities
SIZE 4 4 4 4
TYPE F F F F
COUNT 1 1 1 1
WIDTH 944
HEIGHT 1
VIEWPOINT 0 0 0 1 0 0 0
POINTS 944
DATA ascii
-12.06737041 -18.30149651 4.365257263 0.9144715667 
-10.92716503 -18.29441643 4.243291855 0.9167587757 
-11.57250214 -21.49220467 4.860683918 0.9052391648 
-10.36320019 -21.48467064 4.74989748 0.9072955251 
-9.205763817 -21.47746277 4.653075695 0.9090964794 
-1.188381314 -12.68035412 2.536082983 0.9493821263 
-1.049694777 -21.42666245 4.271774292 0.9162242413 
1.633747578 -19.27722359 3.852400064 0.9241280556 
2.095583439 -16.14824486 3.242536783 0.935743928 
2.833230019 -16.1614666 3.267282963 0.935269773 
3.567814827 -16.10245895 3.284222126 0.9349453449 
4.199621677 -15.62683296 3.222155333 0.9361345768 
5.949953556 -16.22249794 3.44078207 0.9319521189 
6.464933872 -15.46145248 3.337118149 0.9339329004 
9.932600021 -15.35953808 3.642317057 0.9281130433 
14.41613007 -15.41192627 4.202280521 0.917529285 
15.66850281 -15.32381535 4.364141941 0.9144924283 
17.93302536 -16.04131126 4.791165352 0.9065288901 
19.50085068 -15.94034386 5.015419006 0.9023746848 
25.77651978 -15.86698914 6.027346134 0.8838644028 
35.36784744 -17.64579391 7.870630741 0.8511169553 
39.63702774 -17.61919594 8.637511253 0.8378527164 
57.68115234 32.73438644 13.20665359 0.762999475 
51.98226547 32.63941956 12.22246838 0.7785361409 
48.69592667 33.68637466 11.79079056 0.7854501605 
48.67551804 36.97835541 12.17243099 0.7793344259 
49.50241089 45.07969666 13.33218861 0.7610403299 
10.51309776 12.51645088 3.25492382 0.9355065823 
10.22345448 13.33381844 3.345769882 0.9337674975 
33.89240265 48.53087616 11.78723621 0.7855076194 
30.64036751 48.31982422 11.39327145 0.7918714881 
27.7330246 48.36565399 11.10192871 0.7966108322 
16.71889305 32.4196434 7.263556957 0.8617658019 
13.20885181 32.3977623 6.966899395 0.8670179844 
11.58690643 32.48267365 6.867420673 0.8687863946 
9.949514389 32.37745285 6.74481678 0.8709707856 
8.390609741 32.367733 6.658371449 0.8725141883 
5.37483263 32.3489418 6.529898643 0.8748131394 
-26.35519791 91.53450775 18.9676075 0.678077817 
-22.90034294 -3.075378418 4.381829262 0.9102181792 
-22.86002922 -12.17809296 4.911975861 0.8999171853 
-25.70991325 -16.78853798 5.823091984 0.8824855685 
-25.64853287 -18.42629051 5.98908329 0.8793463111 
-23.34559822 -18.39995384 5.637067795 0.8860170245 
-21.320961 -18.39932251 5.340727329 0.8916717768 
-17.77461052 -18.33706665 4.8430233 0.9012503028 
-16.24802399 -18.32754517 4.64482975 0.9050931931 
-14.83875656 -18.31877136 4.470723629 0.9084826708 
-11.5947237 -19.0252018 4.225182056 0.9132841825 
-11.58195972 -21.05860138 4.557716846 0.9067874551 
-9.433503151 -21.47888374 4.448810101 0.9089099765 
-8.311315536 -21.47068024 4.36613369 0.9105247259 
-4.800134182 -24.77951813 4.786559582 0.902343452 
-3.664084435 -24.77244759 4.748972416 0.9030718803 
-0.3304418921 -24.75167656 4.694344521 0.9041316509 
0.6008569002 -19.28365517 3.658739805 0.9244581461 
2.559265137 -15.40346909 2.961169958 0.9384068251 
3.381765127 -15.93319511 3.08888936 0.9358372092 
4.058801174 -15.65750694 3.067440033 0.93626827 
4.784762859 -15.57034874 3.089045048 0.9358341098 
5.952834129 -16.68824005 3.360087395 0.9304044843 
6.304221153 -15.46244812 3.166661024 0.9342760444 
7.968737602 -15.45207691 3.29706192 0.9316641688 
8.856227875 -15.44505596 3.376361847 0.9300794005 
10.77901077 -15.43458176 3.570150375 0.9262180328 
12.88567638 -15.34114456 3.799402714 0.9216706753 
14.16249752 -15.41351318 3.969574213 0.918309629 
16.90681839 -15.39641285 4.336474895 0.9111047983 
23.26455307 -16.09367943 5.364674091 0.8912135363 
25.60775566 -16.0790844 5.734222412 0.8841709495 
28.19552422 -16.00106239 6.148044109 0.8763505816 
58.9127121 32.74347305 12.78189278 0.7600222826 
53.03471375 32.64596939 11.81027222 0.776042223 
48.6580162 39.77430344 11.91811752 0.7742474675 
48.63490295 43.50455093 12.37469101 0.7666956186 
48.67219543 47.60112381 12.91069698 0.7579237819 
10.54015827 12.32427216 3.075354815 0.9361092448 
10.13652325 12.97945309 3.123121023 0.9351497889 
31.28977776 48.38598633 10.92740059 0.7908914685 
28.30981636 48.36894608 10.62834072 0.7959856987 
17.08717537 32.42193604 6.950154781 0.8613890409 
10.34731674 32.63450623 6.492462158 0.8698946238 
7.169896126 32.36013031 6.285620213 0.873766005 
3.799720287 44.83485413 8.532990456 0.8326098323 
-31.22240448 95.51374054 19.05649185 0.6642388701 
-33.7169838 89.45818329 18.12988281 0.6775847673 
-43.19951248 89.55911255 18.85679436 0.6670947671 
-52.78411865 88.37103271 19.5206356 0.6576527357 
-18.99707031 9.267810822 4.008472443 0.9175431132 
-21.63886642 9.389122009 4.473256588 0.9084332585 
-22.82589531 -4.950973988 4.429379463 0.9092894793 
-22.82891464 -6.026350021 4.477595806 0.9083486199 
-44.37641525 -18.32347298 9.104751587 0.8224520683 
-25.95127106 -16.61860085 5.844029427 0.8820890188 
-26.14063835 -18.42935181 6.06545639 0.8779057264 
-23.7970047 -18.41475296 5.706259727 0.8847017884 
-18.09587288 -18.33906937 4.885890484 0.9004212022 
-16.54331779 -18.32939148 4.682423115 0.9043629766 
-13.7836256 -18.31219482 4.34655714 0.9109075665 
-12.54238033 -18.30446053 4.207987785 0.913621366 
-13.36892319 -21.50341415 4.8017869 0.9020485878 
-7.442126274 -21.46515274 4.308383942 0.9116543531 
-5.357985497 -21.45349884 4.19342041 0.9139071703 
-5.029626369 -24.78094864 4.795295715 0.902174294 
-3.889909506 -24.77385521 4.755690575 0.9029416442 
-0.5508276224 -24.75305367 4.695347309 0.9041121602 
0.4291088879 -19.284729 3.658070803 0.9244713783 
1.288757324 -19.27937698 3.664311171 0.9243475795 
1.871804118 -16.75631142 3.197441101 0.9336588383 
2.369929075 -15.09353256 2.897416592 0.9396920204 
3.933698654 -15.75061226 3.078702927 0.9360419512 
5.955910683 -17.17846489 3.44797945 0.9286504984 
6.112863541 -15.38332748 3.139188528 0.9348272085 
6.954079628 -15.45840073 3.214513063 0.9333167076 
7.795973778 -15.45316124 3.282357931 0.9319583178 
8.675973892 -15.44767761 3.359920979 0.9304077625 
12.72163296 -15.42248726 3.791358232 0.9218298793 
16.60949898 -15.3982687 4.295193195 0.9119126201 
27.37136459 -15.85706234 5.998874187 0.8791615367 
30.41244316 -15.85560226 6.50419426 0.8696755767 
37.42108154 -17.43844414 7.829280853 0.8452840447 
47.66810608 -14.88083744 9.470048904 0.8160273433 
60.1848526 32.75286484 12.99414635 0.7565670013 
54.11877823 32.65272522 11.9864893 0.7731118798 
48.67780304 46.76639557 12.80126667 0.7597061992 
46.10240936 48.41617203 12.67837238 0.7617131472 
10.21374226 14.08437252 3.299365997 0.9316180944 
31.90632439 48.38951111 10.99189281 0.7897972465 
28.89277458 48.37228394 10.68515015 0.7950154543 
15.63462162 32.41288376 6.824527264 0.8637153506 
13.8882513 32.40199661 6.685397625 0.8662989736 
10.78481388 32.99227142 6.582474232 0.8682152629 
9.009352684 32.37158966 6.372287273 0.8721418381 
7.473051548 32.36201477 6.298655987 0.8735215664 
4.498354435 32.40248108 6.20375824 0.87530303 
3.679096699 39.25618744 7.477186203 0.8516975641 
-26.07796478 97.03640747 19.05499268 0.6642602682 
-38.76896667 92.72010803 19.05868912 0.6642073989 
-42.4360733 90.01496124 18.87255669 0.6668697596 
-46.86219788 88.91845703 19.06105995 0.6641736627 
-51.72633743 88.37762451 19.41963005 0.6590806246 
-18.7526989 9.356109619 3.974320889 0.9182161093 
-22.93773842 -2.665724993 4.379210472 0.91026932 
-22.82023811 -5.807323933 4.465583324 0.9085829854 
-45.53860092 -18.33071518 9.309357643 0.8188472986 
-31.28543091 -14.24171638 6.518798828 0.8694030046 
-28.81412697 -14.69767761 6.134151459 0.8766120672 
-25.9080677 -16.26762962 5.80146122 0.8828954101 
-26.64549255 -18.43249702 6.144293308 0.8764211535 
-22.11038017 -18.40423965 5.455536842 0.8894766569 
-20.19665909 -18.3923111 5.180286884 0.8947483301 
-18.42294312 -18.34110641 4.92993021 0.8995703459 
-16.84343529 -18.33125687 4.721007824 0.9036141634 
-15.38961124 -18.32220459 4.537696362 0.9071772695 
-14.04190159 -18.31380653 4.376430988 0.9103235602 
-11.58730221 -20.20799065 4.417560577 0.90952003 
-11.08209705 -21.48914719 4.5852108 0.9062523842 
-9.894537926 -21.48175049 4.485182762 0.9082006812 
-7.657131195 -21.46610641 4.322077751 0.9113863111 
-4.116359711 -24.77526093 4.762805462 0.9028037786 
-1.876726031 -24.7613163 4.709219456 0.903842926 
-0.7713110447 -24.75442505 4.696722507 0.9040854573 
0.2575073242 -19.28579712 3.657696247 0.9244788289 
1.116628408 -19.28044701 3.6624825 0.9243838787 
3.146779776 -16.24444962 3.137874365 0.9348536134 
4.412434101 -15.32504082 3.02431488 0.9371355176 
5.959157467 -17.69511414 3.540893793 0.926799953 
5.955285549 -15.38430882 3.128446341 0.9350427389 
9.411643028 -15.44310284 3.429656029 0.9290158749 
10.37696552 -15.43708706 3.527441025 0.9270676374 
12.49379635 -15.42390347 3.764217854 0.9223670959 
16.31776047 -15.40008545 4.255020142 0.9126993418 
17.74208641 -15.31090069 4.444253922 0.9089990258 
20.44174004 -16.11126137 4.935897827 0.8994551301 
27.17720795 -16.06930351 5.987430096 0.8793776035 
29.76307869 -15.85554409 6.395245075 0.8717120886 
41.49566269 -17.56784821 8.545449257 0.8323871493 
47.11672592 -15.17023182 9.38696003 0.8174842 
61.50001907 32.76256943 13.21461773 0.7529944181 
56.15656281 33.2041893 12.37188816 0.7667415738 
13.33195972 8.705751419 3.019582987 0.9372307062 
48.68775177 34.97801971 11.3688879 0.7834308743 
46.99794006 48.48514557 12.80546474 0.7596377134 
9.919147491 13.42507458 3.165479898 0.934299767 
29.48200417 48.37565231 10.74342155 0.7940214276 
27.37611198 49.77603912 10.773036 0.7935169339 
15.99282646 32.41511536 6.854687214 0.8631561995 
14.23187256 32.40414047 6.711709976 0.8658097386 
9.321090698 32.37353516 6.388743877 0.8718337417 
7.777535439 32.36391449 6.31224823 0.8732666969 
6.279615402 32.4171524 6.261890888 0.8742113113 
4.793285847 32.40686417 6.212519169 0.875138402 
3.699113607 36.01660156 6.86613512 0.8629440069 
0.1170874014 8.77004528 1.663307428 0.9649214149 
-25.84446907 99.69911194 19.53188515 0.6574935317 
-42.04653168 91.28604889 19.05964851 0.6641939282 
-46.06846619 89.33090973 19.06082535 0.6641769409 
-50.67960739 88.38414001 19.32118225 0.660474956 
-22.83867455 -4.529689789 4.415509224 0.9095602036 
-22.82124138 -5.591804028 4.455864906 0.9087725878 
-46.75449753 -18.33828354 9.524176598 0.8150796294 
-31.72882462 -14.10404491 6.584769249 0.8681724668 
-26.72548485 -14.85394764 5.798449516 0.8829525709 
-27.16373444 -18.43572998 6.225716591 0.8748905063 
-24.70038795 -18.42037773 5.843328953 0.8821022511 
-22.46852303 -18.36631012 5.503354549 0.8885639906 
-17.14856148 -18.33316612 4.760611534 0.9028462172 
-14.30374718 -18.31543732 4.407062054 0.90972507 
-13.90778542 -21.50676537 4.857048988 0.9009789824 
-11.58985043 -19.80189705 4.351164341 0.9108173847 
-11.32615471 -21.49067116 4.606863499 0.9058312178 
-10.12793159 -21.4832058 4.504125595 0.9078313112 
-7.873557091 -21.46718979 4.336236954 0.9111093879 
-4.752516747 -21.44972801 4.166387558 0.9144377112 
-4.343556881 -24.77667618 4.770318985 0.9026581049 
-3.214289427 -24.76963997 4.736717224 0.9033095241 
-0.9919458032 -24.75579834 4.698472977 0.9040514827 
0.9445971251 -19.28152084 3.66094327 0.9244143963 
1.806550264 -19.27614975 3.671559572 0.9242037535 
2.236384153 -16.10913277 3.084244013 0.9359305501 
2.976188898 -16.13152122 3.11081934 0.9353967309 
5.947126389 -15.77890301 3.197802305 0.9336515665 
6.626720905 -15.46044159 3.189904928 0.9338099957 
7.454977989 -15.4552803 3.254105568 0.932523787 
8.319005966 -15.44990444 3.32766819 0.9310522079 
12.26918697 -15.42529964 3.73775959 0.92289114 
13.42553902 -15.41810226 3.877040625 0.9201357365 
16.03141403 -15.40187263 4.215924263 0.9134656787 
17.42834282 -15.31284904 4.399623394 0.9098703861 
19.90639305 -15.97859573 4.840780735 0.9012937546 
21.82814598 -15.97809792 5.130003452 0.8957147002 
29.50152969 -16.05483055 6.369492054 0.872194171 
32.32520676 -15.76996803 6.820766449 0.8637850285 
40.11335754 -17.40519714 8.292410851 0.8369222283 
56.56106186 32.76745605 12.39626884 0.7663405538 
50.95916748 32.63303375 11.47560596 0.781637907 
48.69179535 34.32817078 11.29804134 0.7846230865 
49.65581894 42.08631897 12.34408092 0.7671996355 
47.84697342 48.48999786 12.91870213 0.7577932477 
11.05628681 12.24997997 3.129379511 0.9350241423 
10.20718765 12.37420368 3.041991711 0.9367799759 
9.992013931 13.27486038 3.150900602 0.9345921874 
30.0777359 48.37905121 10.80320168 0.7930032015 
27.65068626 49.23249817 10.70822811 0.7946216464 
16.35425758 32.41736603 6.885675907 0.8625822663 
14.5782032 32.40629959 6.738761902 0.8653070927 
12.87306881 32.39566803 6.610805511 0.8676873446 
9.63449955 32.37548828 6.405800819 0.8715146184 
8.083367348 32.36582184 6.326403618 0.8730013967 
6.570634842 32.37223434 6.264261246 0.8741666675 
3.716102123 33.26644897 6.34790659 0.8725984097 
3.647724628 54.5683403 10.37146378 0.8003873825 
-26.66143227 89.5921402 17.7266655 0.6834757328 
-32.91834641 94.94541168 19.05698586 0.664231658 
-41.23189545 91.65556335 19.059412 0.6641972065 
-45.27107239 89.73626709 19.06059074 0.6641802788 
-49.64322281 88.39059448 19.22525787 0.6618367434 
-61.5245285 89.78926849 20.64141846 0.6420157552 
-22.89039993 -3.281721115 4.385338783 0.9101495147 
-25.8886795 -17.23587036 5.898091793 0.8810657859 
-25.16859627 -18.42329788 5.915071964 0.8807446957 
-20.89249039 -18.35649109 5.274100304 0.8929478526 
-19.13721657 -18.3857193 5.032688618 0.8975880146 
-15.95737553 -18.32573891 4.608191013 0.905805409 
-11.59232616 -19.40785789 4.287080288 0.9120713472 
-11.57250214 -21.49220848 4.629088402 0.9053991437 
-10.36330795 -21.48467064 4.523589134 0.9074520469 
-9.205763817 -21.47746849 4.431376934 0.909250319 
-5.971765041 -21.45731735 4.223832607 0.9133107066 
-4.953459263 -21.45098305 4.175031185 0.9142680764 
-4.571442604 -24.77809715 4.778235435 0.9025046825 
-1.212805152 -24.75717545 4.700595856 0.9040102959 
-0.1101586893 -24.75030899 4.693710327 0.9041439295 
1.63374269 -19.27722931 3.668850899 0.9242575169 
2.80856204 -16.02073479 3.084513903 0.9359251261 
3.521892071 -15.89550972 3.087539196 0.9358643889 
5.966198444 -18.81690216 3.743524313 0.9227769971 
5.949904442 -16.22237015 3.27681613 0.932069242 
6.464894772 -15.46145248 3.178114176 0.9340463281 
8.143078804 -15.45100307 3.312164545 0.9313621521 
9.040021896 -15.4454174 3.393894196 0.9297294021 
9.984279633 -15.43952847 3.486836672 0.9278761744 
13.18736553 -15.41958237 3.847742558 0.9207146764 
23.52936745 -15.96912766 5.392745018 0.8906764984 
26.11594963 -16.07591438 5.815749168 0.8826247454 
31.61693001 -15.77438164 6.700682163 0.8660147786 
39.63683319 -17.61920166 8.225926399 0.8381165266 
41.91667938 14.742136 8.42639637 0.8345172405 
57.57542801 32.67427444 12.55435658 0.7637440562 
51.98202133 32.6394043 11.64007759 0.7788829803 
48.75697327 33.72846222 11.24307823 0.7855498195 
48.67535019 36.97837448 11.59243393 0.7796798944 
48.65353394 40.49837494 12.00484848 0.7728073597 
48.63005829 44.28565216 12.47325897 0.7650749087 
48.66650391 48.45040894 13.02303314 0.7560977936 
10.37261486 12.34919739 3.05841732 0.9364497066 
10.06446743 13.12633801 3.136787415 0.9348754287 
30.68039703 48.38249969 10.86453056 0.7919598222 
27.7328968 48.36565399 10.5729475 0.7969326973 
16.71896935 32.41963959 6.917489052 0.8619933724 
14.9273634 32.40847015 6.766575813 0.8647906184 
8.390523911 32.367733 6.341124058 0.872725606 
6.867973328 32.35824585 6.273134708 0.8740003109 
5.385340691 32.41260529 6.231011868 0.8747910261 
3.95858264 32.78964996 6.263401985 0.8741829991 
3.626061916 47.84261703 9.098928452 0.8225550056 
0.2743615806 8.805386543 1.670669198 0.9647688866 
-26.35546494 91.53609467 18.06417465 0.6785413027 
-32.07165146 95.23326874 19.05673599 0.6642354727 
-34.62720871 89.45251465 18.19055939 0.6767038703 
-40.41407776 92.01764679 19.05917358 0.6642007828 
-48.61710739 88.39698792 19.13176918 0.663166225 
-22.90035057 -3.075363636 4.381826401 0.9102181196 
-22.85085106 -4.110846996 4.403019428 0.9098041654 
-22.8237381 -5.16362524 4.437698364 0.909126997 
-22.83952332 -6.247116566 4.490406513 0.9080988765 
-33.1684761 -14.04239941 6.830579758 0.8636029959 
-22.86010933 -12.17811298 4.911991119 0.8999168873 
-27.03040695 -15.98253632 5.955089092 0.8799883127 
-25.7098484 -16.78853226 5.823081017 0.8824858069 
-21.32094383 -18.39932251 5.340724945 0.8916718364 
-17.77461433 -18.33706665 4.8430233 0.9012502432 
-16.24803352 -18.32754517 4.644831181 0.9050931931 
-13.52881527 -18.31060219 4.317427635 0.911477387 
-12.30342007 -18.30297661 4.182307243 0.9141252041 
-11.58196545 -21.05860519 4.557718277 0.9067874551 
-10.60074902 -21.48615456 4.543586731 0.9070625901 
-9.433512688 -21.47887802 4.448810577 0.9089099765 
-8.311330795 -21.47068024 4.366134644 0.9105247259 
-7.228483677 -21.46421623 4.29511261 0.9119141102 
-5.15526104 -21.45223427 4.184037209 0.914091289 
-1.307155728 -12.72721863 2.426303387 0.9492445588 
2.023835421 -16.76351357 3.202127934 0.933564961 
3.381784678 -15.93321991 3.088894844 0.9358371496 
4.058810711 -15.65749264 3.067440033 0.93626827 
5.952834129 -16.68824005 3.360087395 0.9304044843 
7.968757153 -15.45207691 3.297063112 0.9316641688 
8.856232643 -15.44503593 3.376355886 0.9300794601 
9.791296005 -15.44073486 3.467290878 0.9282655716 
11.76797581 -15.34810257 3.667718172 0.9242799878 
14.16247749 -15.41350842 3.969571829 0.9183096886 
19.36371803 -16.11797523 4.777823448 0.9025126696 
25.60777092 -16.07907867 5.734224796 0.8841708899 
28.19552422 -16.00106239 6.148044109 0.8763505816 
30.93730736 -15.78069592 6.586143494 0.8681467772 
42.16544724 14.40918159 8.45029068 0.8340893388 
53.03469467 32.64596939 11.81026745 0.7760422826 
48.89071274 33.18160248 11.20537472 0.7861858606 
48.67953873 36.30293655 11.51604843 0.7809597254 
48.63490295 43.50448227 12.37468243 0.7666957378 
48.67219543 47.60124969 12.91071224 0.7579234838 
12.32711124 13.17866135 3.422131538 0.9291659594 
10.54014874 12.32427502 3.075352669 0.9361092448 
10.13651848 12.9794569 3.1231215 0.9351497889 
31.28978729 48.38598633 10.9274025 0.7908914685 
28.30983162 48.36894608 10.62834072 0.7959856987 
15.27944756 32.41066742 6.795153618 0.8642601371 
13.54729176 32.39986801 6.65982151 0.866774857 
11.87955284 32.38947678 6.542472839 0.8689612746 
7.169896126 32.36013031 6.285620213 0.873766005 
4.222730637 32.54068375 6.22277832 0.8749457002 
3.79977417 44.83485413 8.532988548 0.8326098323 
-31.2224865 95.51371002 19.05649185 0.6642388701 
-39.59310532 92.37256622 19.05893326 0.6642040014 
-43.19955826 89.55911255 18.85679436 0.6670947075 
-18.99711418 9.267805099 4.008478165 0.917542994 
-21.63886261 9.389102936 4.473254204 0.9084333181 
-22.82891846 -6.026389122 4.477597713 0.9083485603 
-44.37634277 -18.3234787 9.104740143 0.8224523067 
-30.38580513 -14.15996838 6.357349873 0.8724215627 
-28.81210136 -15.02124691 6.161939621 0.8760893345 
-25.95129776 -16.61859131 5.844031811 0.8820889592 
-23.79705238 -18.41475296 5.70626688 0.8847016096 
-13.7835865 -18.31219482 4.346552372 0.9109076262 
-12.54235554 -18.30446053 4.207985401 0.9136214256 
-11.58467007 -20.6266861 4.486371517 0.9081774354 
-10.84030533 -21.4876442 4.564122677 0.9066627622 
-9.663064003 -21.48031044 4.466745377 0.9085602164 
-8.532502174 -21.47246361 4.381766796 0.9102192521 
-7.442136288 -21.46514893 4.308383942 0.9116543531 
-5.35799551 -21.45349884 4.193417549 0.9139071703 
-5.029655457 -24.78094864 4.795296669 0.9021742344 
-3.889938831 -24.77384949 4.755691051 0.9029416442 
0.429133296 -19.28473282 3.658070803 0.9244713783 
2.369958401 -15.09357166 2.897423744 0.9396919012 
3.159768105 -15.5680933 3.01253891 0.9373724461 
6.112863541 -15.38332748 3.139188528 0.9348272085 
8.675944328 -15.44767761 3.359920979 0.9304077625 
9.600402832 -15.44192123 3.448231936 0.9286454916 
10.5767355 -15.43583679 3.548523903 0.9266481996 
11.55351257 -15.34944057 3.643316269 0.9247642756 
15.2027607 -15.4070282 4.104745865 0.9156486392 
16.60954857 -15.3982687 4.295196533 0.9119124413 
20.81724358 -16.10891724 4.991747856 0.8983773589 
22.63723373 -15.95940685 5.252555847 0.8933612108 
24.87189674 -15.9273901 5.600966454 0.8867040277 
27.37140274 -15.85706234 5.998881817 0.8791614175 
47.66810608 -14.88088608 9.470048904 0.8160272837 
60.18502808 32.75286865 12.99417496 0.7565665245 
54.1189537 32.65272522 11.98652172 0.773111403 
49.24961853 32.78873062 11.22029781 0.785934031 
48.68366241 35.63640213 11.44155884 0.7822095156 
48.69664001 42.78587723 12.29302979 0.7680407166 
46.102314 48.41617203 12.67835903 0.7617133856 
28.89277458 48.37228394 10.68515015 0.7950154543 
17.55373001 32.60041428 7.021626949 0.8600683212 
15.63462162 32.41288376 6.824527264 0.8637153506 
13.8883009 32.40199661 6.68540144 0.866298914 
10.78485584 32.99230576 6.582482815 0.8682150841 
7.473121166 32.36201477 6.298659325 0.8735215068 
5.980460167 32.41563416 6.251064301 0.8744145036 
3.679091692 39.25704193 7.477353573 0.8516946435 
0.03925536945 8.824251175 1.673456669 0.9647112489 
-26.07796478 97.03640747 19.05499268 0.6642602682 
-30.37071037 95.78663635 19.05624008 0.6642422676 
-34.60377502 94.34688568 19.05747604 0.6642248631 
-42.4360733 90.01524353 18.87259293 0.6668691039 
-46.86211014 88.91848755 19.06105995 0.6641737223 
-51.72612 88.37761688 19.41960526 0.6590809226 
-22.93773842 -2.665724993 4.379210472 0.91026932 
-22.86957169 -3.69524169 4.393259048 0.9099949002 
-22.83239937 -4.740012169 4.422278881 0.9094280601 
-45.53876495 -18.33071518 9.309387207 0.8188467622 
-31.28561211 -14.24171638 6.518830299 0.8694024086 
-26.8215847 -15.22141361 5.848464012 0.8820050359 
-26.64544678 -18.43249702 6.144288063 0.8764212728 
-22.11031914 -18.40423965 5.455528259 0.8894768357 
-15.38961124 -18.32220459 4.537696362 0.9071772695 
-12.78431892 -18.30596924 4.234327793 0.9131048918 
-6.594968319 -21.46120262 4.257745743 0.912645936 
-5.259933949 -24.78238487 4.804436207 0.9019972086 
-4.11634016 -24.77526093 4.762804985 0.9028037786 
-1.876696706 -24.7613163 4.709218979 0.903842926 
-0.7713110447 -24.75442505 4.696722507 0.9040854573 
1.979655743 -19.27507591 3.674565554 0.9241440892 
2.385178089 -16.12596321 3.091406584 0.9357866645 
3.146755219 -16.24443626 3.137870789 0.934853673 
3.807658672 -15.84455299 3.090317249 0.935808599 
4.412424088 -15.32507038 3.024319887 0.9371353984 
5.955246449 -15.38430882 3.128445625 0.9350427985 
6.789812088 -15.45942593 3.202036858 0.9335667491 
7.585270882 -15.37415695 3.251109123 0.9325836897 
10.3769846 -15.43708706 3.527443409 0.9270675778 
12.49382019 -15.42390347 3.764221907 0.9223670363 
14.93605232 -15.40869808 4.069604874 0.9163396358 
16.31776047 -15.40008545 4.255020142 0.9126993418 
17.74208641 -15.31090069 4.444253922 0.9089990258 
20.44169235 -16.11126709 4.935890675 0.8994552493 
22.11778069 -15.88978195 5.16463995 0.8950489759 
27.17711067 -16.06930351 5.987415791 0.8793779016 
29.7630825 -15.85558319 6.395245075 0.871712029 
41.49567413 -17.56774139 8.545436859 0.8323872685 
47.11663055 -15.17006588 9.386933327 0.8174846768 
61.49985123 32.76256561 13.21458721 0.752994895 
13.33195496 8.705771446 3.019583702 0.9372306466 
48.68775177 34.97806168 11.36889648 0.7834307551 
48.66680527 38.35702896 11.75116634 0.7770274878 
48.62015533 45.88543701 12.67819881 0.7617169619 
9.919157028 13.42506409 3.165478706 0.9342998266 
32.53038788 48.39308548 11.05804634 0.7886764407 
29.48216438 48.37565231 10.74343586 0.7940211892 
27.37600708 49.77603912 10.77302551 0.7935171127 
15.99274826 32.41511536 6.854682446 0.8631563187 
11.1049242 32.9750824 6.598493576 0.8679166436 
9.321068764 32.37353134 6.388741493 0.8718338013 
7.777488708 32.36391449 6.312247276 0.8732666969 
3.699113607 36.01660156 6.86613512 0.8629440069 
0.1170874014 8.77004528 1.663307428 0.9649214149 
-25.84446526 99.69839478 19.53171921 0.6574954391 
-29.51687241 96.05179596 19.05599213 0.6642458439 
-37.94194412 93.06023407 19.05844879 0.6642107964 
-42.04659271 91.286026 19.05964851 0.6641938686 
-62.41274261 89.36941528 20.67194939 0.6415975094 
-22.83867073 -4.529746056 4.415511608 0.9095602036 
-22.82124138 -5.59185791 4.455866337 0.9087725282 
-46.75420761 -18.33827782 9.524126053 0.8150805235 
-31.72882462 -14.10404491 6.584769249 0.8681724668 
-26.72548485 -14.85394764 5.798449516 0.8829525709 
-26.53069496 -16.33119774 5.908106327 0.8808764219 
-24.70038795 -18.42037773 5.843328953 0.8821022511 
-20.56388092 -18.3945961 5.232274055 0.8937502503 
-18.79729843 -18.3835907 4.986120701 0.8984857798 
-17.14862442 -18.33316612 4.76061964 0.9028460383 
-15.67137909 -18.32395744 4.572500229 0.9064997435 
-13.90771675 -21.50676918 4.857041836 0.9009791017 
-11.58985043 -19.80199814 4.351182938 0.9108170867 
-11.32608604 -21.49066544 4.606858253 0.905831337 
-7.873557091 -21.46718979 4.336236954 0.9111093879 
-6.804982662 -21.46234512 4.26982069 0.9124094248 
-5.766188622 -21.45604134 4.213314533 0.9135169983 
-4.343556881 -24.77667618 4.770318985 0.9026581049 
0.1100952104 -24.74893761 4.693448544 0.9041489959 
0.9445239305 -19.28152084 3.660942554 0.9244143963 
1.806574702 -19.27614975 3.671559572 0.9242037535 
5.962580204 -18.24031448 3.639228821 0.9248454571 
8.319005966 -15.44990444 3.32766819 0.9310522079 
11.19103241 -15.43200874 3.615060091 0.9253254533 
14.6738596 -15.4103241 4.035384178 0.9170131683 
16.03133583 -15.40187263 4.215914726 0.9134658575 
17.42841911 -15.31285381 4.399634838 0.9098701477 
19.90639305 -15.97851753 4.840771198 0.9012939334 
21.8281765 -15.97805405 5.130003452 0.8957147002 
24.16476822 -16.08806801 5.505338192 0.8885262609 
29.50152969 -16.05483055 6.369492054 0.872194171 
32.32520676 -15.76996803 6.820766449 0.8637850285 
40.11335754 -17.40519714 8.292410851 0.8369222283 
47.00520325 -15.59733105 9.392025948 0.8173953891 
42.02319336 15.20117855 8.474674225 0.833652854 
48.67110062 37.66295242 11.67080402 0.7783694267 
49.65602493 42.08631897 12.34410954 0.7671991587 
11.05624199 12.24998665 3.129374027 0.9350242615 
9.992004395 13.27488995 3.150906563 0.9345921278 
33.55070496 48.9643364 11.25633907 0.785326004 
30.0777359 48.37905121 10.80320168 0.7930032015 
14.5782032 32.40629959 6.738761902 0.8653070927 
11.32374287 32.66078949 6.555516243 0.8687178493 
6.570631981 32.37224197 6.264261246 0.8741666079 
5.089120865 32.41109848 6.221765041 0.8749646544 
3.716104746 33.26590729 6.347806454 0.872600317 
0.1950134188 8.76442337 1.662506104 0.9649380445 
-32.91834641 94.94541168 19.05698586 0.664231658 
-37.11158371 93.39302826 19.05820847 0.6642144918 
-45.27107239 89.73626709 19.06059074 0.6641802788 
-22.89039993 -3.281721115 4.385338783 0.9101495147 
-22.8448143 -4.319987774 4.409090042 0.9096855521 
-22.82244301 -5.377267838 4.446579933 0.9089537263 
-32.844944 -14.25142765 6.789809227 0.8643593788 
-28.81812286 -14.05901623 6.080750465 0.8776174784 
-25.88874435 -17.23583794 5.898101807 0.8810656071 
-19.13713646 -18.38571548 5.032678604 0.8975881934 
-17.4588604 -18.33510017 4.801270962 0.9020585418 
-14.56930828 -18.31709099 4.43848753 0.909111619 
-14.18191624 -21.50847435 4.885741234 0.9004241228 
-11.59232616 -19.40785789 4.287080288 0.9120713472 
-9.205763817 -21.47746849 4.431376934 0.909250319 
-7.016135216 -21.46327782 4.282260895 0.912165761 
-5.971818924 -21.45731735 4.223835468 0.913310647 
-4.953405857 -21.45098305 4.175028324 0.914268136 
-4.571389198 -24.77809715 4.778233051 0.9025047421 
-3.438835382 -24.77103615 4.742644787 0.9031945467 
-1.212756276 -24.75717545 4.700595856 0.9040102959 
-0.1101049781 -24.75030899 4.693711758 0.9041439295 
1.63374269 -19.27722931 3.668850899 0.9242575169 
2.80856204 -16.02073479 3.084513903 0.9359251261 
4.18305397 -15.56518745 3.056528807 0.9364876151 
5.966198444 -18.81690216 3.743524313 0.9227769971 
5.949904442 -16.22237015 3.27681613 0.932069242 
7.286613464 -15.45632553 3.240542173 0.9327954054 
9.040070534 -15.4454174 3.393899202 0.9297293425 
9.98432827 -15.43952847 3.486841679 0.9278761148 
13.18741417 -15.4195776 3.847748041 0.9207145572 
15.66864014 -15.32381535 4.156223774 0.914637208 
17.2099781 -15.39452839 4.378911495 0.9102750421 
19.50078773 -15.94042683 4.776454449 0.9025392532 
23.52936745 -15.96912766 5.392745018 0.8906764984 
26.11594963 -16.07591438 5.815749168 0.8826247454 
31.61693001 -15.77438164 6.700682163 0.8660147786 
39.63659668 -17.61920547 8.225887299 0.8381173015 
47.17346573 -16.12068558 9.453936577 0.8163095713 
41.91664124 14.74202347 8.426383972 0.8345174789 
57.57514572 32.67427444 12.55430412 0.7637448311 
11.56307602 12.5844965 3.240994453 0.9327863455 
10.37261486 12.34919739 3.05841732 0.9364497066 
16.71907425 32.41963959 6.917497635 0.8619931936 
14.92743587 32.40847397 6.766582012 0.8647904992 
13.20900631 32.3977623 6.634965897 0.8672374487 
9.949475288 32.37744904 6.423449516 0.8711844683 
8.390465736 32.367733 6.341119289 0.872725606 
5.385268211 32.41260529 6.231010437 0.8747910857 
3.95858264 32.78964996 6.263401985 0.8741829991 
0.2743615806 8.805386543 1.670669198 0.9647688866 
-26.87937164 111.8512497 21.8154335 0.6260382533 
-26.35547066 91.53677368 18.06429672 0.6785395145 
-32.07144547 95.2333374 19.05673599 0.6642354131 
-40.41424942 92.01757812 19.05917358 0.6642007232 
-22.85988426 -12.17804909 4.911951065 0.8999177814 
-27.03040695 -15.98253632 5.955089092 0.8799883127 
-25.7098484 -16.78853226 5.823081017 0.8824858069 
-21.32094383 -18.39932251 5.340724945 0.8916718364 
-19.44074821 -18.34744263 5.069373131 0.8968814611 
-17.77461433 -18.33706665 4.8430233 0.9012502432 
-16.24803352 -18.32754517 4.644831181 0.9050931931 
-13.52886486 -18.31060219 4.31743288 0.9114772677 
-12.30347347 -18.30297661 4.182313442 0.9141250849 
-11.59472847 -19.02513885 4.225171089 0.913284421 
-11.58195972 -21.05871201 4.557736874 0.9067870975 
-9.433454514 -21.47887802 4.448812485 0.9089100957 
-8.311276436 -21.47068024 4.366129875 0.9105247855 
-6.178405762 -21.45860481 4.234740734 0.9130968451 
-4.800114632 -24.77951813 4.786559105 0.902343452 
-3.664074659 -24.77244377 4.748970985 0.9030718803 
-1.307155728 -12.72721863 2.426303387 0.9492445588 
-1.433845162 -24.75855255 4.703094006 0.9039617777 
-0.3304516673 -24.75168228 4.694341183 0.9041316509 
1.461154699 -19.27830315 3.66643405 0.924305439 
2.02379632 -16.76350784 3.202126741 0.933564961 
7.11971426 -15.4573698 3.227349997 0.9330595732 
7.968757153 -15.45207691 3.297063112 0.9316641688 
8.856232643 -15.44503593 3.376355886 0.9300794601 
14.16247749 -15.41350842 3.969571829 0.9183096886 
15.47401047 -15.40533924 4.140815735 0.91493994 
19.36363029 -16.11797523 4.777810097 0.902512908 
20.92569542 -15.8972044 4.983633041 0.8985337615 
23.26468849 -16.09367943 5.364694595 0.891213119 
25.60788345 -16.07907867 5.734241962 0.8841705322 
28.19551849 -16.00100327 6.148039341 0.8763507009 
46.54210663 -16.36881065 9.356232643 0.8180237412 
53.03469467 32.64596939 11.81026745 0.7760422826 
48.63490295 43.50448227 12.37468243 0.7666957378 
35.25541306 49.53779221 11.53061771 0.7807154655 
15.27944756 32.41066742 6.795153618 0.8642601371 
13.54729176 32.39986801 6.65982151 0.866774857 
10.34728718 32.63448334 6.492454529 0.869894743 
7.169896126 32.36013031 6.285620213 0.873766005 
-26.94104767 96.80172729 19.05524445 0.6642565727 
-31.2224865 95.51371002 19.05649185 0.6642388701 
-33.71712112 89.45818329 18.12988853 0.6775845885 
-43.19955826 89.55911255 18.85679436 0.6670947075 
-47.65233231 88.49887848 19.06129074 0.664170444 
-52.78411865 88.37103271 19.5206356 0.6576527357 
-18.99711418 9.267805099 4.008478165 0.917542994 
-21.63886261 9.389102936 4.473254204 0.9084333181 
-22.91914558 -2.870541811 4.380362988 0.9102467299 
-22.85869789 -3.902585268 4.397665024 0.9099087119 
-22.82589722 -4.951003075 4.42937994 0.9092894197 
-22.82891846 -6.026389122 4.477597713 0.9083485603 
-44.37634277 -18.3234787 9.104740143 0.8224523067 
-28.81210136 -15.02124691 6.161939621 0.8760893345 
-26.86457634 -15.56343937 5.88780117 0.8812604547 
-23.79705238 -18.41475296 5.70626688 0.8847016096 
-12.54235554 -18.30446053 4.207985401 0.9136214256 
-13.36889362 -21.50341415 4.801781654 0.9020485878 
-11.58467007 -20.6266861 4.486371517 0.9081774354 
-8.532502174 -21.47246361 4.381766796 0.9102192521 
-7.442136288 -21.46514893 4.308383942 0.9116543531 
-6.386174202 -21.4598999 4.246048927 0.9128752351 
-5.35799551 -21.45349884 4.193417549 0.9139071703 
-3.889938831 -24.77384949 4.755691051 0.9029416442 
-2.766682148 -24.76686287 4.726015091 0.9035170078 
-1.655065894 -24.75993347 4.705966473 0.9039060473 
0.429133296 -19.28473282 3.658070803 0.9244713783 
1.871823668 -16.75631142 3.197442293 0.9336588383 
4.483976841 -15.06782913 2.981313944 0.9380010366 
5.955910683 -17.17846489 3.44797945 0.9286504984 
6.112863541 -15.38332748 3.139188528 0.9348272085 
6.954064846 -15.45840073 3.214511871 0.9333167672 
7.795959473 -15.45315647 3.28235507 0.9319583774 
8.675944328 -15.44767761 3.359920979 0.9304077625 
9.600402832 -15.44192123 3.448231936 0.9286454916 
12.72169685 -15.42248726 3.7913661 0.9218297005 
13.91300964 -15.41505623 3.93793726 0.9189335704 
16.60940552 -15.3982687 4.295179844 0.9119128585 
24.87189674 -15.92753124 5.600977421 0.8867037892 
37.42108154 -17.43844414 7.829280853 0.8452840447 
47.66813278 -14.8806715 9.470044136 0.8160274029 
54.11839676 32.65272141 11.98642826 0.7731129527 
48.69664001 42.78587723 12.29302979 0.7680407166 
46.102314 48.41617203 12.67835903 0.7617133856 
10.20232201 12.82675171 3.108101368 0.9354513884 
31.90632439 48.38951111 10.99189281 0.7897972465 
28.89249611 48.37227249 10.68512154 0.7950159311 
17.55373001 32.60041428 7.021626949 0.8600683212 
15.63446045 32.41287994 6.824510574 0.863715589 
13.8883009 32.40199661 6.68540144 0.866298914 
10.78485584 32.99230576 6.582482815 0.8682150841 
9.009235382 32.37158966 6.372282505 0.8721419573 
3.679091692 39.25704193 7.477353573 0.8516946435 
-30.3710804 95.78646088 19.05624008 0.6642424464 
-34.60377502 94.34688568 19.05747604 0.6642248631 
-42.4360733 90.01524353 18.87259293 0.6668691039 
-46.86251831 88.91828156 19.06105995 0.6641737223 
-51.72612 88.37761688 19.41960526 0.6590809226 
-18.75268936 9.35612011 3.974319696 0.9182161093 
-22.93773842 -2.665724993 4.379210472 0.91026932 
-22.83239937 -4.740012169 4.422278881 0.9094280601 
-22.82024193 -5.807409763 4.465587139 0.9085828662 
-31.28525162 -14.24170589 6.51876688 0.8694036007 
-28.81412697 -14.69759464 6.13414669 0.8766121864 
-25.90818977 -16.26764297 5.801484108 0.8828950524 
-26.64544678 -18.43249702 6.144288063 0.8764212728 
-24.2434597 -18.41752625 5.773767948 0.8834204674 
-22.11031914 -18.40423965 5.455528259 0.8894768357 
-20.19678497 -18.3923111 5.180305004 0.8947480321 
-16.8432827 -18.33125687 4.720988274 0.9036145806 
-15.38961124 -18.32220459 4.537696362 0.9071772695 
-14.04177475 -18.31380653 4.376413822 0.9103238583 
-12.78431892 -18.30596924 4.234327793 0.9131048918 
-13.63670635 -21.50507927 4.829057217 0.9015205503 
-11.58730221 -20.20793724 4.417551994 0.9095202088 
-8.755231857 -21.47425461 4.397854805 0.9099049568 
-6.594968319 -21.46120262 4.257745743 0.912645936 
-5.561657429 -21.45476341 4.203181267 0.9137157202 
-5.259933949 -24.78238487 4.804436207 0.9019972086 
-1.876804113 -24.7613163 4.709220886 0.903842926 
1.979777813 -19.27507019 3.674567461 0.9241440892 
2.385178089 -16.12596321 3.091406584 0.9357866645 
3.807658672 -15.84455299 3.090317249 0.935808599 
6.789728642 -15.45942593 3.202030182 0.9335668683 
7.585270882 -15.37415695 3.251109123 0.9325836897 
8.496569633 -15.44879627 3.343578815 0.9307342172 
10.37688732 -15.43708706 3.527433634 0.9270677567 
12.49371338 -15.42390347 3.76420927 0.9223672748 
16.31776047 -15.40008545 4.255020142 0.9126993418 
17.74223328 -15.31090069 4.444274426 0.9089986086 
22.11797523 -15.88978767 5.164669037 0.8950483799 
27.17738533 -16.0692997 5.987458229 0.8793770671 
47.11680603 -15.17036819 9.386981964 0.8174838424 
56.1566391 33.20397568 12.3718853 0.766741693 
13.33195496 8.705771446 3.019583702 0.9372306466 
48.68776321 34.97777176 11.36886311 0.7834312916 
46.99753952 48.48514557 12.80540848 0.7596385479 
9.919157028 13.42506409 3.165478706 0.9342998266 
32.53009033 48.39307404 11.05801487 0.7886769772 
27.37600708 49.77603912 10.77302551 0.7935171127 
15.99291706 32.41511536 6.854695797 0.8631560206 
12.53969479 32.39358902 6.587357044 0.8681243062 
11.1049242 32.9750824 6.598493576 0.8679166436 
9.321201324 32.37353516 6.388750076 0.8718336225 
4.793285847 32.40686417 6.212519169 0.875138402 
0.1170519963 8.770051956 1.66330862 0.9649214149 
-25.84446526 99.69839478 19.53171921 0.6574954391 
-33.76258469 94.64983368 19.05723 0.6642282605 
-42.04659271 91.286026 19.05964851 0.6641938686 
-62.41274261 89.36941528 20.67194939 0.6415975094 
-22.8801403 -3.488268852 4.389147758 0.9100751281 
-22.83867073 -4.529746056 4.415511608 0.9095602036 
-22.82124519 -5.59175539 4.455863953 0.9087725878 
-46.75420761 -18.33827782 9.524126053 0.8150805235 
-28.81613541 -14.37699413 6.107097149 0.8771212697 
-26.72556305 -14.85413742 5.798481464 0.8829519749 
-24.70038795 -18.42037773 5.843328953 0.8821022511 
-22.46833611 -18.36631012 5.503343582 0.888564527 
-20.56388092 -18.3945961 5.232274055 0.8937502503 
-18.79714394 -18.3835907 4.986099243 0.898486197 
-15.67123699 -18.32395744 4.572482586 0.9065001011 
-14.30381107 -18.31543732 4.407070637 0.9097248912 
-13.02922058 -18.30749321 4.261322975 0.912575841 
-13.90785408 -21.50676537 4.857055664 0.9009788036 
-11.58985043 -19.80199814 4.351182938 0.9108170867 
-11.32620811 -21.49066544 4.60686779 0.9058311582 
-6.804880142 -21.46235085 4.269815445 0.9124094844 
-4.752419472 -21.44972801 4.166383743 0.9144377708 
-4.343556881 -24.77667618 4.770318985 0.9026581049 
-0.9918920398 -24.75579834 4.698470116 0.9040514827 
0.9446508288 -19.28152084 3.660943747 0.9244143963 
2.236423254 -16.10913849 3.084245443 0.9359305501 
2.976149797 -16.13148117 3.110812902 0.9353969097 
3.71203351 -16.07481575 3.128659964 0.935038507 
5.94712162 -15.77909851 3.197839022 0.9336509109 
7.45505619 -15.4552803 3.25411272 0.9325236678 
8.319005966 -15.44990444 3.32766819 0.9310522079 
9.224944115 -15.44426441 3.411552906 0.9293770194 
10.17947006 -15.4383173 3.506881237 0.9274769425 
14.6738596 -15.4103241 4.035384178 0.9170131683 
16.03147697 -15.40187263 4.215933323 0.9134654999 
19.90639305 -15.97851753 4.840771198 0.9012939334 
26.29249763 -15.86377621 5.823403358 0.8824797273 
40.11335754 -17.40519714 8.292410851 0.8369222283 
48.67110062 37.66326141 11.67082977 0.7783688307 
48.62514496 45.07944107 12.57441616 0.7634150982 
9.992004395 13.27488995 3.150906563 0.9345921278 
33.55089951 48.96416855 11.25633907 0.7853261232 
27.65068817 49.23200989 10.708148 0.7946230173 
16.35425758 32.41736603 6.885675907 0.8625822663 
14.57802486 32.40629578 6.738747597 0.8653073311 
11.32362747 32.66086578 6.55552721 0.86871773 
6.570631981 32.37224197 6.264261246 0.8741666079 
5.08897686 32.41109848 6.221765995 0.8749647141 
-26.66143227 89.5921402 17.7266655 0.6834757328 
-37.11158371 93.39302826 19.05820847 0.6642144918 
-41.23228455 91.65538025 19.059412 0.6641972065 
-45.27107239 89.73626709 19.06059074 0.6641802788 
-22.89039993 -3.281721115 4.385338783 0.9101495147 
-22.84481239 -4.32008791 4.409093857 0.9096854925 
-22.82244301 -5.377267838 4.446579933 0.9089537263 
-47.46544647 -18.13166618 9.635767937 0.8131293058 
-32.844944 -14.25142765 6.789809227 0.8643593788 
-28.81811714 -14.05917168 6.080763817 0.87761724 
-25.16847801 -18.42329788 5.915048599 0.8807449937 
-22.93484116 -18.40937614 5.577209473 0.8871561885 
-13.27729702 -18.30904007 4.289008617 0.9120335579 
-14.18191624 -21.50847435 4.885741234 0.9004241228 
-10.36319542 -21.48467064 4.523581982 0.9074522257 
-8.091609001 -21.46890831 4.350954056 0.910821557 
-4.953503132 -21.45097923 4.175032616 0.9142680168 
-3.438952446 -24.77104187 4.742647171 0.9031944871 
-1.212863684 -24.75717545 4.700596333 0.9040102363 
0.772580564 -19.28258514 3.659696817 0.9244391918 
5.966198444 -18.81661797 3.743472576 0.9227780104 
6.464933872 -15.46145248 3.178116798 0.9340462685 
7.286613464 -15.45632553 3.240542173 0.9327954054 
9.98432827 -15.43952847 3.486841679 0.9278761148 
10.98369408 -15.43330765 3.592317104 0.9257773161 
13.18730164 -15.4195776 3.847735167 0.9207148552 
14.41613483 -15.41193104 4.002055645 0.9176694751 
15.6685133 -15.32381535 4.156206131 0.9146375656 
17.2099781 -15.39452839 4.378911495 0.9102750421 
21.31374741 -15.89479256 5.042175293 0.8974055648 
26.11594963 -16.07591438 5.815749168 0.8826247454 
28.89320564 -16.05861473 6.268753529 0.8740825653 
31.61693001 -15.77438164 6.700682163 0.8660147786 
41.91671753 14.74224854 8.426412582 0.8345170021 
48.67535019 36.97822952 11.59241676 0.7796801925 
48.66650391 48.45040894 13.02303314 0.7560977936 
11.56302452 12.58454227 3.240994453 0.9327863455 
10.06443119 13.12640953 3.136795282 0.9348753095 
30.68011856 48.38249969 10.86450291 0.791960299 
16.71889305 32.41963959 6.917481422 0.8619934916 
13.20884514 32.3977623 6.634954453 0.8672376871 
11.58687973 32.48262787 6.540200233 0.8690035939 
9.949475288 32.37744904 6.423449516 0.8711844683 
8.390603065 32.367733 6.341126442 0.8727254868 
6.86788559 32.35824203 6.273132324 0.8740003705 
3.95858264 32.78964996 6.263401985 0.8741829991 
3.626076698 47.84022522 9.098477364 0.8225629926 
-26.87937164 111.8512497 21.8154335 0.6260382533 
-26.35546494 91.53543854 18.06405067 0.6785430312 
-34.62743378 89.45250702 18.19034576 0.6767037511 
-44.47034073 90.1342926 19.06035805 0.6641838551 
-22.82976341 -7.350514889 4.321564674 0.9071199298 
-49.20653152 -18.2964325 9.459395409 0.807854116 
-33.1684761 -14.04240417 6.490031719 0.8638169169 
-29.8452816 -14.23274612 5.957894325 0.8742482066 
-25.75749207 -16.81960678 5.543012619 0.8824681044 
-23.36095238 -18.4120388 5.359538555 0.8861277699 
-21.32094955 -18.3993187 5.074452877 0.891844511 
-19.44074821 -18.34744835 4.81662941 0.8970463276 
-16.24802399 -18.32755089 4.413258076 0.9052456617 
-14.83875179 -18.31876755 4.247813702 0.9086300135 
-14.45935249 -21.51020241 4.67012167 0.9000157714 
-11.58202839 -21.05871773 4.330508709 0.9069368243 
-10.60073948 -21.48614883 4.317057133 0.9072120786 
-9.433498383 -21.47888947 4.227011204 0.9090566039 
-9.603752136 -24.80944061 4.793554306 0.8975133896 
-8.352409363 -24.80163765 4.715518951 0.8990947008 
-7.138791561 -24.79408836 4.649033546 0.9004439712 
-5.956613541 -24.786726 4.59336853 0.9015752673 
-4.800134182 -24.77951813 4.547920227 0.902500093 
-1.307148457 -12.72718239 2.305311918 0.9493282437 
0.6008569002 -19.28365898 3.476327658 0.9245808125 
2.020969152 -16.73991013 3.03819418 0.9337636232 
3.339186907 -15.73259449 2.897935152 0.9367224574 
4.042858601 -15.59597397 2.903056622 0.9366143346 
5.952785492 -16.688097 3.192534924 0.9305184484 
7.968732834 -15.45208263 3.1326828 0.9317755699 
16.90681267 -15.39642334 4.120269775 0.9112480283 
18.48502159 -15.38658905 4.333619118 0.9068732262 
20.92574883 -15.89720917 4.735180855 0.8986959457 
23.26456642 -16.09368324 5.097212791 0.8913868666 
28.19542694 -16.00102234 5.841508865 0.8765463233 
31.10585213 -15.86665249 6.291876316 0.8676866293 
42.2154274 14.42629623 8.038515091 0.8341658115 
58.80195999 32.68192673 12.12180614 0.7607662678 
53.13386536 32.70701981 11.24243259 0.7760072947 
48.89060593 33.18149567 10.64667988 0.786505878 
48.7419014 36.34944534 10.95591164 0.7810388803 
48.63471603 43.50437546 11.75767994 0.7670404911 
10.99510002 11.75462532 2.900171995 0.9366753101 
31.28978157 48.38597488 10.38259983 0.7912049294 
17.087183 32.42193604 6.603646278 0.8616061807 
13.54734612 32.39986801 6.327786922 0.866984129 
11.90109062 32.44813919 6.227543831 0.8689467311 
8.715270996 32.4295311 6.050672531 0.8724203706 
7.183549881 32.42174911 5.983615398 0.8737410307 
5.682447433 32.41411591 5.929628849 0.8748056293 
4.222709656 32.54063416 5.912518024 0.8751433492 
3.799702168 44.8348465 8.107569695 0.8328675032 
-32.86148071 100.5278625 19.05692482 0.6505981088 
-33.71699905 89.45818329 17.22599411 0.6780303121 
-43.19953156 89.55909729 17.91660309 0.6675511003 
-19.20379829 9.368664742 3.850069284 0.9168189764 
-21.63894081 9.389152527 4.250247478 0.9085803628 
-22.77070427 -8.236901283 4.363148212 0.9062694907 
-30.38589478 -14.16002178 6.040410042 0.8726223111 
-26.71230698 -15.47524166 5.562553406 0.8820792437 
-25.92340469 -16.60076904 5.546705246 0.8823946118 
-26.14064789 -18.42935753 5.763053894 0.8780987859 
-19.79303169 -18.34963989 4.863255978 0.8961033225 
-18.09587288 -18.33906937 4.642300606 0.9005807042 
-16.54331207 -18.3293972 4.448973656 0.9045165777 
-15.11212158 -18.32047653 4.279232979 0.9079864025 
-16.19891357 -21.52103806 4.853525639 0.8963000774 
-11.58473873 -20.62677956 4.262715816 0.9083247781 
-8.599440575 -24.80318069 4.73017168 0.8987975121 
-7.378806114 -24.79558754 4.661445618 0.9001919031 
-6.190817833 -24.7881813 4.603669167 0.9013658762 
-5.029626369 -24.78094864 4.556215286 0.9023311734 
-3.889909506 -24.77385521 4.518588066 0.9030973315 
-2.766643047 -24.76686287 4.490392685 0.9036719203 
-0.5508227348 -24.75305367 4.461250782 0.904266119 
2.525954485 -16.08721352 2.934200764 0.9359565377 
4.473977089 -15.03426933 2.826365232 0.9382359982 
5.955866337 -17.17831802 3.276045799 0.9287672043 
6.112868309 -15.38332748 2.982679605 0.9349336028 
6.954079628 -15.45840073 3.054250717 0.9334254861 
7.795973778 -15.45316124 3.11871171 0.932069242 
8.675969124 -15.44767761 3.192404985 0.9305211306 
9.600421906 -15.441926 3.276315451 0.9287615418 
11.55354214 -15.34944534 3.461674929 0.9248864055 
13.91295147 -15.41506577 3.741597414 0.919064939 
15.20269299 -15.40703297 3.900088787 0.9157850742 
16.60949516 -15.3982687 4.081046581 0.9120546579 
18.15638351 -15.38862991 4.288513184 0.9077963829 
22.63715935 -15.95938206 4.990666866 0.8935316801 
27.55764389 -15.9649725 5.738584995 0.8785837293 
30.77928925 -16.04687309 6.254467487 0.86841923 
60.06906128 32.68981552 12.32253647 0.7573292851 
48.74570084 35.68167496 10.8849535 0.7822899222 
49.9299202 40.07803345 11.53645515 0.7708776593 
48.6965332 42.78563309 11.68010235 0.7683839202 
11.16887379 11.72941494 2.918359518 0.9362910986 
10.0537014 12.63987637 2.910119057 0.9364652038 
31.90633392 48.38951111 10.44387436 0.7901121378 
17.55377197 32.60051346 6.67156744 0.8602870107 
15.63462353 32.41287613 6.484277248 0.8639291525 
12.23070049 32.45057297 6.248657227 0.8685330153 
9.025924683 32.4311142 6.065717697 0.8721243739 
7.487199306 32.42329025 5.995954514 0.8734977841 
5.980532169 32.41563034 5.93941021 0.874612689 
3.678997755 39.2550621 7.104202747 0.8519324064 
-36.42054367 99.30006409 19.05796051 0.6505827308 
-57.45302582 88.84437561 19.06411743 0.6504925489 
-22.77593231 -8.010305405 4.350318909 0.9065318108 
-30.81537247 -14.0277462 6.100734711 0.8714358211 
-28.81421661 -14.69770241 5.828343391 0.876806736 
-26.10121918 -16.38891411 5.553320408 0.8822629452 
-26.64550018 -18.43249702 5.837957859 0.8766164184 
-22.11038208 -18.40423965 5.183543682 0.8896526098 
-20.1522522 -18.35188675 4.911193848 0.8951348662 
-18.42295837 -18.34111023 4.684141636 0.8997311592 
-9.894528389 -21.48175049 4.261567593 0.9083483815 
-8.755285263 -21.47426033 4.178598404 0.9100499749 
-8.848039627 -24.80473328 4.745296955 0.8984909058 
-6.426100731 -24.78964615 4.614380836 0.9011481404 
-4.116364479 -24.7752552 4.525345802 0.9029597044 
-1.876721144 -24.76132011 4.474434376 0.9039972425 
-0.7713110447 -24.75443077 4.462563515 0.9042394161 
4.402429104 -15.29028988 2.867017508 0.9373760223 
5.959104061 -17.69497299 3.364330053 0.9269195199 
5.955285549 -15.38430882 2.972473621 0.9351488352 
6.789762974 -15.45943069 3.042391539 0.9336752295 
12.49380112 -15.42390347 3.5765481 0.922492981 
17.83448982 -15.39063644 4.244668007 0.9086946249 
19.41305923 -15.30049515 4.453802109 0.9044180512 
