# .PCD v0.7 - Point Cloud Data file format
VERSION 0.7
FIELDS x y z intensities
SIZE 4 4 4 4
TYPE F F F F
COUNT 1 1 1 1
WIDTH 944
HEIGHT 1
VIEWPOINT 0 0 0 1 0 0 0
POINTS 944
DATA ascii
6.950383186 -15.45019531 3.373543024 0.9332364202 
7.791960239 -15.44521427 3.444800854 0.9318754077 
8.671643257 -15.43999958 3.526265144 0.9303218126 
12.71626663 -15.41602516 3.979367018 0.9217280149 
13.83540726 -15.3290863 4.111886024 0.9192295074 
15.16095924 -15.36466789 4.298257828 0.9157273769 
17.39364052 -16.12516594 4.722994328 0.907795608 
22.82668686 -16.09296799 5.561493874 0.8923380375 
25.10935783 -16.07943344 5.937319756 0.8854954839 
37.83537292 -17.6315136 8.311992645 0.84345752 
45.12311554 -16.32250977 9.555084229 0.8222533464 
60.1685524 32.7439003 13.64053154 0.7562490702 
46.93198013 37.67179108 11.98377705 0.7823516726 
48.53090668 42.64028168 12.86412525 0.768371284 
46.15901184 48.4757309 13.32904053 0.7610893846 
43.42767334 49.87315369 13.16853237 0.7635955215 
10.16038322 12.77402687 3.250180483 0.9355974197 
8.794323921 12.12704468 2.982974768 0.940731883 
8.411003113 12.75623131 3.042604923 0.9395836592 
8.071813583 13.51382637 3.134471893 0.9378173947 
12.21097183 32.39809418 6.89440155 0.868306458 
10.58748245 32.3884697 6.785304546 0.8702487946 
9.180199623 32.98529434 6.817948341 0.8696671724 
7.474960804 32.37001038 6.615413189 0.8732821941 
5.970397949 32.3610878 6.552756786 0.8744035959 
3.031183958 32.34365463 6.468761444 0.8759093285 
2.196258545 44.83441162 8.938509941 0.8327032924 
-28.40910912 89.59993744 18.71725273 0.6815638542 
-32.92744827 89.77636719 19.0415287 0.6770520806 
-53.5825386 101.6700745 22.88495064 0.6257978678 
-63.61916733 89.39122009 21.84837151 0.6392296553 
-44.94595718 -18.0920887 9.647891998 0.8206919432 
-30.7718811 -14.00786114 6.732567787 0.8711892962 
-30.56100464 -15.58882809 6.831549644 0.8694249988 
-29.35204315 -18.43017006 6.90149641 0.8681802154 
-26.61865425 -18.41396523 6.445204735 0.8763321042 
-24.16654778 -18.35926247 6.043439388 0.8835733533 
-20.17843246 -18.37577629 5.434555531 0.8946611881 
-18.4474144 -18.36551285 5.183460712 0.89927423 
-16.86628151 -18.35613251 4.96393013 0.903326869 
-15.3769598 -18.3071537 4.760803699 0.9070928693 
-14.03066635 -18.29916954 4.591709614 0.9102399349 
-10.48074913 -18.2781353 4.195593357 0.9176549315 
-9.887682915 -21.4668541 4.706309319 0.9081058502 
-5.558439732 -21.44273376 4.410986423 0.9136155248 
-3.560681105 -21.43089867 4.32600069 0.9152071476 
-2.586574554 -21.42512131 4.297325134 0.9157447815 
-0.6007592678 -19.28063393 3.841182709 0.9243404269 
2.320598125 -15.68933582 3.158180475 0.9373620749 
4.206237793 -17.5031395 3.584599018 0.9292109013 
4.429631233 -15.38481903 3.188010216 0.9367895722 
5.20659399 -15.46053219 3.248519182 0.9356292486 
5.982971191 -15.45593262 3.300259829 0.9346382618 
7.620832443 -15.44622993 3.429768562 0.9321623445 
8.448381424 -15.36100578 3.490919113 0.9309955835 
13.66189194 -15.41041946 4.100923538 0.9194359779 
16.2274971 -15.31490231 4.443185329 0.9130131006 
18.6768322 -16.11756706 4.91245842 0.9042795897 
20.27221298 -15.97767544 5.139863968 0.900077641 
29.63127136 -15.78537083 6.685460091 0.872030139 
36.98274994 -17.63656616 8.15885067 0.8461073637 
45.92920685 -14.7877636 9.60816288 0.821359992 
49.95703125 32.62195587 11.88096142 0.7840008736 
46.95542908 33.73355865 11.51293468 0.7899330258 
46.93602371 36.99294662 11.90025806 0.7836911082 
46.91522217 40.48644257 12.33983135 0.7766668797 
44.1124115 49.75818253 13.24134254 0.762457788 
39.1823616 48.37142944 12.39571476 0.7757784128 
8.939763069 12.09950256 2.995656013 0.9404875636 
8.141208649 13.35845757 3.115117788 0.9381892085 
14.23439693 32.41009521 7.048783302 0.8655650616 
9.46236515 32.8643074 6.810074329 0.8698074818 
7.779374599 32.37181473 6.629662991 0.8730273247 
6.269106388 32.36286163 6.564155102 0.87419945 
4.785451412 32.35406113 6.512700081 0.8751213551 
-28.99638367 111.8568802 23.01014137 0.6241956949 
-40.74884033 88.46844482 19.39548302 0.6721612811 
-63.25678635 90.57800293 21.99961662 0.6372483969 
-40.64302444 -18.06658173 8.856758118 0.8340988159 
-24.44925499 -12.19826412 5.440908909 0.8945458531 
-28.08071518 -15.60718727 6.397295952 0.877192378 
-27.32852936 -16.82232857 6.39025259 0.8773189783 
-27.07647896 -18.37651825 6.516191959 0.8750588298 
-18.78082275 -18.36749077 5.23099041 0.8983991146 
-14.29218483 -18.30071831 4.623822689 0.9096413851 
-13.01903534 -18.29318237 4.471020222 0.9124926925 
-10.6987133 -18.27942276 4.217573643 0.917241931 
-7.869606972 -21.45643425 4.550895691 0.9110010862 
-6.801100731 -21.45009804 4.480882645 0.9123084545 
-2.82311511 -12.74169445 2.598767042 0.9481640458 
-2.780431986 -21.42627335 4.302353382 0.9156505466 
0.7549584508 -15.41188908 3.072622299 0.9390061498 
4.210544109 -18.23357391 3.726373911 0.9265165925 
4.282023907 -15.3856926 3.180172682 0.9369400144 
5.054196835 -15.46143532 3.239133835 0.935809195 
5.795544147 -15.37672806 3.27220583 0.9351754189 
7.451096058 -15.44723606 3.415128708 0.9324418902 
8.314821243 -15.44211864 3.492390156 0.9309675097 
10.12195492 -15.35108852 3.661524534 0.9277480245 
11.13277054 -15.3516798 3.776160717 0.9255722165 
12.26395226 -15.41871071 3.92308712 0.9227911234 
13.42005539 -15.41186523 4.069351673 0.9200307131 
20.06934357 -16.10930061 5.124558449 0.9003597498 
21.77703285 -15.94062424 5.374038696 0.8957707882 
26.44270134 -15.95424747 6.149662495 0.8816527724 
35.73396301 -17.43293381 7.917250633 0.850304544 
45.39963913 -15.0645752 9.525054932 0.8227593303 
50.95103455 32.62784576 12.04780483 0.7813262343 
47.07555389 33.18857956 11.46949959 0.7906361222 
46.91950989 39.76700211 12.24736309 0.7781392336 
46.93574142 47.56674576 13.30671597 0.7614373565 
9.08700943 12.07257175 3.008885622 0.9402327538 
8.785942078 12.82232761 3.095181704 0.9385724068 
8.20994854 13.20541573 3.096340895 0.938550055 
27.16262436 48.36350632 11.04549503 0.7975321412 
25.10572052 49.76451874 11.09916019 0.7966560721 
12.87559509 32.40203857 6.942908287 0.867444098 
11.23066616 32.39228058 6.826902866 0.8695076704 
9.696107864 32.58250046 6.769294262 0.8705342412 
6.568876743 32.36463928 6.576115608 0.8739853501 
3.613460541 32.34710693 6.481286049 0.8756845593 
2.186966419 32.7171669 6.529452801 0.8748211265 
-2.856481791 25.57068825 5.123521805 0.9003788829 
-28.20902061 112.9492569 23.18207741 0.6219989657 
-27.52557373 92.4960556 19.21685028 0.6746251583 
-35.31163406 88.86335754 19.0410881 0.6770579815 
-39.8006897 88.47406006 19.31828117 0.6732249856 
-30.56501198 -14.91123962 6.772017479 0.8704856038 
-27.2220726 -16.42448235 6.330920219 0.8783857226 
-25.1437664 -18.40522003 6.204888821 0.8806560636 
-17.48235512 -18.35978889 5.048264027 0.9017677903 
-15.94410896 -18.31051254 4.834719181 0.9057206511 
-14.55754089 -18.30228996 4.656777382 0.9090276361 
-11.56502151 -21.4783287 4.857542992 0.905297339 
-9.19955349 -21.46298218 4.649939537 0.909154892 
-5.968434811 -21.44516563 4.432639599 0.9132103324 
-2.928605795 -12.68245125 2.591896534 0.9482975006 
-3.954284668 -21.43323135 4.339993 0.9149448872 
-2.974660635 -21.42742157 4.307728767 0.9155497551 
-2.007595062 -21.4216938 4.284359455 0.9159880877 
-0.9445825219 -19.28267097 3.844329119 0.9242808223 
1.313508272 -15.49857426 3.097267389 0.9385322332 
2.061462402 -15.885849 3.189847231 0.9367543459 
2.680685997 -15.29128361 3.09136343 0.9386457801 
4.902585506 -15.46233368 3.230050564 0.9359833002 
5.669484615 -15.45779228 3.27858758 0.9350532293 
6.461364746 -15.45309544 3.335311174 0.9339675307 
7.282795429 -15.4482317 3.40088129 0.932714045 
9.035646439 -15.43784142 3.561946869 0.9296421409 
9.936183929 -15.36508751 3.643633842 0.928088069 
10.97881603 -15.42632294 3.770346642 0.9256824851 
12.04257011 -15.42001915 3.896005869 0.9233031273 
13.18201828 -15.41327095 4.038595676 0.9206104279 
14.41057873 -15.40599537 4.200659275 0.9175596833 
15.74458694 -15.39807606 4.385311604 0.9140959978 
17.78823471 -15.91178703 4.752485752 0.9072474837 
21.58930779 -16.10030174 5.362865925 0.895975709 
23.7041626 -16.08776283 5.704609871 0.8897262216 
25.77244759 -15.86447239 6.026390076 0.8838816285 
35.36854553 -17.64613152 7.870782375 0.8511142731 
39.64020157 -17.62081909 8.638214111 0.8378405571 
45.5525589 -15.56676197 9.585826874 0.8217357993 
57.67188263 32.72914505 13.20453835 0.7630325556 
47.38864136 32.78203583 11.47425747 0.7905589342 
46.94394302 35.66318893 11.73944759 0.7862765789 
46.96066284 42.76543045 12.64768791 0.77178514 
44.53312302 48.4669342 13.10658646 0.7645650506 
42.0095787 50.01486206 13.00643539 0.7661349177 
8.502065659 12.17419052 2.956880093 0.9412348866 
8.278134346 13.054492 3.078111887 0.9389005899 
27.73356628 48.36660004 11.10214806 0.7966072559 
25.66566658 49.76783752 11.1504097 0.7958201766 
14.93009472 32.41422272 7.10637188 0.8645447493 
11.55519772 32.394207 6.848702431 0.8691194654 
9.957995415 32.40507889 6.750569344 0.8708680868 
3.905354023 32.34883881 6.488342762 0.8755580783 
-1.71068716 8.831032753 1.791200161 0.9639776349 
-30.51973343 90.62558746 19.04197311 0.6770457625 
-34.51989365 89.17464447 19.04123306 0.6770560741 
-38.86034393 88.47964478 19.24324226 0.6742606163 
-44.19503784 89.57636261 19.89005089 0.6653868556 
-19.51168823 9.304743767 4.304512024 0.915610075 
-43.20783997 -18.29283142 9.34322834 0.8258291483 
-30.56698418 -14.5769825 6.743456841 0.8709950447 
-21.30136871 -18.38243675 5.602774143 0.8915839791 
-19.46629143 -18.37155724 5.329987526 0.8965793848 
-13.51817131 -18.29613304 4.529846668 0.9113938808 
-12.29401112 -18.28889084 4.388176918 0.9140423536 
-11.81352711 -21.47979927 4.88145256 0.9048540592 
-9.426872253 -21.46391487 4.66812849 0.908816278 
-8.306764603 -21.45902252 4.582083225 0.9104194045 
-4.152116776 -21.43440819 4.347540855 0.9148034453 
-3.169484854 -21.42857933 4.313461304 0.9154422283 
0.4654565454 -14.93834972 2.976091623 0.9408645034 
1.912976027 -15.84556103 3.178210974 0.9369776249 
2.574816942 -15.49717236 3.128229856 0.9379372597 
4.751877308 -15.46323204 3.221277475 0.9361514449 
6.300822735 -15.4540472 3.323283672 0.9341976047 
7.105085373 -15.42562962 3.381857157 0.9330775738 
7.964689732 -15.4441843 3.46024704 0.9315806031 
9.786647797 -15.43338871 3.639028311 0.9281756282 
11.82411861 -15.42131329 3.869584322 0.9238028526 
15.46837616 -15.39972115 4.346391678 0.9148249626 
20.92046165 -15.89322758 5.231652737 0.8983868361 
25.53134918 -16.0310154 6.00312376 0.8843028545 
28.0106945 -15.89609814 6.413298607 0.876904726 
38.35277557 -17.45881271 8.391180038 0.8420905471 
45.52834702 -16.01225471 9.610326767 0.8213234544 
58.90250778 32.73786163 13.41905022 0.7596874833 
53.0252037 32.64015579 12.39891529 0.7757275701 
48.04942322 32.61064529 11.56351089 0.7891150713 
46.92787933 38.35998917 12.06939411 0.7809808254 
47.23927689 42.25607681 12.62091255 0.7722084522 
46.94643402 45.91323471 13.0759058 0.765045464 
42.64950943 49.86854553 13.06659889 0.7651914358 
9.38757515 12.02051449 3.037077665 0.9396899939 
8.345720291 12.90574551 3.060426474 0.9392408133 
15.282094 32.41631317 7.136350632 0.8640139699 
11.88199902 32.39614487 6.871204853 0.8687190413 
2.740982533 32.3419342 6.463284016 0.8760075569 
-1.617658615 8.767900467 1.775407076 0.9642894864 
-28.13835716 101.1037064 20.89782715 0.6517937779 
-29.71249771 90.89429474 19.04212189 0.6770435572 
-53.51051712 89.5872345 20.77939987 0.6533767581 
-43.81625748 -18.09219742 9.43959713 0.824200809 
-28.52146149 -14.86972618 6.404951096 0.8770548701 
-28.02851295 -16.23774338 6.450228214 0.8762418628 
-28.71160316 -18.38622093 6.789121628 0.8701810241 
-26.11462593 -18.41097069 6.362567425 0.8778164387 
-23.7742157 -18.39709854 5.986012936 0.8846130371 
-18.09698486 -18.34028244 5.130662918 0.9002471566 
-15.09971905 -18.30550194 4.725228786 0.907754004 
-12.53265381 -18.290308 4.415095806 0.9135385156 
-10.26492882 -18.27684975 4.174160004 0.9180578589 
-10.8334198 -21.47399902 4.789422989 0.9065613151 
-8.527644157 -21.46022987 4.59836483 0.9101158381 
-6.382521629 -21.4476223 4.455924988 0.9127749205 
-5.354997635 -21.44152832 4.400761127 0.9138068557 
-3.36484623 -21.42973518 4.319551468 0.9153280258 
1.077966332 -16.12537575 3.21818471 0.9362107515 
1.791579604 -16.03793335 3.213472128 0.9363011718 
3.907863617 -19.2539196 3.912175894 0.9229973555 
4.601906776 -15.46412086 3.212802649 0.9363139868 
5.359982967 -15.45962334 3.258224964 0.9354432821 
6.141349792 -15.45499516 3.311599016 0.9344211817 
7.791960239 -15.44521427 3.444800854 0.9318754077 
8.671643257 -15.43999958 3.526265144 0.9303218126 
11.60857105 -15.42259216 3.843822479 0.9242904186 
15.16095924 -15.36466789 4.298257828 0.9157273769 
19.01411247 -16.11556625 4.963242054 0.9033395052 
20.54122734 -15.89546871 5.172001362 0.8994852304 
22.82668686 -16.09296799 5.561493874 0.8923380375 
25.10911369 -16.07943726 5.937280178 0.8854962587 
27.7284584 -16.06391525 6.381173134 0.877481997 
37.83537292 -17.6315136 8.311992645 0.84345752 
48.99057388 32.61623001 11.7196722 0.7865952253 
46.95164871 34.36855316 11.58656025 0.7887427211 
46.93198013 37.67147064 11.98373795 0.7823522687 
46.90152359 45.05954361 12.95117664 0.7670025826 
10.16038322 12.77402687 3.250180483 0.9355974197 
8.7943964 12.12703133 2.982982397 0.9407317638 
8.411003113 12.75623131 3.042604923 0.9395836592 
8.071779251 13.51390743 3.134482384 0.9378172159 
26.03812027 48.35742188 10.93652058 0.7993142605 
12.21081066 32.39809418 6.894388676 0.8683066368 
10.58748245 32.3884697 6.785304546 0.8702487946 
5.970397949 32.3610878 6.552756786 0.8744035959 
-1.536998272 8.76740551 1.772466421 0.9643476009 
-28.40952873 89.59993744 18.71727562 0.6815634966 
-32.92744827 89.77636719 19.0415287 0.6770520806 
-41.70412064 88.46278381 19.47482109 0.6710700393 
-63.61859131 89.39122772 21.84818649 0.6392305493 
-23.45153046 9.198337555 5.016234398 0.9023596644 
-30.77153587 -14.00786114 6.732504845 0.8711904287 
-28.65367317 -16.26115227 6.560541153 0.8742642999 
-29.3522892 -18.43017578 6.901539326 0.8681794405 
-26.61865425 -18.41396523 6.445204735 0.8763321042 
-22.08974075 -18.38711357 5.723137856 0.8893886805 
-16.86613464 -18.35613823 4.963904858 0.9033272266 
-15.3769598 -18.3071537 4.760803699 0.9070928693 
-14.03053951 -18.29916382 4.591693401 0.9102402329 
-12.77437687 -18.29173851 4.442712784 0.9130219221 
-11.5946455 -18.28473091 4.311331749 0.9154821038 
-10.48074913 -18.2781353 4.195593357 0.9176549315 
-9.887682915 -21.4668541 4.706309319 0.9081058502 
-7.653264046 -21.45514679 4.536004543 0.9112790823 
-6.591174126 -21.44885254 4.468186378 0.912545681 
-5.558537483 -21.44273949 4.410991192 0.9136154056 
-4.549841404 -21.43675232 4.363755226 0.9144997597 
-3.560773849 -21.43089867 4.326003551 0.915207088 
-2.586574554 -21.42512131 4.297325134 0.9157447815 
-1.461769938 -19.28573227 3.851350069 0.9241479039 
0.9237963557 -15.95153809 3.181725502 0.9369101524 
1.656057119 -16.12368202 3.227571964 0.9360307455 
4.206237793 -17.5031395 3.584599018 0.9292109013 
4.429699421 -15.38481903 3.188013315 0.9367895126 
5.20659399 -15.46053219 3.248519182 0.9356292486 
7.620832443 -15.44622993 3.429768562 0.9321623445 
8.448293686 -15.36100578 3.490908146 0.9309957623 
10.31829834 -15.34992123 3.683000326 0.9273400903 
11.39597893 -15.42385674 3.818717003 0.9247658253 
16.2274971 -15.31490231 4.443185329 0.9130131006 
18.67700005 -16.11756706 4.912484646 0.9042791128 
20.27221298 -15.97767544 5.139863968 0.900077641 
24.46261406 -15.9740963 5.817789555 0.8876661062 
36.983181 -17.63656616 8.158926964 0.8461059928 
44.52946091 -16.55725479 9.460199356 0.8238529563 
39.93575287 14.84916496 8.484265327 0.8404865265 
49.95703125 32.62195587 11.88096142 0.7840008736 
46.95542908 33.73327255 11.51289749 0.7899335623 
46.91522217 40.4867897 12.33987522 0.7766661644 
47.74991226 45.06458282 13.07420635 0.7650721073 
46.93024445 48.41572189 13.42682362 0.7595666647 
44.1124115 49.75818253 13.24134254 0.762457788 
8.939763069 12.09950256 2.995656013 0.9404875636 
8.141208649 13.35845757 3.115117788 0.9381892085 
9.462453842 32.86410904 6.810036659 0.8698080182 
4.785451412 32.35406113 6.512700081 0.8751213551 
-36.10055923 88.54493713 19.04094505 0.6770601273 
-40.74884033 88.46844482 19.39548302 0.6721612811 
-23.38836288 9.414505005 5.020441055 0.9022818804 
-24.44925499 -12.19826412 5.440908909 0.8945458531 
-28.0809269 -15.60745049 6.397356033 0.8771913052 
-27.07627106 -18.37651253 6.516152382 0.8750594258 
-24.67634392 -18.40245056 6.129699707 0.8820133209 
-22.4967289 -18.38952637 5.785965919 0.8882449865 
-20.54525185 -18.37794876 5.489070892 0.8936627507 
-18.78066635 -18.36749077 5.230966091 0.8983995318 
-17.17180443 -18.3579483 5.005554199 0.9025570154 
-14.29231644 -18.30071831 4.623838902 0.9096410871 
-11.82515812 -18.28610802 4.336315632 0.9150137305 
-11.31893253 -21.47687912 4.834247112 0.9057293534 
-10.12101746 -21.46866608 4.726264 0.9077348113 
-6.800993443 -21.45010185 4.48087883 0.9123085737 
-5.762937069 -21.44395065 4.42161417 0.9134166241 
-3.757214308 -21.43206978 4.332816124 0.9150794148 
-2.780334473 -21.42626953 4.302350521 0.9156506062 
-1.634553194 -19.28675652 3.854306459 0.9240919948 
0.7550268173 -15.41200638 3.072648764 0.9390056729 
1.477834463 -15.7689991 3.153815746 0.9374459386 
2.191701651 -15.78702068 3.173792124 0.9370623827 
4.210544109 -18.23357391 3.726373911 0.9265165925 
5.054196835 -15.46143532 3.239133835 0.935809195 
6.623171329 -15.45213795 3.347694635 0.9337306619 
8.314821243 -15.44211864 3.492390156 0.9309675097 
9.220456123 -15.43674755 3.580491304 0.9292891026 
11.13277531 -15.35154247 3.776138783 0.9255726337 
12.26395226 -15.41871071 3.92308712 0.9227911234 
13.42016315 -15.41186047 4.069366455 0.9200304151 
14.66827869 -15.40446281 4.235658646 0.9169021249 
18.15433884 -15.9508009 4.812186718 0.9061387181 
26.44270134 -15.95440388 6.149680138 0.8816524744 
35.73355103 -17.43293953 7.917176723 0.8503057957 
46.91950989 39.76700211 12.24736309 0.7781392336 
44.11761475 48.88093185 13.11182117 0.764482975 
8.20994854 13.20541573 3.096340895 0.938550055 
25.10572052 49.76451874 11.09916019 0.7966560721 
14.58065605 32.41215134 7.077165604 0.865062058 
12.87559509 32.40203857 6.942908287 0.867444098 
9.696107864 32.58250046 6.769294262 0.8705342412 
2.186966419 32.7171669 6.529452801 0.8748211265 
-2.856481791 25.57068825 5.123521805 0.9003788829 
-28.20903015 112.9513779 23.18262863 0.6219936013 
-27.52557373 92.4960556 19.21685028 0.6746251583 
-39.80130386 88.47406006 19.31831932 0.6732243299 
-30.56501198 -14.91140556 6.772031784 0.8704853654 
-27.22172356 -16.42442322 6.33085537 0.8783869147 
-27.66767311 -18.42019081 6.618742943 0.8732226491 
-22.91316605 -18.39199638 5.850708008 0.8870677948 
-13.26685715 -18.29465866 4.500049114 0.9119502902 
-11.56502151 -21.4783287 4.857542992 0.905297339 
-9.19955349 -21.46298218 4.649939537 0.909154892 
-2.007595062 -21.4216938 4.284359455 0.9159880877 
-0.9446654916 -19.28267097 3.844330311 0.9242808223 
-0.08576415479 -19.27757835 3.838750601 0.9243865013 
1.313508272 -15.49857426 3.097267389 0.9385322332 
2.061525822 -15.88580513 3.189839363 0.9367544651 
2.680685997 -15.29128361 3.09136343 0.9386457801 
4.195090294 -15.60996532 3.218677998 0.9362012744 
4.902653694 -15.46233368 3.230053663 0.935983181 
8.138981819 -15.4431591 3.476110697 0.9312779903 
9.936183929 -15.36508751 3.643633842 0.928088069 
10.97872257 -15.42632771 3.770335674 0.9256827235 
13.18189621 -15.41327095 4.038580894 0.9206107259 
17.78823471 -15.91178703 4.752485752 0.9072474837 
19.49695587 -15.93715286 5.014413357 0.9023932219 
21.58930779 -16.10030174 5.362865925 0.895975709 
45.55250931 -15.56653786 9.585802078 0.8217361569 
57.67188263 32.72914505 13.20453835 0.7630325556 
51.97345734 32.63391876 12.22039509 0.7785691619 
46.94394302 35.66288376 11.73940849 0.7862771749 
46.92372894 39.05852509 12.1572752 0.7795764208 
46.94113159 46.73273849 13.18977261 0.7632632852 
44.53277206 48.46692276 13.10654068 0.7645658255 
8.502065659 12.17419052 2.956880093 0.9412348866 
8.278102875 13.05456543 3.07812047 0.9389004707 
27.73356628 48.36660004 11.10214806 0.7966072559 
25.66539192 49.76783752 11.15038586 0.7958205938 
14.93009472 32.41422272 7.10637188 0.8645447493 
13.21141052 32.40402985 6.968245029 0.8669940233 
8.425883293 32.50384521 6.686369896 0.8720139861 
5.37627697 32.35756683 6.531640053 0.8747819066 
3.905354023 32.34883881 6.488342762 0.8755580783 
2.461872578 32.4804039 6.486319542 0.8755943179 
-1.710736036 8.831077576 1.791211247 0.9639773965 
-28.83229256 100.1376343 20.75041962 0.6537652612 
-30.51973343 90.62558746 19.04197311 0.6770457625 
-38.85994339 88.47964478 19.24320602 0.6742610335 
-44.19503784 89.57636261 19.89005089 0.6653868556 
-19.51168823 9.304743767 4.304512024 0.915610075 
-33.11975098 -14.02178669 6.820548534 0.8637890816 
-30.56692505 -14.57688427 6.422140121 0.8712090254 
-28.60451317 -15.23832035 6.146304607 0.8763834238 
-28.21360207 -18.42342758 6.390158653 0.8718073368 
-25.62316132 -18.40806198 5.983168602 0.8794581294 
-21.30138397 -18.38243675 5.335826874 0.8917656541 
-14.8266964 -18.30388641 4.46708107 0.9085535407 
-13.51813698 -18.29613304 4.314008713 0.9115441442 
-12.29397678 -18.28889084 4.179094315 0.9141883254 
-13.09527111 -21.48739624 4.771996498 0.90262568 
-9.426925659 -21.46391487 4.445712566 0.9089705348 
-6.174909592 -21.44639206 4.23233366 0.913144052 
-3.058969736 -12.72901058 2.48264122 0.9480965734 
-4.797839165 -24.76771355 4.784282207 0.902387619 
-3.662389994 -24.76098061 4.746776581 0.9031144977 
0.4947778285 -15.87899399 3.0127635 0.9373679161 
1.921774864 -15.91824627 3.040663481 0.9368066192 
2.58588624 -15.56373978 2.991977215 0.9377863407 
4.19857645 -16.19664955 3.173065186 0.9341475964 
6.300793171 -15.4540472 3.164938927 0.9343105555 
8.852706909 -15.43892574 3.375020027 0.9301062226 
9.78663826 -15.43339348 3.465640068 0.9282984138 
11.76280499 -15.341362 3.66610527 0.9243119359 
12.9474287 -15.41466808 3.817610502 0.9213104248 
19.10659409 -15.90397453 4.714375496 0.9037427306 
25.60365868 -16.07650375 5.733298302 0.884188354 
30.9378624 -15.7809515 6.58626318 0.8681446314 
38.26282883 -17.41794395 7.972639561 0.8426864147 
45.63082886 -16.04836464 9.173037529 0.8212471604 
53.02523422 32.64015579 11.80815601 0.7760773301 
48.14230347 32.67367172 11.03384018 0.7890862823 
11.61703873 8.663452148 2.748214245 0.9427065849 
46.92798615 38.36014557 11.49437714 0.7813230753 
46.88337708 45.85169983 12.43618107 0.765683949 
8.890709877 11.38424301 2.73927784 0.9428877234 
8.189626694 12.6642952 2.860083342 0.9404455423 
7.762541294 13.26274967 2.914287567 0.9393517375 
25.91603661 49.17419815 10.54125977 0.7974751592 
15.28215027 32.41630936 6.796341419 0.864238143 
10.26870346 32.38657379 6.443143845 0.8708162308 
8.860151291 32.96865463 6.474038601 0.870238781 
2.745937347 32.40084076 6.1665411 0.8760026693 
-2.39519763 25.55695915 4.867874146 0.9007695913 
-1.617637873 8.767897606 1.690815449 0.9643517733 
-31.19835091 95.44019318 19.04182243 0.6644481421 
-35.41154099 93.95407867 19.04104614 0.6644592285 
-47.61404037 88.42773438 19.04597092 0.6643889546 
-27.84274101 -16.13014603 6.102189064 0.8772137761 
-23.77418709 -18.39710426 5.700794697 0.8848056793 
-21.69139099 -18.38475037 5.392315388 0.8906847239 
-19.81891251 -18.37364197 5.12514782 0.8958082795 
-16.52940559 -18.31398392 4.678488255 0.9044393897 
-15.09977722 -18.30550766 4.500081062 0.9079098701 
-12.53267765 -18.29030228 4.204734325 0.9136852026 
-6.382497311 -21.44761658 4.243617058 0.9129228592 
-2.765388012 -24.75566864 4.723882198 0.9035584927 
-1.289167404 -19.28470612 3.665325165 0.9243274331 
3.907839298 -19.25392532 3.725773811 0.9231286645 
4.202282429 -16.82602501 3.28890729 0.9318273067 
4.601906776 -15.46412086 3.0597229 0.9364233613 
6.141349792 -15.45499516 3.153816462 0.9345337152 
8.671662331 -15.44000435 3.358253002 0.9304410815 
11.55548573 -15.35204029 3.643934965 0.924751997 
12.71632099 -15.41602993 3.789772272 0.9218612313 
13.83534908 -15.32908154 3.915962458 0.9193671346 
16.51772118 -15.31318283 4.27146101 0.9123773575 
22.82663727 -16.09296799 5.296504498 0.8925186992 
25.1093235 -16.07943344 5.654430389 0.8856868148 
27.39235115 -15.86920834 6.003468513 0.8790747523 
60.16843796 32.74390411 12.99059772 0.7566245794 
46.88817215 45.04704666 12.33062744 0.7674210668 
46.09885788 48.41243362 12.67738724 0.7617291808 
42.13536835 48.3889389 12.16789246 0.7701069117 
15.67554855 32.49777222 6.842394352 0.8633840084 
13.89084244 32.40805817 6.686647892 0.8662757277 
9.18017292 32.98535156 6.493103981 0.8698826432 
5.981724739 32.42207336 6.252308369 0.8743911386 
4.500089169 32.41498566 6.206152439 0.8752580285 
1.940523624 39.6127739 7.521202087 0.850893259 
-1.536994576 8.767403603 1.688014746 0.9644097686 
-34.57436371 94.26628876 19.04120064 0.6644569039 
-38.73179245 92.63124084 19.04043388 0.6644679308 
-42.81229401 90.81304169 19.0396843 0.6644786596 
-51.741436 88.40325928 19.42526817 0.659000814 
-63.61887741 89.39121246 20.80719376 0.6397382617 
-45.15844727 -18.17770004 9.23165226 0.8202145696 
-30.7717247 -14.00786591 6.411762714 0.8714030981 
-29.03364944 -14.80965328 6.180887222 0.8757329583 
-28.2105732 -16.00960922 6.151332855 0.8762888312 
-27.54858589 -17.29771042 6.168819427 0.8759598136 
-26.61870956 -18.41396523 6.138116837 0.876537323 
-20.17849541 -18.37577629 5.175630569 0.8948378563 
-18.40689659 -18.32511711 4.925634861 0.8996533155 
-16.82919121 -18.31576157 4.717017651 0.9036916494 
-12.77438164 -18.29173279 4.231036663 0.9131694436 
-13.33539772 -21.02975464 4.722330093 0.9035885334 
-11.07501221 -21.47542953 4.582285881 0.9063093662 
-8.749938965 -21.46113777 4.395172119 0.9099573493 
-7.653214931 -21.4551506 4.319876671 0.9114294648 
-6.591222763 -21.44886208 4.255299568 0.9126938581 
-5.558493614 -21.44273376 4.200820446 0.913762033 
-5.257433891 -24.77043915 4.80212307 0.9020420313 
-1.461706519 -19.28573227 3.667850256 0.9242773652 
0.2237377912 -16.75860786 3.178395271 0.9340406656 
2.310944796 -15.62406731 2.995193005 0.9377216101 
4.20626688 -17.5031929 3.413817644 0.9293318391 
4.429646015 -15.38481903 3.036114454 0.9368981719 
5.983019829 -15.45592785 3.143016815 0.9347504377 
6.786149979 -15.45117188 3.200323343 0.9336010814 
8.448342323 -15.36100578 3.324584961 0.9311138391 
11.39595413 -15.42385674 3.636764526 0.9248943329 
13.66189671 -15.41042423 3.905528545 0.9195730686 
16.31206703 -15.39472103 4.253538132 0.9127284288 
17.7363739 -15.30596638 4.442821026 0.9090269804 
20.43536377 -16.10622597 4.934350491 0.8994849324 
22.11279488 -15.8861618 5.163473606 0.8950713873 
29.83296013 -15.89276314 6.410261631 0.8714311123 
45.9407692 -14.79160118 9.152676582 0.8216062784 
46.93037033 48.41544724 12.78706264 0.759937942 
9.270695686 11.44489193 2.793140888 0.9417980909 
8.354914665 11.3079586 2.666287422 0.9443663955 
8.804924011 13.09848213 2.993062019 0.9377645254 
26.59755516 48.36044312 10.46665287 0.7987534404 
7.812675476 15.83511543 3.34859252 0.9306342006 
12.54208469 32.40005875 6.588665485 0.8680999875 
10.90805912 32.3903656 6.481497765 0.8700994253 
1.973544836 34.07788086 6.473380566 0.8702511191 
-28.99612045 111.8568802 21.91375351 0.6247184277 
-33.7342186 94.5710144 19.04135513 0.6644548178 
-37.90625763 92.9730072 19.04058838 0.6644657254 
-50.69412994 88.4094696 19.32672119 0.6603964567 
-63.25658035 90.57769012 20.95132828 0.6377594471 
-32.00365067 -14.22621059 6.64180851 0.8671100736 
-29.06308365 -16.15318298 6.305623531 0.873390913 
-27.34166145 -16.83041 6.088698387 0.8774677515 
-24.67633438 -18.40245056 5.837640762 0.8822100163 
-18.78074455 -18.36749458 4.981743813 0.8985702395 
-15.6583519 -18.30882263 4.568710327 0.9065734148 
-13.019104 -18.29319382 4.258004665 0.9126409292 
-13.33778572 -20.62530708 4.657983303 0.9048376679 
-12.57453823 -21.48431015 4.720853806 0.9036172628 
-10.12107182 -21.4686718 4.501080036 0.9078907371 
-8.97387886 -21.46205521 4.411541462 0.90963763 
-6.801095963 -21.45010185 4.26738596 0.9124571085 
-5.762937069 -21.44394493 4.210939407 0.9135635495 
-3.212819815 -24.75831985 4.734550476 0.9033515453 
4.21058321 -18.23391151 3.548884869 0.9266409278 
4.281984806 -15.3856926 3.028646469 0.9370484352 
7.451100826 -15.44723129 3.252411366 0.9325577021 
9.220368385 -15.43674755 3.409885168 0.9294102788 
11.13280487 -15.35172367 3.59625411 0.9256991744 
13.42011452 -15.41186523 3.8754704 0.9201667309 
20.06925964 -16.10930634 4.880378246 0.9005277753 
26.44276619 -15.95436001 5.856672764 0.8818495274 
29.35390854 -15.97448254 6.337614536 0.8727912307 
32.32407379 -15.76939869 6.820522308 0.8637894988 
45.4855957 -15.09309006 9.08839798 0.822740972 
47.12583923 33.22415543 10.93469429 0.7907676101 
47.00266647 36.37203217 11.27073956 0.7850832939 
46.8975296 43.47761154 12.12763119 0.7707728148 
11.94198418 12.10247898 3.2243433 0.9331198335 
39.90398407 48.37570572 11.89234829 0.7746759057 
8.529253006 11.33150959 2.68963027 0.9438931942 
8.910458565 13.00397778 2.989471436 0.9378368258 
27.16261864 48.36351013 10.51922131 0.7978525162 
25.10571289 49.76451492 10.5703249 0.7969776988 
14.58083439 32.41215134 6.739975929 0.8652844429 
11.23064899 32.39228058 6.5016222 0.8697235584 
6.573276043 32.38809204 6.267323971 0.874109447 
3.620512724 32.41078186 6.184627533 0.8756625056 
2.195663929 32.84630585 6.242890358 0.8745679259 
-28.64017677 96.24143982 19.04229355 0.6644413471 
-41.18988037 91.56214905 19.03998184 0.6644741893 
-45.22032166 89.63568115 19.03924179 0.6644849777 
-49.65727615 88.41560364 19.23069763 0.6617594361 
-47.40045929 -18.10663605 9.622562408 0.8133598566 
-32.79767227 -14.2309227 6.780032635 0.8645406961 
-30.56495094 -14.91128826 6.449357033 0.8707001805 
-27.75091171 -16.74362755 6.14641571 0.8763813376 
-25.1438942 -18.40522385 5.90927124 0.8808544278 
-22.91306496 -18.39199638 5.57193327 0.8872568607 
-19.12034798 -18.36950684 5.028252602 0.8976734877 
-17.44398689 -18.31940842 4.7971735 0.9021379352 
-15.94411373 -18.31051254 4.604359627 0.9058799148 
-14.55753613 -18.30228996 4.434895992 0.9091815948 
-13.26698494 -18.29465294 4.285657406 0.9120992422 
-13.34010983 -20.23175812 4.595729828 0.9060477018 
-11.56503677 -21.4783287 4.62609911 0.9054572582 
-10.35646725 -21.47049332 4.520606995 0.907510221 
-2.928627968 -12.68244076 2.468401194 0.9483869076 
-4.569279671 -24.76635742 4.775975227 0.9025485516 
-3.437316895 -24.75964737 4.740466595 0.9032368064 
-2.319860697 -24.75304222 4.714751244 0.9037355781 
2.05279541 -15.81907177 3.025091887 0.9371199012 
2.673273802 -15.24898911 2.935930014 0.9389154315 
5.669484615 -15.45779228 3.12237668 0.93516469 
6.461403847 -15.45309544 3.176398277 0.9340807796 
9.979587555 -15.43224621 3.485192299 0.9279088974 
11.9800806 -15.34008312 3.691128492 0.9238154888 
15.74459171 -15.39808083 4.176373959 0.9142417312 
19.49699974 -15.93732357 4.775520325 0.9025573134 
21.58931351 -16.10029793 5.107349873 0.8961504698 
23.70418167 -16.08776283 5.432813644 0.8899107575 
31.61541176 -15.77360344 6.700352669 0.8660207987 
39.64043427 -17.62081528 8.226681709 0.838103056 
45.399189 -15.5142622 9.098361969 0.8225649595 
40.73888779 14.32791233 8.189629555 0.8387699127 
57.56275177 32.66706467 12.55157471 0.7637894154 
47.44348526 32.81982422 10.94017792 0.790674448 
46.96076965 42.76548767 12.04510021 0.7721398473 
44.47421646 48.40280533 12.46558571 0.7652007937 
8.104716301 12.78102112 2.870040894 0.9402444959 
7.676208496 13.38716412 2.926495314 0.9391055703 
14.93000984 32.4142189 6.767769814 0.8647683263 
11.55526352 32.394207 6.522392273 0.8693358898 
9.958068848 32.40506744 6.42893362 0.8710818887 
-1.710685968 8.831046104 1.705860853 0.964040339 
-40.37374115 91.92575073 19.04013443 0.6644722223 
-28.60450935 -15.23829556 6.146302223 0.8763834834 
-27.70716286 -16.38269424 6.104186058 0.877176106 
-28.21353531 -18.42342186 6.390146732 0.8718075156 
-23.29884529 -18.36311913 5.625777245 0.8862317204 
-19.46629143 -18.37155151 5.076036453 0.8967531919 
-17.75930786 -18.3212738 4.838855267 0.9013309479 
-14.82672119 -18.30388641 4.467088699 0.9085534811 
-13.51811218 -18.29613304 4.31400919 0.9115442038 
-12.29395771 -18.28888702 4.17909193 0.914188385 
-13.09525585 -21.48740196 4.771995068 0.90262568 
-11.81359577 -21.47980499 4.648880959 0.9050145745 
-9.426931381 -21.46391487 4.445712566 0.9089704752 
-8.306814194 -21.45902252 4.363770008 0.9105710983 
-7.224582195 -21.45261192 4.29279232 0.9119595885 
-6.174885273 -21.44638634 4.232329845 0.9131441116 
-4.797819614 -24.76771355 4.784280777 0.902387619 
-0.2574536204 -19.27859306 3.656331062 0.924505949 
0.4947631657 -15.87895012 3.012753725 0.9373680949 
1.921784639 -15.91823196 3.040661812 0.9368066788 
5.514250278 -15.45871067 3.112527132 0.9353624582 
7.105124474 -15.42578125 3.220742702 0.9331917763 
7.964689732 -15.44418907 3.295377731 0.9316978455 
8.852722168 -15.43892574 3.375021935 0.930106163 
12.94742393 -15.41466236 3.817610502 0.9213104248 
16.90117455 -15.39123058 4.335017204 0.9111332297 
19.10663795 -15.90397453 4.714381695 0.9037426114 
23.12008476 -15.99371052 5.331354141 0.8918511868 
25.60367775 -16.07650375 5.733301163 0.8841882944 
30.93783379 -15.7809515 6.586260796 0.868144691 
45.63085938 -16.04832077 9.173045158 0.8212471008 
48.14230347 32.67367172 11.03384018 0.7890862823 
11.61704826 8.663451195 2.748261452 0.9427065253 
47.23934555 42.25610352 12.01958752 0.7725628018 
46.88337708 45.85175705 12.43619156 0.7656838298 
45.27963638 48.40758514 12.5700922 0.7634859085 
9.021418571 12.67603874 2.950530529 0.9386211634 
8.189623833 12.66429329 2.860082626 0.9404455423 
25.91603661 49.17414093 10.54125023 0.7974752784 
15.28210926 32.41630936 6.796335697 0.8642382026 
11.88199425 32.39614487 6.543815136 0.8689361215 
8.860136986 32.96865463 6.474034786 0.870238781 
-2.395157337 25.55698013 4.867881775 0.9007695317 
-1.617656231 8.767905235 1.690816879 0.9643517733 
-27.5644455 99.04148102 19.49615097 0.6579988599 
-31.19847298 95.44016266 19.04182243 0.6644481421 
-35.41162872 93.95406342 19.04104614 0.6644591689 
-39.55437088 92.28208923 19.0402832 0.6644701958 
-43.61856461 90.42771912 19.03953743 0.6644806862 
-43.81618118 -18.09216309 8.989817619 0.8244840503 
-30.56888771 -14.2453022 6.395660877 0.8717043996 
-28.52218437 -14.87010193 6.099935055 0.8772562742 
-28.71159363 -18.38622475 6.465632915 0.8703958988 
-26.11462593 -18.41097641 6.059418201 0.8780195713 
-21.69145775 -18.38475037 5.392326355 0.890684545 
-18.08012009 -18.32317924 4.881651878 0.9005032182 
-13.77261925 -18.29763603 4.343093872 0.9109752178 
-13.33294678 -21.44556618 4.78886652 0.9022987485 
-12.06463623 -21.48129272 4.672255039 0.9045605659 
-10.8334198 -21.47399902 4.561224937 0.9067192078 
-9.656198502 -21.46505737 4.463574886 0.908622086 
-8.527639389 -21.46022987 4.379271984 0.9102680087 
-7.438224792 -21.4538765 4.306119442 0.9116986394 
-6.382516861 -21.4476223 4.243618011 0.9129227996 
-5.027253151 -24.7690773 4.792997837 0.9022187591 
-2.765427113 -24.75566864 4.723883152 0.9035584331 
-1.289191842 -19.28470612 3.66532588 0.9243274331 
0.3579955995 -16.08616638 3.05134511 0.9365918636 
1.069377422 -15.99694347 3.040439606 0.9368111491 
1.800143957 -16.11462784 3.07499814 0.9361163974 
5.359977722 -15.45962811 3.102982044 0.9355541468 
6.950383186 -15.45020008 3.212807655 0.9333509207 
7.791955471 -15.44521427 3.280667543 0.9319921136 
8.671632767 -15.43999958 3.358250618 0.9304411411 
10.57187748 -15.42873955 3.546889067 0.9266806245 
12.7162714 -15.41602516 3.789766788 0.9218614101 
15.16099834 -15.36470699 4.093470573 0.9158703089 
16.5177803 -15.31317806 4.271458626 0.9123772383 
19.01411819 -16.11556625 4.726762772 0.9035025239 
20.5414238 -15.89546871 4.925609589 0.899653852 
22.82669067 -16.09296799 5.296513081 0.8925185204 
44.89384842 -16.23957443 9.05358696 0.8233559728 
54.56614304 32.92254639 12.08554459 0.7714692354 
47.01329803 34.41370392 11.04899406 0.7888296843 
46.88817215 45.04714203 12.33063984 0.7674208283 
46.09877777 48.41243362 12.67737484 0.7617293596 
42.13523483 48.3889389 12.16786861 0.7701071501 
9.078253746 11.41353703 2.765656948 0.9423539042 
8.274333 12.54895401 2.85055232 0.9406380057 
7.848522663 13.14000607 2.902551413 0.9395884871 
26.03809357 48.35741425 10.41542912 0.7996322513 
13.89089775 32.40805435 6.686653137 0.8662756681 
12.21097183 32.39809418 6.565906048 0.8685241342 
10.58748245 32.38846588 6.462009907 0.8704635501 
9.180205345 32.98533249 6.493103504 0.8698827028 
7.474946022 32.37001038 6.300214767 0.8734923005 
5.98165369 32.42207336 6.252305984 0.8743911982 
3.036944628 32.4050827 6.17224741 0.8758953214 
1.940517545 39.61381149 7.521398067 0.8508896828 
-1.536994576 8.767403603 1.688014746 0.9644097686 
-34.57423019 94.26634216 19.04120064 0.6644568443 
-38.73175049 92.63134766 19.04043388 0.6644676924 
-42.81227493 90.81313324 19.0396843 0.6644784808 
-51.74145508 88.40325928 19.4252491 0.6590007544 
-63.61920929 89.39121246 20.80696678 0.6397379041 
-45.15844727 -18.17764091 9.23164463 0.8202146292 
-28.21068573 -16.00975609 6.151370525 0.8762881756 
-27.54846382 -17.29773331 6.168801308 0.8759601712 
-26.61864662 -18.41396523 6.138111591 0.8765375614 
-24.16654968 -18.35926628 5.755491257 0.8837675452 
-22.08974266 -18.38711929 5.450454712 0.8895737529 
-16.82919121 -18.31576157 4.717017651 0.9036916494 
-15.3769598 -18.3071537 4.533968449 0.9072499275 
-14.03067589 -18.29916954 4.372927666 0.9103919268 
-12.77438164 -18.29173279 4.231036663 0.9131694436 
-9.88769722 -21.46685982 4.482070923 0.9082612395 
-7.653166294 -21.4551506 4.319873333 0.9114295244 
-6.591174126 -21.44885635 4.255299568 0.9126939774 
-5.5584445 -21.44273376 4.200817585 0.9137620926 
-0.6007934213 -19.28063393 3.658166409 0.9244695306 
0.2237377912 -16.75860786 3.178395271 0.9340406656 
0.8987817168 -15.51954079 2.948065996 0.938670814 
2.310944796 -15.62406731 2.995193005 0.9377216101 
3.015954494 -15.56919384 3.007436514 0.9374750853 
5.982980728 -15.45592785 3.143015146 0.9347504377 
6.786188602 -15.45117188 3.200327158 0.9336010218 
7.620832443 -15.44622517 3.266351938 0.9322786331 
8.448381424 -15.36100578 3.324588537 0.9311137795 
9.407126427 -15.43563938 3.428004742 0.9290488958 
10.37217522 -15.42992115 3.525808096 0.927100122 
12.47581291 -15.40165997 3.758795738 0.9224745035 
13.66189671 -15.41042423 3.905528545 0.9195730686 
16.31206703 -15.39472103 4.253538132 0.9127284288 
17.7363739 -15.30596638 4.442821026 0.9090269804 
20.43535805 -16.10625458 4.934356689 0.8994848728 
22.11276054 -15.8861618 5.163466454 0.8950715065 
36.98275375 -17.63656616 7.77011013 0.8463584185 
45.94078064 -14.79149342 9.152676582 0.821606338 
40.19451141 14.94559288 8.132393837 0.8398011923 
46.93613052 36.99302292 11.33327579 0.784029901 
46.91533279 40.48649979 11.75191593 0.7770151496 
46.93037033 48.41544724 12.78706264 0.759937942 
42.90254974 48.39348984 12.26456738 0.7685101628 
8.35492897 11.3079586 2.666287899 0.9443663955 
8.804944038 13.09846687 2.993061543 0.9377645254 
26.59745216 48.3604393 10.46664238 0.7987536192 
7.812736511 15.83535004 3.348634005 0.9306333065 
14.23441601 32.41009521 6.712936401 0.8657869101 
12.54204845 32.40005875 6.588662148 0.8680999875 
9.462385178 32.86440277 6.485615253 0.8700225353 
6.280855656 32.42350388 6.263117313 0.8741883039 
4.794682503 32.41639709 6.214344501 0.8751040697 
3.328608274 32.40932465 6.178452492 0.8757786155 
1.973544836 34.07788086 6.473380566 0.8702511191 
-28.99638367 111.8568802 21.91376114 0.6247182488 
-33.73442459 94.57093811 19.04135513 0.6644548178 
-37.90636063 92.97296906 19.04058838 0.6644657254 
-46.01605225 89.22894287 19.03909683 0.6644870043 
-63.25658035 90.57769012 20.95132828 0.6377594471 
-32.00365067 -14.22621059 6.64180851 0.8671100736 
-24.44922066 -12.19824886 5.181655884 0.8947229981 
-29.06308365 -16.15318298 6.305623531 0.873390913 
-27.34166145 -16.83041 6.088698387 0.8774677515 
-27.13620567 -18.41703987 6.219404221 0.8750090599 
-22.49691772 -18.38952637 5.510311604 0.8884313703 
-20.54525375 -18.37794876 5.22754097 0.8938411474 
-18.78083229 -18.36749458 4.98175478 0.8985700011 
-15.65842533 -18.30882263 4.568719864 0.906573236 
-14.2921896 -18.30072784 4.403511047 0.9097943306 
-11.31881046 -21.47687912 4.603903294 0.9058888555 
-10.12102318 -21.4686718 4.501077175 0.9078907967 
-8.97387886 -21.46205521 4.411541462 0.90963763 
-7.86961174 -21.45643425 4.334067345 0.911151886 
-5.762937069 -21.44394493 4.210939407 0.9135635495 
-2.823117495 -12.74167919 2.474942684 0.9482537508 
-4.34151125 -24.76500893 4.768073559 0.9027016163 
-0.7726586461 -19.28165054 3.659519672 0.9244426489 
0.07452392578 -16.75194359 3.176882982 0.934071064 
0.7482690215 -15.27513599 2.900261164 0.9396346807 
2.182531595 -15.72099113 3.009931326 0.9374248981 
4.210573673 -18.23372078 3.548851967 0.926641643 
4.282023907 -15.38569832 3.028648376 0.9370483756 
7.451100826 -15.44723129 3.252411366 0.9325577021 
9.220368385 -15.43674755 3.409885168 0.9294102788 
10.17471886 -15.43109322 3.505242825 0.9275096059 
17.42785454 -15.31234837 4.399492264 0.9098729491 
21.77707291 -15.9406538 5.117996693 0.8959456682 
26.44275665 -15.95427227 5.856663227 0.8818497062 
29.35390854 -15.97448254 6.337614536 0.8727912307 
45.4855957 -15.09309006 9.08839798 0.822740972 
40.09907913 14.50514603 8.086641312 0.8406265378 
47.00266647 36.37187576 11.27072525 0.7850835919 
46.9196167 39.76705551 11.66385269 0.778485477 
11.94189167 12.10243511 3.224326134 0.9331201911 
8.910431862 13.00400257 2.989472628 0.9378367662 
8.01956749 12.89920521 2.880434275 0.9400346875 
25.10571289 49.76451492 10.5703249 0.7969776988 
14.58083439 32.41215134 6.739975929 0.8652844429 
11.23064899 32.39228058 6.5016222 0.8697235584 
8.085297585 32.37363052 6.327929497 0.8729727864 
5.090179443 32.41781235 6.223057747 0.874940455 
2.195602894 32.84644699 6.242921829 0.8745673895 
-32.89156723 94.86823273 19.04151154 0.6644526124 
-35.551754 89.46759796 18.25716209 0.6757357717 
-45.22032166 89.63568115 19.03924179 0.6644849777 
-47.40045929 -18.10663605 9.622562408 0.8133598566 
-32.79767227 -14.2309227 6.780032635 0.8645406961 
-29.29683304 -15.94343185 6.325295448 0.8730221391 
-22.91298294 -18.39199638 5.571918964 0.8872570992 
-19.12026405 -18.36950111 5.028241634 0.8976737261 
-17.44391251 -18.31940842 4.797160625 0.902138114 
-15.94411373 -18.31051254 4.604359627 0.9058799148 
-13.34010983 -20.23175812 4.595729828 0.9060477018 
-12.833498 -21.48584366 4.746098995 0.9031276703 
-11.56503677 -21.4783287 4.62609911 0.9054572582 
-10.35646725 -21.47049332 4.520606995 0.907510221 
-8.087497711 -21.45772362 4.348694801 0.9108657837 
-2.928605795 -12.68244839 2.468401194 0.9483869076 
-4.569225788 -24.76635742 4.77597332 0.9025486112 
-3.437253237 -24.75965309 4.740465641 0.9032368064 
-2.319812059 -24.7530365 4.714750767 0.9037355781 
-0.08571533114 -19.27757835 3.655849457 0.9245155454 
0.6026195884 -15.03871059 2.854240417 0.9405634999 
2.673273802 -15.24898911 2.935930014 0.9389154315 
4.215236664 -19.02480507 3.695372343 0.9237313867 
9.979636192 -15.43224621 3.48519516 0.9279088378 
10.9788208 -15.42632771 3.590702534 0.9258093834 
13.18201828 -15.41327095 3.846173048 0.9207456708 
15.74459171 -15.39808083 4.176373959 0.9142417312 
17.20427895 -15.38943291 4.377457619 0.9103033543 
25.80483627 -15.88440418 5.746462822 0.8839384913 
31.61541176 -15.77360344 6.700352669 0.8660207987 
39.64023972 -17.62081528 8.22664547 0.8381037116 
46.96076965 42.76548767 12.04510021 0.7721398473 
46.87851334 46.67035675 12.5445776 0.7639043331 
44.47421646 48.40280533 12.46558571 0.7652007937 
8.707780838 11.3569212 2.713948965 0.9434005618 
8.104716301 12.78102112 2.870040894 0.9402444959 
25.66565323 49.76783752 10.619133 0.7961429954 
13.21157169 32.40402603 6.636248589 0.8672135472 
11.55518532 32.39420319 6.522389889 0.8693359494 
9.957998276 32.40511703 6.428938389 0.8710817695 
8.425693512 32.50366974 6.36774683 0.8722268343 
5.386372089 32.41922379 6.232278824 0.8747671843 
3.912993193 32.41218185 6.191297054 0.8755372167 
-27.78256035 96.49330139 19.04245377 0.664439261 
-36.24624634 93.63439941 19.04089355 0.6644613147 
-44.19505692 89.57635498 18.94235802 0.6658683419 
-48.6309967 88.42170715 19.13714218 0.6630896926 
-28.60452271 -15.23836899 6.146310806 0.8763833046 
-27.70716286 -16.38269424 6.104186058 0.877176106 
-25.6231041 -18.40805626 5.983159542 0.8794583082 
-21.30136871 -18.38243675 5.33582592 0.8917656541 
-19.46629143 -18.37155151 5.076036453 0.8967531919 
-17.75930786 -18.3212738 4.838855267 0.9013309479 
-14.82672119 -18.30388641 4.467088699 0.9085534811 
-13.51817131 -18.29613304 4.314017773 0.9115440845 
-13.09531975 -21.48740196 4.772001266 0.9026255608 
-8.306759834 -21.45902252 4.363765717 0.9105711579 
-7.224533558 -21.4526062 4.292798519 0.9119596481 
-4.797819614 -24.76771355 4.784280777 0.902387619 
-2.542399883 -24.75435066 4.719122887 0.9036507607 
-0.2574536204 -19.27859306 3.656331062 0.924505949 
1.219797373 -16.09415436 3.060860872 0.9364005923 
1.921755314 -15.91825199 3.040665627 0.9368066192 
4.086330414 -19.25286484 3.732456684 0.922996223 
4.19857645 -16.19649315 3.17303586 0.9341481924 
4.751882076 -15.46323681 3.067795277 0.9362611175 
5.514284611 -15.45871067 3.112529039 0.9353624582 
7.105119705 -15.42569256 3.22073102 0.9331920743 
8.852722168 -15.43892574 3.375021935 0.930106163 
9.786647797 -15.43338871 3.465642691 0.9282984138 
10.77410412 -15.42754364 3.568519831 0.9262503982 
14.15696049 -15.40749931 3.968021154 0.9183401465 
16.90110588 -15.39123535 4.335010052 0.9111333489 
20.92046547 -15.89323235 4.982400894 0.8985577822 
25.60379601 -16.07650757 5.733320713 0.8841879368 
28.01075935 -15.89614677 6.107749939 0.8771089315 
45.63085938 -16.04832077 9.173045158 0.8212471008 
11.61704826 8.663451195 2.748261452 0.9427065253 
46.92798615 38.36009216 11.49436951 0.7813231945 
45.27986145 48.40759277 12.57012177 0.7634854317 
41.51568222 48.54278564 12.11316395 0.7710116506 
8.89066124 11.38423443 2.739271402 0.9428878427 
9.021364212 12.67603016 2.950524569 0.9386212826 
7.762521744 13.26278019 2.914290667 0.9393516779 
15.28210926 32.41630936 6.796335697 0.8642382026 
11.88199425 32.39614487 6.543815136 0.8689361215 
10.26868153 32.38657379 6.443143368 0.8708162904 
4.206231594 32.41358185 6.198470116 0.875402391 
2.74597168 32.40084076 6.166542053 0.8760026097 
1.894760728 47.28491974 8.974341393 0.8247580528 
-1.617656231 8.767905235 1.690816879 0.9643517733 
-31.19847298 95.44016266 19.04182243 0.6644481421 
-35.41162872 93.95406342 19.04104614 0.6644591689 
-39.55437088 92.28208923 19.0402832 0.6644701958 
-43.61856461 90.42771912 19.03953743 0.6644806862 
-43.81618118 -18.09216309 8.989817619 0.8244840503 
-30.56888771 -14.2453022 6.395660877 0.8717043996 
-27.84277534 -16.13014603 6.102191448 0.8772137165 
-18.08012009 -18.32317924 4.881651878 0.9005032182 
-15.09972858 -18.30550194 4.500087738 0.9079099298 
-13.77261925 -18.29763603 4.343093872 0.9109752178 
-13.33294678 -21.44556618 4.78886652 0.9022987485 
-12.06463623 -21.48129272 4.672255039 0.9045605659 
-9.656198502 -21.46505737 4.463574886 0.908622086 
-7.438224792 -21.4538765 4.306119442 0.9116986394 
-6.382516861 -21.4476223 4.243618011 0.9129227996 
-5.355002403 -21.4415226 4.191080093 0.9139531255 
-5.027253151 -24.7690773 4.792997837 0.9022187591 
-3.888122559 -24.7623291 4.753479481 0.9029844999 
-2.765427113 -24.75566864 4.723883152 0.9035584331 
-0.428996563 -19.27961349 3.657102585 0.9244906306 
1.800143957 -16.11462784 3.07499814 0.9361163974 
2.438195705 -15.52815914 2.980848074 0.9380103946 
4.202282429 -16.8259964 3.288901329 0.931827426 
5.359977722 -15.45962811 3.102982044 0.9355541468 
