# .PCD v0.7 - Point Cloud Data file format
VERSION 0.7
FIELDS x y z intensities
SIZE 4 4 4 4
TYPE F F F F
COUNT 1 1 1 1
WIDTH 924
HEIGHT 1
VIEWPOINT 0 0 0 1 0 0 0
POINTS 924
DATA ascii
5.477714539 20.38260269 -1.837682009 0.9187486172 
1.78262198 21.03377342 -1.837974072 0.918736279 
0.8452807665 21.09427261 -1.838149548 0.9187288284 
-2.928945303 21.09742546 -1.854568481 0.9180334806 
-2.029175997 8.787268639 -0.7852852941 0.9644371867 
-8.120802879 21.54610825 -2.004847765 0.9116936922 
-7.005181789 14.52278519 -1.403914928 0.9373110533 
-7.237398624 13.44114208 -1.329192162 0.9405465126 
-8.82113266 13.37823868 -1.39526391 0.9376850724 
-14.34298229 18.03255272 -2.006190538 0.9116371274 
-17.31426811 15.21256638 -2.00678134 0.9116123319 
-17.97498322 14.42819405 -2.006905556 0.9116070271 
-19.18825531 12.77487755 -2.007124662 0.9115980268 
-20.24954605 11.01986408 -2.007302523 0.911590457 
-20.72047234 10.10854721 -2.007375479 0.9115873575 
-22.44243622 5.287722111 -2.007568836 0.9115792513 
-22.94636726 2.253442287 -2.007553577 0.9115799665 
-15.45706272 0.8261889219 -1.347768545 0.9397411942 
-15.45361996 -0.5503954887 -1.34640038 0.9398004413 
-22.87524414 -2.864782572 -2.007309437 0.9115902781 
-22.72424698 -3.879628897 -2.007227898 0.9115935564 
-22.52811432 -4.886418343 -2.00713563 0.9115974903 
-22.00230217 -6.868620396 -2.006920815 0.9116065502 
-21.30205536 -8.795851707 -2.006666183 0.9116172194 
-20.88823128 -9.73404789 -2.006524801 0.9116231799 
-20.43302727 -10.65280724 -2.006374359 0.9116294384 
-19.4022522 -12.42474365 -2.006055355 0.911642909 
-18.82873917 -13.2743845 -2.005884409 0.9116501212 
-18.21800995 -14.09752941 -2.005702972 0.9116576314 
-16.8896122 -15.65791512 -2.00531435 0.9116740227 
-16.17464256 -16.39210892 -2.005109549 0.911682725 
-13.84451103 -18.39312935 -2.004460335 0.9117099643 
-11.26935482 -20.06539536 -2.003766298 0.9117385149 
-10.36435032 -20.5442276 -2.003527164 0.9117491245 
-9.439071655 -20.9824028 -2.00328517 0.9117592573 
-2.154311419 -19.28502464 -1.689591527 0.9250443578 
3.023901224 -19.258358 -1.697368383 0.9247125983 
3.64626956 -17.96505737 -1.596111059 0.9290406108 
3.843364239 -15.38888168 -1.381064415 0.9382992983 
4.578393459 -15.38509274 -1.397635937 0.9375825524 
6.375458717 -16.04414558 -1.503214717 0.9330289364 
8.089662552 -16.03531265 -1.563803077 0.9304255843 
9.963324547 -16.02566338 -1.643037677 0.9270322323 
12.05439949 -16.01489258 -1.745280623 0.9226717949 
13.2053566 -16.00896454 -1.806922674 0.9200527668 
14.89144516 -15.09154224 -1.846025229 0.9183952212 
15.54504395 -14.41139603 -1.845670104 0.9184103012 
16.16761589 -13.70297813 -1.845314145 0.9184253812 
16.75793839 -12.96771431 -1.844957948 0.9184404612 
17.31687164 -12.20850086 -1.844816208 0.9184464216 
17.84189987 -11.42553234 -1.844724417 0.9184503555 
18.33168602 -10.62007999 -1.844642162 0.918453753 
18.80576134 -9.804430962 -1.846586823 0.918371439 
20.61429214 -9.606390953 -1.980206966 0.9127300382 
21.19349098 -8.751022339 -1.996435761 0.912047267 
21.56147194 -7.799394131 -1.99638927 0.9120485783 
22.40671349 -4.860087872 -1.996315718 0.9120522738 
22.60070801 -3.858537436 -1.996313334 0.912052393 
22.7500782 -2.849262714 -1.996322036 0.9120520353 
22.85531044 -1.834453106 -1.996341467 0.9120483994 
22.91388321 -0.8160009384 -1.996372461 0.9120498896 
22.92796326 0.2040942311 -1.996414185 0.912048161 
22.69897842 3.254274845 -1.996604085 0.9120401144 
22.32191277 5.259328365 -1.996783614 0.9120325446 
22.06701279 6.247404575 -1.996888518 0.9120281935 
19.79583168 7.5618577 -1.845093489 0.9184346199 
19.44116592 8.435518265 -1.845217586 0.9184294343 
18.60108757 10.12276268 -1.843888998 0.9184856415 
11.42394257 11.99729919 -1.442423701 0.9356480837 
12.00541019 13.7872448 -1.591780305 0.9292261004 
8.690024376 11.98321342 -1.288851261 0.9422976971 
6.439826488 11.95991325 -1.182712317 0.9469211102 
5.109062195 13.55535984 -1.2613132 0.9434951544 
1.969656944 21.01672554 -1.837945104 0.9187375903 
1.032896757 21.0854435 -1.838110447 0.918730557 
-0.8454614282 21.0988903 -1.838554382 0.9187117815 
-6.997582912 16.73552132 -1.579410315 0.9297562838 
-6.99950552 14.84731674 -1.429211259 0.9362185001 
-7.229828835 13.71823978 -1.350175738 0.9396368265 
-7.831571102 13.38075924 -1.349945545 0.9396468401 
-12.53075314 17.60695648 -1.881649375 0.9168878794 
-14.18172073 18.15913963 -2.006157398 0.9116386175 
-15.74205399 16.82944489 -2.006474018 0.9116253257 
-17.17795181 15.36585045 -2.006755114 0.911613524 
-17.8456192 14.58744431 -2.006881475 0.9116080999 
-19.07362366 12.9450655 -2.007104397 0.9115986824 
-19.63153267 12.08436489 -2.007200718 0.9115946293 
-22.39447403 5.487177849 -2.007566214 0.9115793705 
-22.61651611 4.485588074 -2.007574797 0.9115788937 
-22.79358864 3.475121975 -2.007572412 0.9115791321 
-15.45568371 0.2751171887 -1.345939279 0.9398204088 
-15.45224571 -1.102038503 -1.348842621 0.9396945238 
-22.75807381 -3.677228928 -2.007245064 0.9115928411 
-22.06284142 -6.672582626 -2.00694418 0.9116054773 
-21.3798027 -8.606010437 -2.006693363 0.9116160274 
-20.97436523 -9.547878265 -2.006553888 0.9116218686 
-20.5272789 -10.47073174 -2.006405115 0.9116283059 
-20.03966904 -11.37264156 -2.006249905 0.911634624 
-19.51250267 -12.25180912 -2.006088257 0.9116410613 
-18.34301567 -13.9351511 -2.005740166 0.9116561413 
-17.70329857 -14.73593235 -2.005550861 0.9116641283 
-16.32027245 -16.24783134 -2.005151033 0.9116808772 
-15.57972145 -16.95594597 -2.004941463 0.9116897583 
-14.80844688 -17.63031769 -2.004726171 0.9116987586 
-14.00798321 -18.26980019 -2.004504919 0.9117074609 
-13.17995071 -18.87251472 -2.004278898 0.9117174745 
-12.32597637 -19.43787956 -2.004048347 0.91172719 
-10.54706001 -20.45162582 -2.003575325 0.9117471576 
-9.625688553 -20.89803696 -2.003333807 0.91175735 
-6.755981445 -21.98521423 -2.002594948 0.9117882848 
-0.6006396413 -19.27702522 -1.679264069 0.9254849553 
0.2572998106 -19.27260208 -1.678213954 0.925529778 
1.613525391 -15.71023369 -1.375085711 0.9385581017 
3.650834799 -18.84661484 -1.671477914 0.9258172512 
4.429931641 -15.38585949 -1.394065857 0.9377368689 
5.404819012 -16.04914474 -1.474510312 0.9342647195 
7.045102596 -16.04068756 -1.525432706 0.9320734739 
8.817182541 -16.03156662 -1.593054652 0.929171443 
9.767324448 -16.02667046 -1.634168386 0.9274115562 
12.96873474 -16.01018524 -1.79396522 0.9206026793 
14.06667423 -15.8670311 -1.846282482 0.9183844328 
17.20770454 -12.36229229 -1.844835758 0.9184455276 
21.11488533 -8.939271927 -1.996446371 0.9120469093 
21.49121284 -7.990964413 -1.996397614 0.9120485783 
21.82484245 -7.026960373 -1.996359944 0.9120506644 
22.11557388 -6.049057484 -1.996333241 0.9120516181 
22.7237854 -3.05165267 -1.996319413 0.9120521545 
22.83723068 -2.037810087 -1.996336937 0.9120514393 
22.90665436 1.019980431 -1.996455312 0.9120463729 
22.83931541 2.038000345 -1.996516585 0.9120438099 
22.72689247 3.052070141 -1.996588349 0.9120406508 
22.56954956 4.060187817 -1.996670961 0.9120372534 
22.36759949 5.060380936 -1.996763706 0.9120334983 
20.16966248 6.494093895 -1.844956279 0.9184405804 
19.86205482 7.385336876 -1.845069647 0.9184356928 
19.51517105 8.262103081 -1.845191956 0.9184305072 
19.12294197 9.119466782 -1.844675303 0.9184525013 
17.18318748 12.34468079 -1.842209458 0.918556869 
16.00883675 13.81514835 -1.841153502 0.9186015129 
15.37442875 14.50980949 -1.840673327 0.9186218977 
11.63032722 11.99836254 -1.454944134 0.9351081848 
11.50813007 14.20702076 -1.591918707 0.92922014 
8.053044319 11.97992897 -1.256823421 0.9436890483 
5.145423412 11.71552944 -1.114116192 0.9499211311 
5.114802361 13.21314812 -1.233657956 0.9446991682 
5.08326149 15.09428787 -1.386683464 0.938051939 
4.013942719 20.72106361 -1.837721825 0.9187470078 
3.088356972 20.88005257 -1.837802887 0.9187434912 
2.156620979 20.99808311 -1.837917447 0.9187386036 
0.2818505764 21.11072159 -1.838272214 0.9187236428 
-1.606882334 21.20139313 -1.851298809 0.9181719422 
-2.55162096 21.13557053 -1.853634953 0.9180730581 
-3.157405853 14.87624836 -1.324128985 0.9407661557 
-3.090008497 11.92009163 -1.072183251 0.951759696 
-7.735731602 21.68629837 -2.004761219 0.9116972685 
-6.862100601 16.83068848 -1.582569242 0.9296209216 
-7.201702595 13.96469975 -1.368073821 0.9388616681 
-14.82000446 17.64408112 -2.00628829 0.9116330147 
-15.59143543 16.96871948 -2.006443977 0.911626339 
-18.9574337 13.11418915 -2.007083893 0.9115996361 
-20.0499115 11.37833977 -2.007270336 0.9115917683 
-21.38807106 8.609334946 -2.007469893 0.9115834236 
-21.75031662 7.64956522 -2.007512093 0.9115816951 
-22.06934929 6.674491882 -2.007542133 0.9115806818 
-22.57562637 4.686711311 -2.007573843 0.9115791321 
-22.7617569 3.67782712 -2.007573843 0.9115791917 
-15.45430851 -0.2750927806 -1.345821142 0.9398255944 
-15.45258713 -0.9638866782 -1.348073244 0.9397280216 
-22.12161064 -6.476110458 -2.006967068 0.9116044641 
-21.45581436 -8.415578842 -2.006720304 0.9116148949 
-17.83410835 -14.57804203 -2.005589485 0.9116624594 
-16.46459389 -16.10224152 -2.00519228 0.9116791487 
-14.96512699 -17.4981823 -2.004769564 0.9116969109 
-13.34762669 -18.75491714 -2.004324675 0.9117156267 
-10.72885227 -20.35745621 -2.003623247 0.9117451906 
-9.811489105 -20.8120842 -2.003382444 0.9117552638 
-8.874897003 -21.2253418 -2.003138542 0.9117655158 
-6.951586723 -21.92469597 -2.002644539 0.9117863774 
-3.415151358 -12.70782661 -1.145730615 0.9485374093 
-3.675375938 -20.96524429 -1.853279352 0.9180880189 
-0.7724853158 -19.27791023 -1.67987299 0.9254589677 
0.08574707061 -19.27348518 -1.678157568 0.9255321622 
1.456464767 -15.54014111 -1.359009027 0.9392541647 
2.673877001 -19.26015663 -1.693063259 0.9248961806 
3.634765625 -15.74017525 -1.406562567 0.9371967316 
4.282279968 -15.38662052 -1.390627503 0.9378855228 
5.246577263 -16.04996109 -1.470236301 0.9344487786 
6.875805378 -16.04156303 -1.519635558 0.932322681 
8.63272953 -16.03251839 -1.585453272 0.9294973016 
10.56471157 -16.02255821 -1.671050668 0.9258354902 
11.61535645 -16.01715851 -1.722721338 0.9236321449 
12.73535633 -16.01138687 -1.781326294 0.9211393595 
13.92497063 -15.99171829 -1.846293807 0.9183838964 
16.52577019 -13.26493645 -1.845100403 0.9184343815 
17.09719849 -12.51502419 -1.844855666 0.9184448123 
18.60822296 -10.12664986 -1.844597459 0.9184556603 
22.31671143 -5.258102894 -1.99631989 0.9120521545 
22.69569016 -3.253801107 -1.996317267 0.9120522738 
22.81815529 -2.241008282 -1.996332526 0.9120515585 
22.89555931 -1.223776817 -1.996358752 0.9120504856 
22.92777824 -0.2040942311 -1.996396184 0.9120488167 
22.91469765 0.8161352277 -1.996444345 0.9120468497 
22.17424011 5.853554726 -1.996845365 0.9120299816 
19.587677 8.087958336 -1.845166922 0.9184315801 
19.20478439 8.949546814 -1.844810009 0.9184467196 
18.78089714 9.791460991 -1.844146848 0.918474853 
18.32044792 10.61356258 -1.84351027 0.9185016751 
17.29344749 12.19198418 -1.842321754 0.9185521007 
11.07198238 8.567779541 -1.218964338 0.9453394413 
13.18306637 12.22166157 -1.565247178 0.93036443 
12.83858585 13.01118279 -1.591545582 0.9292360544 
10.82540989 11.99421501 -1.406794429 0.937186718 
11.63381767 14.10375977 -1.591883779 0.9292216301 
8.209274292 11.98073483 -1.264556766 0.9433541298 
6.032601357 11.95781422 -1.166156173 0.9476442933 
5.120294094 12.88546371 -1.207268834 0.9458494186 
5.103618145 14.72021198 -1.356534719 0.9393612146 
5.114079475 20.47685242 -1.837682128 0.9187486768 
4.198203087 20.68439484 -1.837710977 0.9187474847 
1.407949209 21.06288528 -1.838036776 0.9187336564 
0.4696484208 21.10690117 -1.838230252 0.9187253714 
-1.417817354 21.2092762 -1.850807428 0.9181925654 
-3.305272102 21.05030632 -1.855306029 0.9180023074 
-7.060168266 15.69425011 -1.498402119 0.9332360625 
-7.515550137 13.381567 -1.336319208 0.9402374625 
-8.318182945 13.3795166 -1.371741891 0.9387028217 
-13.85575867 18.40810394 -2.006089926 0.9116414189 
-14.6621809 17.77493668 -2.006256104 0.9116344452 
-16.18647957 16.40397453 -2.006562233 0.9116213322 
-16.9013176 15.66876698 -2.006701946 0.9116156101 
-17.58272743 14.90238953 -2.006832123 0.9116101861 
-18.22932243 14.10631657 -2.006952524 0.9116051793 
-19.41297531 12.43160534 -2.007163525 0.9115962982 
-19.94766808 11.55626202 -2.007253408 0.9115924835 
-20.89735222 9.738302231 -2.007401943 0.9115863442 
-21.68129349 7.842832088 -2.00750494 0.9115819931 
-22.00908089 6.870732307 -2.007536888 0.9115805626 
-22.29314804 5.884951115 -2.007559538 0.9115797281 
-22.53301239 4.887477875 -2.007572651 0.9115791917 
-22.72818756 3.880295277 -2.007574797 0.9115788937 
-22.87817383 2.865029335 -2.007565022 0.9115795493 
-15.4529314 -0.8259692192 -1.347407341 0.9397568107 
-22.94408798 -2.253588915 -2.007352591 0.9115882516 
-22.6511631 -4.28336668 -2.007192135 0.9115951657 
-22.43714714 -5.28648901 -2.007096052 0.9115991592 
-22.17861938 -6.279006004 -2.006989479 0.9116035104 
-20.71108818 -10.10396671 -2.006465673 0.9116255641 
-19.72801208 -11.90292454 -2.006153584 0.9116387367 
-19.17738533 -12.76765156 -2.005988121 0.9116457701 
-18.58877945 -13.60696793 -2.005813122 0.911653161 
-17.96344948 -14.41906738 -2.005627632 0.9116609097 
-16.60754395 -15.95545387 -2.005233049 0.9116774201 
-15.87969208 -16.67668915 -2.005026102 0.911686182 
-15.12054634 -17.36473083 -2.004812956 0.9116950631 
-14.33157158 -18.01821327 -2.004594088 0.9117041826 
-12.67055607 -19.21632767 -2.004141092 0.9117232561 
-11.80182552 -19.75862694 -2.003907919 0.9117330909 
-10.90992641 -20.26168442 -2.003671169 0.9117429852 
-9.9965868 -20.7244091 -2.003430843 0.9117532969 
-8.113085747 -21.52565384 -2.002941847 0.9117737412 
-7.146655083 -21.86255264 -2.002694368 0.9117840528 
-4.784677505 -20.72027206 -1.851589203 0.9181596637 
-3.861157179 -20.92848015 -1.852995992 0.9181001782 
-2.928608418 -21.0957222 -1.854419231 0.9180398583 
-0.9443896413 -19.27879333 -1.68061626 0.925427258 
1.312441349 -15.48601055 -1.353200674 0.9395057559 
4.135278225 -15.38737774 -1.387313843 0.938028872 
5.089159966 -16.05077171 -1.466104746 0.9346269369 
6.707792759 -16.04243088 -1.513999343 0.9325649738 
8.450004578 -16.0334568 -1.578041077 0.9298149347 
11.40009212 -16.01826096 -1.71186316 0.924094677 
13.68935013 -16.00647354 -1.833862424 0.9189105034 
14.48496056 -15.48546886 -1.84623754 0.9183861613 
15.15654755 -14.82295895 -1.84588325 0.9184011817 
15.7978611 -14.1313715 -1.845527768 0.9184162617 
16.40770531 -13.41205978 -1.845171571 0.9184312224 
18.5174675 -10.29195499 -1.844611883 0.9184551835 
21.3456707 -8.372367859 -1.996415973 0.9120481014 
22.66584396 -3.455593109 -1.99631536 0.9120522738 
22.79727745 -2.44393301 -1.996328592 0.9120516777 
22.88370705 -1.427419424 -1.996352673 0.9120506644 
22.92095375 0.6121240258 -1.996433854 0.9120472074 
22.87168694 1.631174326 -1.996490717 0.9120448232 
22.63783455 3.657800198 -1.996636629 0.9120387435 
22.45371819 4.66140604 -1.99672544 0.9120349884 
22.22523117 5.655888557 -1.996824265 0.9120308161 
20.83394432 6.300915241 -1.895156026 0.9163168669 
19.65862656 7.91317749 -1.845142007 0.9184325933 
19.2850914 8.77889061 -1.844945669 0.9184409976 
18.86860847 9.624666214 -1.844277263 0.9184693098 
18.41538048 10.45083332 -1.843635321 0.9184964895 
13.18417931 12.00635624 -1.552599192 0.9309056997 
11.02165031 11.99522781 -1.418363333 0.9366868138 
11.12549305 14.51015759 -1.592024207 0.9292155504 
9.794052124 15.44504929 -1.592386127 0.9292001128 
6.167098045 11.95850849 -1.171531916 0.947409451 
5.114315033 12.54389286 -1.179483414 0.9470620155 
5.062216759 16.47334099 -1.500530362 0.9331445098 
5.296062946 20.43054008 -1.837681174 0.9187486768 
4.382040977 20.6461277 -1.837701797 0.9187478423 
3.459414005 20.82134628 -1.837765932 0.9187451005 
1.595349073 21.04912758 -1.838004708 0.9187350869 
-0.2818652391 21.11225128 -1.83840704 0.9187179804 
-1.224315166 21.14067268 -1.843797922 0.9184894562 
-3.171660185 16.3730011 -1.452103734 0.9352308512 
-6.369539738 22.12246323 -2.004451752 0.9117102027 
-7.348140717 21.81964493 -2.004673958 0.9117008448 
-6.997170448 14.18215752 -1.376955032 0.9384771585 
-7.359938622 13.38196754 -1.329765558 0.9405215979 
-8.992710114 13.3778038 -1.403514028 0.9373285174 
-16.03958511 16.54714203 -2.006533384 0.9116226435 
-19.30139351 12.60381031 -2.007144213 0.9115969539 
-19.84382248 11.73325443 -2.007236481 0.9115932584 
-20.34692383 10.83934784 -2.00731802 0.9115899205 
-21.23125839 8.988542557 -2.007448912 0.9115842581 
-21.61057281 8.035385132 -2.007497311 0.9115823507 
-22.23988152 6.083046913 -2.007555485 0.9115798473 
-22.85179138 3.068730354 -2.007567883 0.9115793705 
-15.60893536 1.392819762 -1.364471436 0.9390176535 
-15.45671558 0.6882519126 -1.347148418 0.9397679567 
-15.45499706 -2.441406195e-06 -1.345666051 0.9398322701 
-22.68861008 -4.081615925 -2.007210255 0.9115943313 
-22.48356628 -5.086608887 -2.007116079 0.9115982056 
-22.23385048 -6.081401348 -2.007011652 0.9116026759 
-21.94004822 -7.064111233 -2.006896973 0.9116075039 
-20.80044365 -9.91944313 -2.006495476 0.9116244316 
-19.29057884 -12.59675789 -2.006021738 0.9116442204 
-18.70951843 -13.44122982 -2.005849123 0.9116515517 
-16.74922752 -15.80729961 -2.005273819 0.9116758108 
-16.02783203 -16.53502464 -2.005068064 0.9116844535 
-15.27484798 -17.22982788 -2.004855871 0.9116932154 
-13.67999935 -18.51517105 -2.004415274 0.911711812 
-11.09000015 -20.16423798 -2.003718615 0.9117411971 
-10.18083954 -20.63518906 -2.003479004 0.9117510915 
-9.251693726 -21.06503296 -2.003236294 0.9117615223 
-8.304477692 -21.453125 -2.002991199 0.9117717147 
-7.341059208 -21.79863739 -2.002743959 0.9117820263 
-5.87890625 -20.41838837 -1.850052953 0.9182248116 
-4.968173504 -20.6737442 -1.851309896 0.918171525 
-1.980581045 -19.2841301 -1.68790102 0.9251164198 
0.6004492044 -19.27083397 -1.678725362 0.9255079627 
1.170659184 -15.44578552 -1.348721623 0.9396998286 
2.325424671 -19.26195335 -1.689315796 0.9250560999 
3.199570179 -19.2574501 -1.699730158 0.9246119261 
3.642104387 -17.15989304 -1.527393103 0.931989193 
5.724306583 -16.0474987 -1.483488083 0.9338780046 
8.269057274 -16.03439331 -1.570830941 0.9301241636 
9.191440582 -16.02963829 -1.608866215 0.928494215 
10.16156673 -16.02463913 -1.652142048 0.9266431332 
12.27833462 -16.01374054 -1.756997943 0.9221735001 
15.02456951 -14.95788574 -1.845954418 0.9183981419 
15.67206955 -14.2719965 -1.845599055 0.9184131622 
17.42466736 -12.05374527 -1.844797134 0.9184472561 
18.91655731 -9.649021149 -1.848957658 0.9182710052 
20.86903763 -9.499943733 -1.996480823 0.9120455384 
21.27043724 -8.561977386 -1.996425629 0.9120476842 
21.62977791 -7.607162952 -1.996381283 0.9120495319 
22.21968269 -5.65447998 -1.996325612 0.9120517969 
22.63414955 -3.657211781 -1.996314168 0.912052393 
22.87000465 -1.631059527 -1.996346951 0.9120510221 
22.92536736 0.4080810547 -1.996423721 0.9120476842 
22.88514519 1.427519441 -1.996478558 0.9120454192 
20.05139351 6.852201939 -1.845000625 0.9184386134 
19.72800255 7.737865925 -1.845117569 0.9184336066 
18.95490646 9.457010269 -1.844408989 0.9184636474 
16.95876122 12.64704895 -1.841988206 0.9185661077 
16.37464333 13.38501835 -1.841457009 0.9185887575 
15.75873756 14.09636688 -1.840957403 0.9186098576 
12.27176285 12.00166988 -1.494551301 0.9334016442 
11.88254642 13.89383125 -1.591814637 0.9292245507 
8.846611023 13.68031693 -1.418500066 0.9366808534 
9.238954544 15.78534412 -1.592534781 0.9291937351 
5.11934948 12.24350357 -1.155477405 0.9481111169 
5.103060246 13.9134407 -1.290351987 0.94223243 
3.644579887 20.78954506 -1.837749481 0.9187458158 
2.716323137 20.93218231 -1.837844253 0.9187417626 
-2.029175997 8.787268639 -0.7852852941 0.9644371867 
-6.172321796 22.17777252 -2.004406691 0.9117120504 
-7.15356636 21.88368034 -2.00462985 0.9117026925 
-8.120802879 21.54610825 -2.004847765 0.9116936922 
-7.005181789 14.52278519 -1.403914928 0.9373110533 
-7.237398624 13.44114208 -1.329192162 0.9405465126 
-7.992083549 13.3803463 -1.357027888 0.9393399954 
-13.5254612 18.65111542 -2.006021023 0.9116443992 
-15.89139843 16.68898201 -2.00650382 0.911624074 
-17.31426811 15.21256638 -2.00678134 0.9116123319 
-19.18825531 12.77487755 -2.007124662 0.9115980268 
-20.24954605 11.01986408 -2.007302523 0.911590457 
-20.72047234 10.10854721 -2.007375479 0.9115873575 
-21.53811264 8.227401733 -2.007488728 0.9115826488 
-21.88316917 7.261308193 -2.007524252 0.911581099 
-22.65551949 4.284201622 -2.007575274 0.9115789533 
-22.82357407 3.271879911 -2.007570505 0.9115794301 
-22.94636726 2.253442287 -2.007553577 0.9115799665 
-22.87524414 -2.864782572 -2.007309437 0.9115902781 
-22.28732109 -5.88340807 -2.007033348 0.9116017818 
-22.00230217 -6.868620396 -2.006920815 0.9116065502 
-21.30205536 -8.795851707 -2.006666183 0.9116172194 
-19.4022522 -12.42474365 -2.006055355 0.911642909 
-18.82873917 -13.2743845 -2.005884409 0.9116501212 
-15.42785645 -17.09359741 -2.004898787 0.9116914868 
-13.84451103 -18.39312935 -2.004460335 0.9117099643 
-13.01113701 -18.98864174 -2.004233122 0.9117194414 
-12.15217781 -19.54637146 -2.004001617 0.911729157 
-10.36435032 -20.5442276 -2.003527164 0.9117491245 
-9.439071655 -20.9824028 -2.00328517 0.9117592573 
-8.495331764 -21.37891006 -2.003040314 0.9117695689 
-7.53497076 -21.73293877 -2.00279355 0.9117800593 
-6.559960842 -22.04385757 -2.002545118 0.9117905498 
-3.302670717 -21.03374481 -1.8538481 0.9180641174 
-0.4289013445 -19.27613258 -1.678787231 0.9255053401 
0.4288915992 -19.27172279 -1.678402781 0.9255216718 
3.023901224 -19.258358 -1.697368383 0.9247125983 
3.64626956 -17.96505737 -1.596111059 0.9290406108 
3.843364239 -15.38888168 -1.381064415 0.9382992983 
5.564081669 -16.04832458 -1.478928924 0.9340744615 
6.375458717 -16.04414558 -1.503214717 0.9330289364 
7.215620041 -16.03980827 -1.531393647 0.9318172932 
8.089662552 -16.03531265 -1.563803077 0.9304255843 
10.977314 -16.02044868 -1.690942526 0.9249866605 
12.05439949 -16.01489258 -1.745280623 0.9226717949 
13.20547295 -16.00896454 -1.806928873 0.9200524688 
14.20730972 -15.74110317 -1.846271276 0.9183847904 
14.89144516 -15.09154224 -1.846025229 0.9183952212 
16.16761589 -13.70297813 -1.845314145 0.9184253812 
18.33168602 -10.62007999 -1.844642162 0.918453753 
22.16849327 -5.852043152 -1.996329308 0.9120517373 
22.40673828 -4.859980583 -1.996315718 0.9120522738 
22.85531044 -1.834548354 -1.996341467 0.9120483994 
22.91388321 -0.8160009384 -1.996372461 0.9120498896 
22.69897842 3.254274845 -1.996604085 0.9120401144 
22.53271866 4.260864258 -1.996688604 0.9120365381 
22.32191277 5.259328365 -1.996783614 0.9120325446 
20.11136436 6.673366547 -1.844978333 0.9184395075 
19.44116592 8.435518265 -1.845217586 0.9184294343 
18.60108757 10.12276268 -1.843888998 0.9184856415 
17.61607361 11.72817326 -1.842666149 0.9185374379 
17.07162094 12.49640083 -1.842098236 0.9185614586 
10.9651022 8.80148983 -1.224253058 0.9451089501 
15.88434505 13.95633125 -1.841054797 0.9186058044 
12.49347591 12.00281334 -1.508454561 0.9328022599 
12.00546837 13.7871933 -1.591780305 0.9292261004 
8.690099716 11.98321342 -1.288855553 0.9422975779 
5.76722765 11.95644474 -1.155825973 0.9480958581 
5.123404503 11.95312881 -1.132332802 0.9491235614 
5.109057426 13.55551815 -1.261326909 0.9434945583 
5.09650135 15.59085655 -1.428182602 0.9362627864 
5.658840179 20.33306503 -1.837684274 0.9187486172 
4.748858452 20.56471062 -1.837688565 0.9187483788 
2.902507305 20.90694046 -1.837822676 0.9187425971 
-1.795988679 21.19161606 -1.851766109 0.9181520939 
-3.136433125 17.89099693 -1.581527114 0.9296656847 
-3.187399864 11.86035347 -1.069323778 0.9518854022 
-7.928539753 21.61709404 -2.004804611 0.9116954207 
-6.997664452 16.73552513 -1.579413056 0.9297561646 
-6.99950552 14.84731674 -1.429211259 0.9362185001 
-7.229832649 13.71809578 -1.350164771 0.9396373034 
-8.651629448 13.37866879 -1.387228966 0.9380326867 
-15.74205399 16.82944489 -2.006474018 0.9116253257 
-17.17795181 15.36585045 -2.006755114 0.911613524 
-18.47792244 13.77996826 -2.006997824 0.9116032124 
-19.07368279 12.94498253 -2.007104635 0.9115986824 
-19.63153267 12.08436489 -2.007200718 0.9115946293 
-20.15053558 11.19949532 -2.007286549 0.9115911722 
-20.6295414 10.29252434 -2.007361889 0.911587894 
-21.06766129 9.364863396 -2.007426262 0.9115852714 
-21.46390533 8.418740273 -2.007479668 0.9115831256 
-21.81761169 7.455680847 -2.007518768 0.9115814567 
-22.39447403 5.487177849 -2.007566214 0.9115793705 
-15.457407 0.9641942978 -1.348492384 0.9397097826 
-15.45568371 0.2751806676 -1.345939636 0.9398204088 
-15.45396423 -0.412714839 -1.346054673 0.9398153424 
-15.45224285 -1.102092266 -1.348842859 0.9396945238 
-22.75805092 -3.677324057 -2.007245064 0.9115928411 
-22.57094002 -4.685739517 -2.007154942 0.9115966558 
-22.33901978 -5.684948444 -2.007054567 0.9116008878 
-22.06284142 -6.672582626 -2.00694418 0.9116054773 
-21.3798027 -8.606010437 -2.006693363 0.9116160274 
-20.52732658 -10.470644 -2.006405115 0.9116283059 
-20.03966904 -11.37264156 -2.006249905 0.911634624 
-19.51245117 -12.25175762 -2.006088257 0.9116412997 
-18.34304428 -13.9350729 -2.005740166 0.9116562605 
-17.70329857 -14.73593235 -2.005550861 0.9116641283 
-15.57963848 -16.95601463 -2.004941463 0.9116897583 
-14.00790024 -18.26987267 -2.004504919 0.9117074013 
-11.44775391 -19.96458435 -2.003813744 0.911737144 
-10.54697704 -20.45168495 -2.003575325 0.911747098 
-8.685409546 -21.30299759 -2.003089666 0.9117674828 
-7.72832489 -21.66556549 -2.002843142 0.911777854 
-5.333823204 -20.57586288 -1.850753784 0.9181949496 
-4.416489124 -20.80844116 -1.852149725 0.918135941 
-1.461450219 -19.28145981 -1.683649898 0.9252977371 
-0.6006396413 -19.27702522 -1.679264069 0.9254849553 
0.8984618783 -15.51403332 -1.353068233 0.9395114183 
1.613598585 -15.71031189 -1.375093699 0.9385578036 
2.848623037 -19.25925827 -1.695144296 0.9248073697 
4.430004597 -15.38585949 -1.394067526 0.9377367496 
6.211079121 -16.04499054 -1.498053908 0.9332509041 
8.817090034 -16.03156662 -1.593050599 0.9291716218 
12.96861744 -16.01018524 -1.793959022 0.9206029177 
14.06667423 -15.8670311 -1.846282482 0.9183844328 
14.75714779 -15.22399426 -1.846096158 0.9183923006 
16.64248085 -13.11686516 -1.845029235 0.9184374809 
17.20775414 -12.36222649 -1.844835758 0.9184455276 
17.73966217 -11.58400345 -1.84474206 0.9184495807 
18.69742203 -9.960607529 -1.844583273 0.9184563756 
20.16317368 -9.615431786 -1.945012212 0.9142125249 
21.11486053 -8.939365387 -1.996446371 0.9120468497 
21.49121284 -7.990964413 -1.996397614 0.9120485783 
21.82484055 -7.02703619 -1.996359944 0.9120505452 
22.36260223 -5.059340477 -1.996317506 0.9120521545 
22.56548309 -4.059460163 -1.996312976 0.912052393 
22.72377205 -3.051748037 -1.996319413 0.9120521545 
22.90562439 -1.019833922 -1.996365428 0.9120501876 
22.92874527 2.441406195e-06 -1.996405005 0.9120486379 
22.90665436 1.020078063 -1.996455312 0.9120463729 
22.83931541 2.038000345 -1.996516585 0.9120438099 
22.56954956 4.060187817 -1.996670961 0.9120372534 
22.36758041 5.060473442 -1.996763706 0.9120334983 
22.12150574 6.050676346 -1.996866703 0.9120290875 
20.16966248 6.494093895 -1.844956279 0.9184405804 
19.12298775 9.119381905 -1.844675303 0.9184525013 
18.69169807 9.957553864 -1.844017267 0.9184802771 
17.18324089 12.34460831 -1.842209458 0.918556869 
10.96628189 8.6431427 -1.215749145 0.9454795718 
11.50806618 14.20707035 -1.591918707 0.92922014 
8.052970886 11.97992897 -1.256833434 0.9436891675 
6.578146935 11.96062374 -1.188524604 0.9466673732 
5.899388313 11.95712471 -1.160926819 0.9478729367 
5.1147995 13.21299553 -1.233641982 0.9446997046 
5.83971405 20.28193855 -1.837687969 0.9187483191 
4.931621075 20.52161026 -1.837684631 0.918748498 
4.014033318 20.72105026 -1.837721825 0.9187470078 
3.088356972 20.88005257 -1.837802887 0.9187434912 
2.15652585 20.99806595 -1.837917447 0.9187387228 
1.22051394 21.07498932 -1.838072896 0.9187321067 
-0.6576049924 21.10503769 -1.838504434 0.9187137485 
-2.55162096 21.13557053 -1.853634953 0.9180730581 
-3.217783213 19.3665657 -1.7093606 0.9242013097 
-3.157405853 14.87624836 -1.324128985 0.9407661557 
-7.735731602 21.68629837 -2.004761219 0.9116972685 
-6.86210537 16.83091354 -1.582587361 0.9296201468 
-12.30614853 17.62129402 -1.871402264 0.9173213243 
-14.01937485 18.28428078 -2.006123781 0.9116399884 
-16.33197784 16.25950813 -2.006591082 0.9116203785 
-17.04033089 15.51793289 -2.006728888 0.9116144776 
-20.53703499 10.47558308 -2.007347584 0.9115884304 
-20.9833107 9.552060127 -2.007414103 0.9115857482 
-21.38807106 8.609334946 -2.007469893 0.9115834236 
-21.75028801 7.649652958 -2.007512093 0.9115816951 
-22.06934929 6.674491882 -2.007542133 0.9115806818 
-22.34473419 5.686201096 -2.007562876 0.9115794897 
-15.45775318 1.102358341 -1.349324584 0.9396737218 
-15.45258713 -0.9638866782 -1.348073244 0.9397280216 
-22.92295837 -2.457570791 -2.007338762 0.9115888476 
-22.79006004 -3.474540949 -2.007261753 0.9115922451 
-22.61195755 -4.484787464 -2.007173777 0.9115958214 
-22.12161064 -6.476110458 -2.006967068 0.9116044641 
-21.81034088 -7.453197956 -2.006848335 0.9116095304 
-20.14035034 -11.19406509 -2.006281137 0.9116334319 
-19.62096214 -12.07786369 -2.00612092 0.911640048 
-18.46670341 -13.77158642 -2.005776882 0.9116544724 
-17.16629028 -15.35544395 -2.00539422 0.9116707444 
-16.46453094 -16.102314 -2.00519228 0.9116791487 
-15.73037052 -16.8169632 -2.004983902 0.9116879106 
-12.49879837 -19.32784081 -2.004094839 0.9117252231 
-11.62520981 -19.86243629 -2.00386095 0.9117350578 
-9.811489105 -20.8120842 -2.003382444 0.9117552638 
-8.874990463 -21.22530746 -2.003138542 0.9117655158 
-7.920976162 -21.59647942 -2.002892494 0.9117757678 
-6.951488972 -21.92469215 -2.002644539 0.9117864966 
-2.739853382 -21.11429596 -1.853834152 0.9180645943 
-1.634179592 -19.28235245 -1.684930682 0.9252430797 
-0.7724023461 -19.27790451 -1.679872751 0.9254589677 
0.7658984065 -15.63370037 -1.362856865 0.9390874505 
2.673877001 -19.26015663 -1.693063259 0.9248961806 
3.552534103 -19.25562859 -1.704882741 0.9243923426 
4.282211781 -15.38662052 -1.39062798 0.9378856421 
6.047651291 -16.04582977 -1.493046045 0.9334664941 
8.63272953 -16.03251839 -1.585453272 0.9294973016 
12.73535633 -16.01138687 -1.781326294 0.9211393595 
13.92504406 -15.99166012 -1.846293807 0.9183838964 
14.62153244 -15.35540962 -1.846166968 0.9183893204 
19.72730446 -9.624140739 -1.911159039 0.915640831 
21.41936493 -8.181889534 -1.996406674 0.9120482206 
21.76156998 -7.220956802 -1.996366739 0.912050128 
22.31671143 -5.258102894 -1.99631989 0.9120521545 
22.52846909 -4.260070801 -1.996312976 0.912052393 
22.69569016 -3.253801107 -1.996317267 0.9120522738 
22.8181591 -2.24091053 -1.996332526 0.9120516181 
22.89555931 -1.223776817 -1.996358752 0.9120504856 
22.85638428 1.834709406 -1.996503353 0.9120444059 
22.41154671 4.861032486 -1.996744394 0.9120342731 
19.92678452 7.208173752 -1.845046401 0.9184365869 
19.58764076 8.08804512 -1.845166922 0.9184315801 
19.20478439 8.949546814 -1.844810009 0.9184467196 
18.32044792 10.61356258 -1.84351027 0.9185016751 
17.82424736 11.41433334 -1.842901587 0.9185274243 
17.29344749 12.19198418 -1.842321754 0.9185521007 
8.209352493 11.98073483 -1.264558911 0.943353951 
5.120294094 12.88546371 -1.207268834 0.9458494186 
5.103542328 14.72020817 -1.356532693 0.9393613338 
1.407949209 21.06288528 -1.838036776 0.9187336564 
-3.305185556 21.05032158 -1.855306387 0.9180023074 
-4.233595371 20.85877609 -1.85320282 0.9180912971 
-2.191936016 8.77670002 -0.7876574397 0.9643297195 
-7.54231596 21.75382805 -2.004717827 0.911698997 
-6.869996071 17.28867722 -1.619814873 0.9280254841 
-7.060175419 15.69408894 -1.498389363 0.933236599 
-7.059136868 13.99261665 -1.364595652 0.9390121698 
-8.318182945 13.3795166 -1.371741891 0.9387028217 
-13.85575867 18.40810394 -2.006089926 0.9116414189 
-14.6621809 17.77493668 -2.006256104 0.9116344452 
-15.43952084 17.10651779 -2.00641346 0.9116277695 
-16.18647957 16.40397453 -2.006562233 0.9116213322 
-16.90124893 15.66884136 -2.006701946 0.9116156101 
-17.58272743 14.90238953 -2.006832123 0.9116101861 
-18.83982849 13.28220558 -2.00706315 0.9116004109 
-19.41291809 12.43169117 -2.007163525 0.9115962982 
-19.94766808 11.55626202 -2.007253408 0.9115924835 
-22.00911903 6.870634556 -2.007536888 0.911580503 
-22.29314804 5.884951115 -2.007559538 0.9115797281 
-22.53303719 4.887375355 -2.007572651 0.9115791321 
-22.72818756 3.880295277 -2.007574797 0.9115788937 
-22.87817383 2.865029335 -2.007565022 0.9115795493 
-15.45637131 0.5504321456 -1.346640587 0.9397900701 
-15.4529314 -0.8259692192 -1.347407341 0.9397568107 
-22.82028961 -3.271664858 -2.007278204 0.9115914106 
-22.65114403 -4.283466816 -2.007192135 0.9115951657 
-21.14155197 -9.173327446 -2.00661087 0.911619544 
-20.71104431 -10.10406685 -2.006465673 0.9116255641 
-19.72795868 -11.90300751 -2.006153584 0.9116387367 
-18.58877945 -13.60696793 -2.005813122 0.911653161 
-16.60761261 -15.95537567 -2.005233049 0.9116774201 
-15.12062454 -17.36466217 -2.004812956 0.9116950631 
-13.51427174 -18.635849 -2.004369974 0.9117137194 
-12.67055607 -19.21632767 -2.004141092 0.9117232561 
-11.80174255 -19.75868034 -2.003907919 0.9117330909 
-10.90992641 -20.26168442 -2.003671169 0.9117429852 
-7.146655083 -21.86255264 -2.002694368 0.9117840528 
-3.52921629 -12.68101978 -1.146098375 0.9485212564 
-4.784770489 -20.72025871 -1.851588964 0.9181596637 
-3.861157179 -20.92848015 -1.852995992 0.9181001782 
0.6368651986 -15.89497566 -1.385086298 0.9381253719 
2.499541044 -19.26105499 -1.691121459 0.9249790311 
3.638281107 -16.42045784 -1.464402795 0.9347003102 
4.135278225 -15.38737774 -1.387313843 0.938028872 
5.089233398 -16.05077171 -1.466106653 0.9346268177 
6.707866192 -16.04243088 -1.51400435 0.9325648546 
11.39998531 -16.01826096 -1.711858034 0.9240949154 
12.50533199 -16.01256752 -1.769009471 0.9216626883 
14.48496056 -15.48546886 -1.84623754 0.9183861613 
15.15646458 -14.82302189 -1.845883489 0.9184012413 
16.40775871 -13.41198254 -1.845171571 0.9184312224 
16.98532867 -12.66686535 -1.844875693 0.9184438586 
17.53108025 -11.89804173 -1.844778419 0.9184480906 
18.042099 -11.10598373 -1.844690323 0.9184517264 
19.30670166 -9.632516861 -1.878636837 0.9170149565 
20.95270157 -9.313759804 -1.996468902 0.9120458364 
21.3456707 -8.372367859 -1.996415973 0.9120481014 
21.69649696 -7.414309025 -1.996373892 0.9120500088 
22.00452805 -6.441823483 -1.99634254 0.9120510817 
22.4896431 -4.460519791 -1.996313453 0.912052393 
22.66584396 -3.455593109 -1.99631536 0.9120522738 
22.88370705 -1.427419424 -1.996352673 0.9120506644 
22.92496109 -0.4081689417 -1.99638772 0.9120491743 
20.83394432 6.300915241 -1.895156026 0.9163168669 
19.98985291 7.030492783 -1.845023274 0.9184376597 
19.65862656 7.91317749 -1.845142007 0.9184325933 
19.28505516 8.77896595 -1.844945669 0.9184409976 
18.86865616 9.624586105 -1.844277501 0.9184692502 
17.92634201 11.25586891 -1.843021035 0.9185224175 
17.40230942 12.03839302 -1.84243536 0.9185472727 
16.84455109 12.79665089 -1.841879487 0.9185708165 
13.18417931 12.00625992 -1.552607656 0.9309059381 
12.07418919 12.02057934 -1.483448505 0.9338790774 
11.75863743 13.99934196 -1.591849327 0.9292231202 
9.793984413 15.44509602 -1.592386127 0.9292000532 
6.167027473 11.95850658 -1.171528935 0.9474095702 
5.506561279 11.95510197 -1.146042109 0.9485237002 
4.382040977 20.6461277 -1.837701797 0.9187478423 
1.595434546 21.04912376 -1.838004589 0.9187350869 
0.6574926376 21.10139847 -1.83818984 0.9187272191 
-3.11730957 21.0757885 -1.855034709 0.9180138707 
-3.171725988 16.37297058 -1.452104449 0.9352309108 
-6.369635582 22.12243652 -2.004451752 0.9117102027 
-7.348140717 21.81964493 -2.004673958 0.9117008448 
-7.045685768 16.04221916 -1.525575399 0.9320673347 
-6.997170448 14.18215752 -1.376955032 0.9384771585 
-7.359858036 13.38196754 -1.329762101 0.9405217171 
-13.69120121 18.5303421 -2.006055593 0.9116427898 
-14.50308418 17.9045372 -2.00622344 0.9116356969 
-16.03962135 16.54704857 -2.006533384 0.9116228223 
-16.7609539 15.81836414 -2.006674767 0.9116168022 
-18.72070694 13.44914532 -2.007041931 0.9116013646 
-20.80974579 9.923773766 -2.00738883 0.9115868807 
-21.94696045 7.066337585 -2.007530689 0.9115809202 
-22.69276237 4.082363129 -2.007575274 0.9115788937 
-15.45671844 0.6881860495 -1.347147942 0.9397679567 
-15.4550457 -2.441406195e-06 -1.488153338 0.9397831559 
-15.45332718 -0.6881079078 -1.489461064 0.9397318363 
-20.75937653 -1.85242188 -2.006845236 0.9196583629 
-20.10020256 -5.497848988 -2.006524086 0.9196706414 
-19.52992058 -7.261791706 -2.006308079 0.9196789265 
-19.18639374 -8.122868538 -2.006186962 0.9196835756 
-18.80484581 -8.967734337 -2.006057501 0.9196885824 
-17.44015121 -11.38839817 -2.005623341 0.9197052717 
-16.91497803 -12.15198421 -2.005466223 0.9197112322 
-15.14320278 -14.29157639 -2.0049541 0.9197308421 
-13.10249519 -16.17533684 -2.004379511 0.9197529554 
-12.36873055 -16.74046898 -2.004178047 0.9197607636 
-8.365419388 -19.04700089 -2.003112078 0.9198016524 
-7.509027958 -19.39812851 -2.002890348 0.9198101759 
-4.494585037 -18.70292854 -1.852158427 0.9256144762 
-3.660659075 -18.89728546 -1.853428483 0.9255654216 
-2.817534208 -19.04902267 -1.854168296 0.925536871 
-1.962060452 -19.10387611 -1.849170089 0.9257299304 
-1.110190392 -19.17007828 -1.848962665 0.925737977 
-0.2563036978 -19.19833374 -1.848755956 0.9257459641 
0.5979052782 -19.18861771 -1.848550677 0.9257538319 
3.988989115 -15.388134 -1.530681849 0.9381165504 
4.727602482 -15.38433075 -1.549709558 0.9373719096 
6.541039944 -16.04329491 -1.668254256 0.9327458739 
7.38755846 -16.03893471 -1.700323582 0.9314984083 
8.269042969 -16.03439331 -1.737153888 0.930067718 
9.191430092 -16.02964783 -1.779217362 0.9284364581 
10.16156673 -16.02464867 -1.827074409 0.9265839458 
11.66958427 -15.21978474 -1.846697092 0.9258255363 
12.33385181 -14.68419933 -1.846516967 0.9258324504 
12.97265148 -14.11855412 -1.846199036 0.9258447289 
13.58548832 -13.52516556 -1.845878839 0.9258571267 
14.73033619 -12.2612524 -1.845436692 0.9258740544 
16.99531937 -9.644904137 -1.881619096 0.9244771004 
18.47555542 -9.424113274 -1.997060299 0.9200337529 
20.09765816 -5.114472389 -1.996860504 0.9200414419 
20.59955788 -2.393981934 -1.996859908 0.9200415611 
20.73586464 0.3691332936 -1.996949077 0.9200380445 
20.69944572 1.291213393 -1.996998668 0.9200360775 
20.50403786 3.126047373 -1.997126937 0.9200313091 
19.90816116 5.82807827 -1.997389793 0.9200211763 
16.74865532 9.308833122 -1.845062613 0.9258885384 
16.31299782 10.04161453 -1.844501257 0.9259102941 
15.84554672 10.7542038 -1.843965769 0.9259310365 
15.34725571 11.44526958 -1.843456626 0.9259506464 
12.27172375 12.00166512 -1.652793527 0.9333478212 
11.22110844 11.99624825 -1.581673503 0.9361223578 
10.17769527 13.0321703 -1.592187166 0.9357116222 
8.355160713 14.27527237 -1.592680812 0.9356924295 
5.103090763 13.91349983 -1.426986814 0.9421851635 
5.068366528 15.9851656 -1.614530325 0.9348325133 
4.958310604 18.44988823 -1.839555621 0.9261013865 
4.132705212 18.65228462 -1.839567423 0.9261010289 
3.298984289 18.8182106 -1.83961904 0.9260989428 
2.458725452 18.9471817 -1.839702725 0.9260957241 
0.7650879025 19.09360313 -1.839980483 0.9260850549 
-0.08503906429 19.11071014 -1.840170503 0.9260776639 
-1.794582486 19.1484108 -1.851861954 0.9256259203 
-2.029156446 8.787261963 -0.8683897257 0.9644079804 
-5.155894279 18.52571297 -1.85161984 0.9256352782 
-7.224812031 13.41777039 -1.467372537 0.9405984879 
-7.992487431 13.38102627 -1.500785351 0.9392877221 
-8.82159996 13.37893772 -1.543081045 0.937631309 
-12.22811985 16.86211586 -2.005629778 0.9197049737 
-12.96708679 16.30270195 -2.005782843 0.9196991324 
-16.25005341 13.04370117 -2.006429195 0.9196743965 
-16.81510353 12.30857563 -2.006532669 0.9196702838 
-17.84412384 10.76632404 -2.006712198 0.9196633697 
-18.30607224 9.96224308 -2.006787777 0.9196605086 
-19.12024879 8.296297073 -2.006909847 0.9196557403 
-19.47074699 7.437690258 -2.006952524 0.9196542501 
-19.7826786 6.564313889 -2.006987095 0.9196529388 
-20.05536652 5.677883148 -2.007013083 0.919651866 
-20.4808445 3.872949123 -2.007033587 0.9196511507 
-20.74383545 2.037260771 -2.00701499 0.9196518064 
-15.45538998 0.137551263 -1.488243937 0.93977952 
-15.52242184 -1.245974064 -1.499448061 0.9393402934 
-18.47275162 -9.630800247 -2.005948067 0.9196928144 
-18.02474403 -10.44227982 -2.005803823 0.919698298 
-17.5410881 -11.23291969 -2.005653858 0.91970402 
-17.02271652 -12.00116158 -2.005498409 0.9197100401 
-16.47062874 -12.74550056 -2.005335569 0.9197163582 
-15.88606167 -13.4643898 -2.005167246 0.9197227955 
-15.26998997 -14.15649414 -2.004990578 0.9197297096 
-14.62384224 -14.8203907 -2.004805803 0.9197366238 
-13.94877434 -15.45476055 -2.004615068 0.9197440147 
-12.51746559 -16.63006401 -2.004218817 0.9197592735 
-10.98760223 -17.67315865 -2.003804207 0.9197750688 
-10.18948174 -18.14252853 -2.003591299 0.919783175 
-9.371317863 -18.57579994 -2.003375292 0.9197915792 
-6.813261509 -19.65132713 -2.002711773 0.9198170304 
-5.48194313 -18.42141151 -1.85065794 0.9256725311 
-3.828168869 -18.86138153 -1.853173137 0.9255752563 
-2.987416983 -19.0261364 -1.854455352 0.9255257845 
-0.4271533191 -19.19571686 -1.848797083 0.9257444143 
0.4271142483 -19.19361305 -1.848591566 0.9257522225 
2.130878925 -19.07550812 -1.848186255 0.9257678986 
3.843364239 -15.38888645 -1.527296066 0.9382491708 
5.564081669 -16.04833031 -1.635518312 0.9340210557 
7.215634823 -16.03981972 -1.693540573 0.9317620993 
8.08966732 -16.03532219 -1.729383826 0.9303693175 
9.963354111 -16.02567291 -1.817007065 0.9269732237 
12.84694767 -14.2339592 -1.846262813 0.9258421659 
13.4650774 -13.64603519 -1.845942974 0.9258545041 
15.15673542 -11.72868156 -1.845357418 0.9258772135 
16.66788292 -9.656198502 -1.854808807 0.9255120754 
18.39112663 -9.588219643 -1.997073531 0.9200330973 
18.79877472 -8.760346413 -1.997012019 0.9200357795 
19.16934013 -7.915261269 -1.996960044 0.920037806 
19.50210571 -7.0545187 -1.996917963 0.9200392365 
20.26682854 -4.39591074 -1.996851444 0.9200419188 
20.57741928 -2.577209473 -1.996857047 0.9200416207 
20.7254982 -0.7381176353 -1.996902704 0.9200398922 
20.70996857 1.106933594 -1.996988058 0.9200366139 
20.53089523 2.943422794 -1.997112393 0.9200318456 
20.38043976 3.853942871 -1.997188807 0.9200288653 
20.18967247 4.756943226 -1.997274637 0.9200256467 
18.9426403 6.285568714 -1.92175889 0.9229296446 
17.90458298 6.839416504 -1.84551692 0.9258710742 
17.58369637 7.629594326 -1.845629096 0.9258666635 
17.22801399 8.404759407 -1.845748901 0.9258620739 
16.40272903 9.896629333 -1.844611526 0.9259059429 
15.94155025 10.61337471 -1.844070673 0.9259269238 
10.95968246 8.7971735 -1.353210926 0.9450905323 
11.4239521 11.99729347 -1.595154047 0.9355959296 
6.446145058 11.97164249 -1.309222937 0.9468271136 
7.187572956 14.90090942 -1.592989564 0.9356803298 
5.12841177 11.96485233 -1.25345397 0.9490333796 
5.096477985 15.59085083 -1.579401255 0.9362111092 
5.122319221 18.4050312 -1.839557648 0.9261013269 
2.627223969 18.9243412 -1.839683294 0.926096499 
1.782906413 19.02362823 -1.839794159 0.9260922074 
-0.7652343512 19.09741974 -1.840347052 0.9260708094 
-1.623732924 19.15926933 -1.851439476 0.9256421924 
-3.187401056 11.86035728 -1.182547688 0.9518460631 
-6.291339397 19.84227562 -2.004332066 0.9197547436 
-7.168467999 19.54471588 -2.004530191 0.9197471142 
-7.223062515 13.70536804 -1.491735458 0.9396426678 
-7.832007885 13.38143539 -1.492956519 0.9395947456 
-8.652038574 13.37936211 -1.534188032 0.9379793406 
-12.07738113 16.9699955 -2.005598068 0.9197061658 
-12.82128906 16.41722107 -2.005752802 0.9197002649 
-13.53990936 15.83177185 -2.005899906 0.9196946025 
-14.89546013 14.56766891 -2.006170273 0.9196842313 
-16.13318062 13.1876564 -2.006407261 0.9196751714 
-16.70473289 12.45761204 -2.006512642 0.9196710587 
-17.74745369 10.92460632 -2.006695986 0.9196640253 
-18.64953613 9.304632187 -2.006841421 0.9196585417 
-19.04556274 8.466077805 -2.006899595 0.9196561575 
-19.40374374 7.610673428 -2.006945133 0.919654429 
-19.72342873 6.740082741 -2.006980658 0.9196531177 
-20.2448864 4.960529804 -2.007026672 0.9196513295 
-20.60571289 3.141552687 -2.007030964 0.9196511507 
-20.72490692 2.221786976 -2.007018566 0.9196516871 
-15.45573425 0.2751415968 -1.488453746 0.9397712946 
-15.45229721 -1.102041006 -1.491666198 0.93964535 
-20.70213318 -2.405908108 -2.00680685 0.9196597934 
-20.57390404 -3.324318886 -2.006734848 0.9196624756 
-19.32840347 -7.780282974 -2.006236315 0.9196816683 
-18.55795097 -9.466142654 -2.005975723 0.9196918607 
-17.64061928 -11.07652569 -2.005684137 0.9197028875 
-17.12911797 -11.8493824 -2.005530119 0.9197087884 
-16.5837326 -12.59859371 -2.00536871 0.9197149873 
-16.00555801 -13.32271481 -2.005201578 0.919721365 
-15.39592266 -14.02030754 -2.005026817 0.9197275043 
-14.7554493 -14.68991184 -2.004843235 0.9197351933 
-14.08603477 -15.33031178 -2.004653692 0.919742465 
-13.38884258 -15.94019985 -2.004458904 0.9197499156 
-12.6652441 -16.51834869 -2.004259109 0.9197576046 
-11.91670418 -17.06365776 -2.004054785 0.9197654128 
-11.14468765 -17.57503891 -2.003846407 0.9197734594 
-10.35075188 -18.05149841 -2.003634214 0.9197815657 
-9.536478996 -18.4920845 -2.003418684 0.9197898507 
-6.988037109 -19.5902729 -2.002756596 0.9198155999 
-5.644926548 -18.36946678 -1.850410581 0.9256820083 
-3.995312452 -18.82397461 -1.852918506 0.9255850911 
-3.156176805 -18.99617577 -1.85419786 0.9255356789 
-2.301884651 -19.06680107 -1.849253774 0.9257266521 
-1.451279283 -19.14814377 -1.849045634 0.9257347584 
-0.5979784727 -19.19158554 -1.848838449 0.925742805 
0.2562988102 -19.19704628 -1.848632574 0.925750792 
0.9065331817 -15.65340805 -1.509777784 0.9389353991 
2.808202982 -18.98593712 -1.848026991 0.9257740974 
4.429951191 -15.38586426 -1.541672826 0.9376862645 
7.045063496 -16.0406971 -1.686946511 0.9320185184 
7.911879539 -16.03623962 -1.721822262 0.9306629896 
9.767309189 -16.02667999 -1.807194948 0.9273529649 
12.72020435 -14.34821224 -1.846326351 0.9258397222 
13.94026375 -13.15629864 -1.845686197 0.9258645177 
15.05192089 -11.86323261 -1.845376849 0.9258764386 
16.49471092 -9.75296402 -1.845122814 0.9258862138 
18.72020531 -8.927360535 -1.997023463 0.9200351834 
19.09823036 -8.085561752 -1.9969697 0.9200374484 
19.43861771 -7.227841854 -1.996925592 0.9200389981 
19.74053574 -6.355871677 -1.996891379 0.920040369 
20.00350761 -5.471376896 -1.996867299 0.9200412035 
20.41045189 -3.671799183 -1.996848822 0.9200419188 
20.55363274 -2.760244131 -1.996854663 0.9200417399 
20.71891022 0.9225634336 -1.996977687 0.9200369716 
20.6579113 1.843366623 -1.997033 0.9200348854 
20.55614853 2.760568857 -1.997098207 0.9200323224 
20.4137516 3.672394991 -1.997172832 0.920029521 
20.23101044 4.577026367 -1.997256756 0.9200263619 
17.65069389 7.472700119 -1.845606089 0.9258675575 
17.30192375 8.250990868 -1.845724344 0.925862968 
16.91380882 9.010394096 -1.845294356 0.9258795977 
15.55022907 11.17150879 -1.843657017 0.9259428978 
10.96089363 8.638890266 -1.343814969 0.9454612136 
14.48824692 12.50290966 -1.842700601 0.9259798527 
10.64831066 12.01118183 -1.545610309 0.9375328422 
10.40761185 12.84843349 -1.592123628 0.9357141852 
8.053017616 11.97992134 -1.389921784 0.9436432719 
6.584630966 11.9723568 -1.315657377 0.9465728998 
5.905147552 11.96885395 -1.285095811 0.9477806687 
5.285915375 18.35875893 -1.839561105 0.9261012077 
4.464018345 18.57568169 -1.839558005 0.9261013269 
1.952099562 19.00673676 -1.839769244 0.9260932207 
1.104765654 19.07625198 -1.839910984 0.9260876775 
-0.5952343345 19.10298729 -1.840300918 0.9260725975 
-1.452824712 19.16857529 -1.851017118 0.925658524 
-2.306706429 19.1067791 -1.853128672 0.9255768657 
-3.157951593 19.0067997 -1.855235577 0.9254956245 
-3.157432795 14.87621689 -1.464317322 0.9407181144 
-6.994092464 19.60735512 -2.004490852 0.9197486043 
-6.860058308 16.82572937 -1.749616861 0.9295840859 
