# .PCD v0.7 - Point Cloud Data file format
VERSION 0.7
FIELDS x y z intensities
SIZE 4 4 4 4
TYPE F F F F
COUNT 1 1 1 1
WIDTH 925
HEIGHT 1
VIEWPOINT 0 0 0 1 0 0 0
POINTS 925
DATA ascii
6.517446041 -10.27790546 -1.849873304 0.9519528747 
8.891540527 -9.676972389 -1.997545004 0.9482184052 
9.336709023 -9.295268059 -2.002586842 0.9480911493 
9.741217613 -8.870946884 -2.002637625 0.948089838 
10.83602238 -7.496005535 -2.002780199 0.9480862617 
11.4598875 -6.503527641 -2.002865553 0.9480840564 
11.99298286 -5.45945549 -2.002942562 0.9480822682 
12.6135788 -3.814785004 -2.003041267 0.9480796456 
12.77096176 -3.249963284 -2.003069401 0.94807899 
12.90306568 -2.678679228 -2.00309515 0.9480782747 
13.00959396 -2.102077484 -2.003118038 0.9480777383 
13.09035587 -1.52130127 -2.003138542 0.9480772018 
13.14518547 -0.9374975562 -2.003156424 0.9480767846 
13.17397404 -0.3518212736 -2.003171444 0.948076427 
13.10378838 1.40478754 -2.003200531 0.9480756521 
13.02834415 1.986306071 -2.003204823 0.9480755925 
12.92709732 2.563886642 -2.003206491 0.9480755329 
12.80023861 3.136396408 -2.003205061 0.9480755925 
12.64803219 3.702682972 -2.003201008 0.9480756521 
12.26877689 4.812158108 -2.003184557 0.9480760694 
12.04249954 5.353117466 -2.003172398 0.9480763674 
11.20539761 6.227931976 -1.948627114 0.9494538903 
10.36817646 6.382224083 -1.850619793 0.95193398 
10.07389355 6.837036133 -1.850598574 0.9519345164 
9.073888779 8.116687775 -1.850521207 0.9519364834 
8.314052582 8.888393402 -1.849965215 0.9519505501 
7.908825397 9.247550011 -1.84958756 0.9519601464 
7.488161564 9.588328362 -1.849225283 0.9519693255 
7.052912235 9.910079002 -1.848879218 0.9519780874 
5.183433533 10.99507141 -1.847668767 0.9520087838 
3.153278828 11.73335552 -1.846763253 0.952031672 
2.097576857 11.96505737 -1.84643662 0.9520400167 
1.563143253 12.04566097 -1.846305251 0.9520433545 
0.4862951636 12.13562393 -1.846107602 0.9520483613 
-0.05402587727 12.1448288 -1.846043468 0.952049911 
-1.670006037 12.02920723 -1.84598732 0.9520513415 
-3.317924738 8.803109169 -1.429967046 0.962652564 
-4.802579403 11.20462513 -1.852969885 0.9518744946 
-6.237775803 10.44325924 -1.848993182 0.9519751668 
-8.195527077 10.30373192 -2.001186848 0.9481264949 
-10.26584339 8.240208626 -2.000927925 0.9481330514 
-10.62197495 7.775202274 -2.000879526 0.9481342435 
-11.82979012 5.77119875 -2.000708103 0.948138535 
-12.29547787 4.69677496 -2.000636816 0.9481403232 
-12.4920311 4.145114422 -2.00060463 0.9481411576 
-12.9320631 2.445471048 -2.000522614 0.9481432438 
-13.09796333 1.286376953 -2.00048089 0.9481442571 
-13.15235519 -0.4684326053 -2.000437975 0.9481453896 
-13.05856133 -1.635539532 -2.000422716 0.9481458068 
-12.86150074 -2.78969717 -2.000418663 0.9481458664 
-12.37585449 -4.476755142 -2.000433922 0.9481455088 
-11.3880291 -6.597421646 -2.000491381 0.9481440187 
-9.652165413 -8.94826889 -2.000622034 0.9481407404 
-7.915932655 -10.51665497 -2.000769377 0.9481369257 
-7.440378189 -10.85859871 -2.000811577 0.948135972 
-6.950158596 -11.17908192 -2.000857115 0.9481347799 
-5.477917194 -10.858325 -1.848614454 0.9519848228 
-4.491376877 -11.30280209 -1.848707676 0.9519824386 
-3.984267473 -11.49169445 -1.848756552 0.9519812465 
-3.469221115 -11.65787125 -1.84880662 0.9519799352 
-2.947292328 -11.80099106 -1.84885788 0.9519786239 
-1.88687253 -12.01693535 -1.848963618 0.9519758821 
2.420148849 -11.9239912 -1.849413276 0.9519645572 
2.94826889 -11.80490685 -1.849470615 0.9519630671 
3.470576048 -11.66241455 -1.849527836 0.9519616961 
3.986049652 -11.49685001 -1.849584937 0.951960206 
4.493657112 -11.30850601 -1.849641562 0.9519587755 
5.481291294 -10.86501217 -1.849753499 0.9519559741 
6.425653934 -10.33545399 -1.849862576 0.9519531727 
7.998659611 -9.696833611 -1.910664797 0.9504137039 
8.737199783 -9.680478096 -1.982143164 0.9486072063 
9.253593445 -9.377926826 -2.00257659 0.9480913877 
10.42023945 -8.063439369 -2.002725124 0.9480876327 
10.7688446 -7.592096806 -2.002771139 0.9480865002 
11.09614468 -7.105715275 -2.002815247 0.9480853677 
11.40149403 -6.605224609 -2.002857208 0.9480842948 
11.6842308 -6.091620922 -2.002897501 0.9480834603 
11.9438982 -5.565937519 -2.002935171 0.9480823874 
12.39175797 -4.482504845 -2.003004313 0.9480805993 
12.5790844 -3.926892042 -2.003035307 0.9480798244 
12.74149132 -3.36350584 -2.003064156 0.9480791092 
12.87866402 -2.793420315 -2.003090143 0.9480784535 
12.99032974 -2.217795372 -2.003113747 0.9480778575 
13.17821026 0.1173071265 -2.003181696 0.9480761886 
13.11575413 1.288120031 -2.003199577 0.9480757117 
13.04550743 1.870288014 -2.003204346 0.9480755329 
12.31114483 4.702763557 -2.003186703 0.9480760098 
11.43562031 6.223295689 -1.978949189 0.9486878514 
10.42460155 6.289692402 -1.850623727 0.9519338608 
10.13437748 6.74711895 -1.850602984 0.9519343972 
9.494314194 7.620985985 -1.850554585 0.9519356489 
8.778844833 8.434138298 -1.850437522 0.9519385695 
7.573488712 9.521679878 -1.84929657 0.9519674778 
4.788311481 11.17133045 -1.847462296 0.9520139694 
2.733488798 11.83723927 -1.846621394 0.9520353079 
1.670269728 12.03144264 -1.84632957 0.9520426989 
0.05403320119 12.14489746 -1.846053481 0.9520496726 
-1.02557373 12.10118008 -1.845986009 0.9520514011 
-1.562861323 12.04358101 -1.845984936 0.9520514011 
-2.633598566 11.8863287 -1.850549221 0.9519357681 
-3.16166997 11.7645874 -1.851679683 0.9519071579 
-3.212840557 8.759775162 -1.418226838 0.9629534483 
-4.703308105 11.24849606 -1.853227019 0.951867938 
-5.195451736 11.02056408 -1.85195303 0.9519001842 
-5.676713943 10.77124882 -1.850701094 0.9519319534 
-6.144579887 10.49843693 -1.84900403 0.9519749284 
-7.149681091 11.05608749 -2.001311064 0.9481233358 
-8.103580475 10.37629604 -2.001197815 0.9481261969 
-10.55274773 7.869479656 -2.000889063 0.9481329918 
-10.89174747 7.392109394 -2.000841141 0.9481352568 
-11.50516129 6.39453125 -2.000755072 0.9481373429 
-11.77799034 5.876298904 -2.000715733 0.9481383562 
-12.02751446 5.346449852 -2.000678539 0.9481393099 
-12.25321293 4.806049824 -2.000643492 0.948140204 
-12.45467758 4.256159782 -2.000610828 0.9481409788 
-12.63148212 3.697868586 -2.000580788 0.9481417537 
-12.78332043 3.132219076 -2.000552893 0.9481424093 
-12.90982151 2.56043458 -2.000527382 0.9481431246 
-13.01079559 1.983608365 -2.000504732 0.948143661 
-13.08600807 1.402856469 -2.000484467 0.9481442571 
-13.15601254 -0.3513500988 -2.000440121 0.94814533 
-13.07261467 -1.519235849 -2.000423908 0.9481457472 
-12.75406933 -3.245661497 -2.000420094 0.9481458664 
-12.59714317 -3.809770346 -2.000424385 0.9481455684 
-11.44625187 -6.49582243 -2.000487328 0.9481441379 
-11.1460743 -6.998635292 -2.000507832 0.9481436014 
-10.115798 -8.420219421 -2.000585079 0.9481416345 
-9.731359482 -8.862001419 -2.000615597 0.9481409192 
-9.327677727 -9.286272049 -2.000648499 0.9481400251 
-8.905509949 -9.692174911 -2.000684023 0.9481391907 
-8.465712547 -10.07893085 -2.000721455 0.9481381774 
-8.009138107 -10.44573689 -2.000761271 0.9481372237 
-7.536711216 -10.79189682 -2.000802994 0.9481361508 
-6.548017502 -11.41956043 -2.000895023 0.9481338263 
-5.088102818 -11.04662132 -1.848651052 0.9519838691 
-3.572783232 -11.62649632 -1.848796487 0.9519801736 
-3.052148342 -11.7742281 -1.848847508 0.9519789219 
-1.457980871 -12.07674789 -1.849006891 0.9519748688 
0.7033837438 -12.14556408 -1.84923017 0.9519692063 
1.243005395 -12.10261917 -1.849287271 0.9519677758 
2.313903809 -11.94499683 -1.849401832 0.9519647956 
2.843054056 -11.83059025 -1.849459171 0.9519634247 
3.366606474 -11.69277763 -1.849516392 0.9519619346 
3.883532524 -11.53180599 -1.849573493 0.9519605041 
5.864692211 -10.66328621 -1.849797487 0.951954782 
6.789621353 -10.10042477 -1.849905372 0.9519520998 
7.857204437 -9.699885368 -1.897415519 0.95074898 
8.585122108 -9.683898926 -1.967119455 0.9489866495 
9.974709511 -8.607880592 -2.002667427 0.9480890632 
10.34798527 -8.155827522 -2.002715826 0.9480879307 
11.03241158 -7.204167366 -2.002806425 0.9480856061 
11.34219933 -6.706418514 -2.002849102 0.9480845332 
11.62952614 -6.195363522 -2.002889395 0.9480835199 
12.71103954 -3.476723671 -2.003058434 0.9480792284 
13.17872524 4.882812391e-06 -2.003179312 0.9480761886 
13.16575432 0.5862377882 -2.003190041 0.9480759501 
13.06164074 1.75409174 -2.00320363 0.9480755329 
12.97069073 2.333383799 -2.003206015 0.9480755329 
12.85404778 2.908056498 -2.003206015 0.9480755329 
12.54464531 4.039040565 -2.003197193 0.9480757117 
12.35250187 4.593049049 -2.003188848 0.9480759501 
11.63103485 6.19615221 -2.003147125 0.948077023 
10.19402599 6.656694412 -1.850607395 0.9519343376 
9.21697998 7.95396471 -1.85053277 0.9519361258 
8.072824478 9.106040955 -1.849736691 0.9519563317 
6.785124302 10.09372616 -1.848679662 0.9519831538 
5.378620625 10.90171528 -1.847776651 0.9520059824 
3.878218889 11.5160265 -1.847043514 0.9520246387 
3.361737013 11.67585278 -1.84683907 0.9520298243 
2.838742495 11.81266212 -1.846655488 0.9520344734 
2.310266018 11.92620182 -1.846494198 0.9520385265 
-0.3782275319 12.13887405 -1.846017003 0.9520506263 
-2.527385235 11.90783787 -1.850322127 0.9519414902 
-3.056500196 11.79081631 -1.851454377 0.9519128203 
-3.580145121 11.65024281 -1.852576852 0.9518843889 
-3.132750273 8.782335281 -1.417310715 0.9629769325 
-4.603691101 11.29146957 -1.853485227 0.9518613815 
-5.097890377 11.06786633 -1.852205515 0.9518938065 
-5.581401348 10.82279301 -1.850951672 0.9519255757 
-6.050976276 10.55274677 -1.849014878 0.95197469 
-7.538452148 10.79437923 -2.001265287 0.9481245279 
-8.010939598 10.44808578 -2.001209021 0.9481258988 
-8.467535973 10.08110046 -2.001153708 0.9481273293 
-8.907370567 9.694190025 -2.001100063 0.9481286407 
-9.329538345 9.288129807 -2.00104785 0.948129952 
-10.48198223 7.963141918 -2.0008986 0.9481337667 
-11.44785881 6.496667385 -2.000763178 0.9481371641 
-11.7252903 5.980868816 -2.000723362 0.9481381774 
-12.21001911 4.914889812 -2.000650167 0.9481400251 
-12.75495052 3.245883703 -2.000558376 0.9481423497 
-12.99264622 2.099340677 -2.000509024 0.9481436014 
-13.07303715 1.519289494 -2.000488281 0.9481441379 
-13.12756062 0.9362401962 -2.0004704 0.9481445551 
-13.15611076 0.3513427675 -2.000454903 0.9481449723 
-13.15862751 -0.234223634 -2.000442266 0.94814533 
-13.13512421 -0.8193310499 -2.000432253 0.9481455088 
-13.08562946 -1.402817369 -2.000424862 0.9481456876 
-12.90911388 -2.56035161 -2.000418663 0.9481458664 
-12.78243637 -3.132062912 -2.000419617 0.9481458664 
-12.63048077 -3.697573185 -2.000423431 0.9481457472 
-12.25195503 -4.805559158 -2.000439405 0.9481453896 
-11.77651596 -5.875566483 -2.000466108 0.9481446743 
-11.20790482 -6.899128437 -2.00050354 0.9481437206 
-10.55061531 -7.868161678 -2.000551462 0.9481425285 
-10.19030952 -8.329816818 -2.000579119 0.9481418133 
-8.99139595 -9.612487793 -2.000676632 0.9481393695 
-8.555066109 -10.00313473 -2.000713825 0.9481383562 
-8.101723671 -10.37402534 -2.000753164 0.9481374621 
-7.147949219 -11.05351543 -2.000838518 0.9481352568 
-6.649328232 -11.36081028 -2.000885725 0.9481340647 
-5.916684628 -11.22661114 -1.928937674 0.9499515295 
-4.691781998 -11.22096157 -1.848688602 0.9519829154 
-3.676113129 -11.59416199 -1.848786473 0.951980412 
-2.631235361 -11.87567139 -1.848889112 0.9519777894 
-2.100417376 -11.98129845 -1.848942161 0.9519764781 
-1.565412521 -12.06323242 -1.848996043 0.9519751072 
-1.027275324 -12.12127876 -1.849050879 0.9519737363 
0.05412353575 -12.16533661 -1.849162221 0.9519709349 
0.5952416658 -12.15126705 -1.849218845 0.9519695044 
1.673039556 -12.0510149 -1.849333048 0.9519665837 
2.207521915 -11.96502399 -1.849390388 0.9519651532 
3.780756712 -11.56583023 -1.849562168 0.9519608021 
4.291637897 -11.38654804 -1.849618912 0.951959312 
4.794043064 -11.18470669 -1.849675417 0.9519579411 
5.286987305 -10.96070766 -1.849731207 0.9519565105 
6.240627289 -10.44805622 -1.849841118 0.9519537091 
6.699413776 -10.16040707 -1.849894643 0.9519523382 
7.144943714 -9.852612495 -1.849947453 0.9519510269 
8.435282707 -9.687246323 -1.952466965 0.9493567944 
11.28205013 -6.807045937 -2.002840757 0.948084712 
11.84285831 -5.777587891 -2.002920389 0.9480827451 
12.08838367 -5.24514389 -2.002956867 0.9480817914 
12.30994606 -4.702304363 -2.002991199 0.9480808973 
12.50712395 -4.150126934 -2.003023386 0.9480801225 
12.8268528 -3.022172689 -2.003079891 0.948078692 
12.9487524 -2.448627949 -2.003104448 0.9480780959 
13.04499245 -1.870212317 -2.003126621 0.9480775595 
13.11540985 -1.288093209 -2.003145933 0.948077023 
13.15982437 -0.7033984065 -2.003162861 0.9480766654 
13.0767231 1.637814879 -2.003202677 0.9480755925 
12.8794117 2.79358387 -2.003206253 0.9480755329 
12.58011246 3.927223921 -2.003198624 0.9480757117 
12.39291763 4.482922077 -2.003190756 0.9480758905 
11.68574715 6.09239006 -2.003150702 0.9480769038 
10.76539516 6.236703873 -1.891115546 0.9509084225 
9.950566292 7.015209675 -1.850589514 0.9519347548 
7.742353439 9.386108398 -1.849440694 0.9519638419 
7.315756798 9.719353676 -1.849084854 0.9519729018 
5.475607872 10.85373306 -1.847831726 0.9520046115 
4.488006592 11.29428196 -1.847315431 0.9520177245 
3.980661631 11.48132992 -1.847086787 0.9520235062 
2.416374445 11.9053669 -1.846524358 0.9520377517 
1.884241939 12.0001421 -1.846381307 0.9520413876 
-0.2702172697 12.14181614 -1.846025229 0.9520504475 
-0.8100414872 12.11755753 -1.845992804 0.9520512819 
-1.348266602 12.06946659 -1.845982671 0.9520515203 
-1.883839011 11.9976368 -1.84599483 0.9520511627 
-5.485588074 10.87352848 -1.851202607 0.951919198 
-6.422565937 10.33047009 -1.848971725 0.9519757628 
-7.442112923 10.86112309 -2.001276731 0.9481242299 
-7.917662144 10.5190258 -2.001219988 0.9481256604 
-8.37755394 10.15608501 -2.001164913 0.9481270909 
-8.820840836 9.773107529 -2.001110792 0.9481283426 
-9.246572495 9.370814323 -2.001058102 0.9481297135 
-10.04234505 8.511469841 -2.000957251 0.9481322765 
-10.75856304 7.584855556 -2.000860214 0.9481347799 
-11.38963795 6.598339558 -2.000771523 0.9481369257 
-11.9305315 5.55970192 -2.000693083 0.9481389523 
-12.56373501 3.922109365 -2.00059247 0.9481415153 
-12.97347355 2.21491456 -2.000513554 0.9481434822 
-13.059021 1.635539532 -2.000492334 0.9481440187 
-13.11873531 1.052998066 -2.000473738 0.9481444955 
-13.15247059 0.4683862329 -2.000457764 0.9481449127 
-13.16021442 -0.1171459928 -2.000444412 0.9481452107 
-12.93139362 -2.445346594 -2.000418901 0.9481458068 
-12.80981159 -3.018156767 -2.000419378 0.9481458664 
-12.66289806 -3.585004807 -2.000422478 0.9481457472 
-12.4907074 -4.144975662 -2.000428677 0.9481461048 
-12.29423523 -4.696308613 -2.000437498 0.9481454492 
-11.26886177 -6.799081802 -2.000499487 0.9481437802 
-10.95535851 -7.29370594 -2.000521421 0.9481433034 
-10.26398945 -8.238793373 -2.000573397 0.9481419921 
-9.491400719 -9.118727684 -2.000635147 0.9481403828 
-8.193713188 -10.30145741 -2.000745058 0.948137641 
-7.727519512 -10.65596199 -2.000786066 0.9481365681 
-6.75015831 -11.30111313 -2.000875711 0.9481343031 
-5.28385973 -10.95420647 -1.848632574 0.9519843459 
-4.791454792 -11.17869377 -1.848679185 0.9519831538 
-4.28955555 -11.38106632 -1.848727107 0.9519819021 
-2.206913948 -11.96205997 -1.848931551 0.9519767761 
-1.672668457 -12.04874992 -1.848985195 0.9519754052 
-0.0541186519 -12.16527271 -1.849151134 0.9519711733 
1.02739501 -12.12267017 -1.849264383 0.9519683719 
1.565695763 -12.06534672 -1.849321604 0.9519668818 
2.100910664 -11.98413563 -1.849378824 0.9519653916 
2.632016659 -11.879179 -1.849436283 0.9519639611 
3.157934427 -11.75070763 -1.849493504 0.951962471 
4.190090179 -11.42423058 -1.849607706 0.95195961 
4.694270134 -11.22688007 -1.849664092 0.9519581795 
6.147382736 -10.5031004 -1.84983027 0.9519540071 
8.999757767 -9.621464729 -2.002545118 0.9480922818 
9.419128418 -9.211826324 -2.002597094 0.9480909109 
10.20110321 -8.338629723 -2.002696753 0.9480883479 
10.56219006 -7.876786709 -2.002743721 0.9480871558 
11.22095394 -6.907165527 -2.002832174 0.9480849504 
11.51733112 -6.401300907 -2.002873659 0.9480839372 
11.79095173 -5.882741451 -2.00291276 0.9480828643 
12.26755619 -4.811674595 -2.002984524 0.9480810761 
12.64706993 -3.702373028 -2.003047228 0.9480795264 
12.79942799 -3.136166811 -2.003074646 0.9480788112 
12.9264307 -2.563735247 -2.00309968 0.9480781555 
13.02781677 -1.986201167 -2.00312233 0.9480776191 
13.15304184 -0.8204491735 -2.003159523 0.9480766654 
13.17660332 -0.2345458865 -2.003174305 0.9480763078 
13.17407227 0.3518310487 -2.003186226 0.9480760098 
13.14545155 0.9375146031 -2.003195286 0.9480757713 
13.09077835 1.521345139 -2.003201723 0.9480755925 
13.010149 2.102167845 -2.003205538 0.9480755925 
12.77182388 3.250178099 -2.003204584 0.9480755925 
12.43232918 4.372436523 -2.003192663 0.9480758905 
11.73950672 5.988190651 -2.003154039 0.9480768442 
10.9820652 6.232397556 -1.919360638 0.9501937628 
10.01261711 6.926420689 -1.850594163 0.9519346356 
9.357131004 7.788703442 -1.850543737 0.9519358873 
9.001250267 8.197112083 -1.850515366 0.9519366622 
8.626601219 8.588301659 -1.85027802 0.9519426227 
7.8259058 9.317193031 -1.849513769 0.9519619942 
7.402263165 9.654223442 -1.84915483 0.9519710541 
6.964189529 9.972089767 -1.848812103 0.9519797564 
6.512551308 10.27019119 -1.848486185 0.9519880414 
4.082753658 11.44572258 -1.847131014 0.9520223737 
3.569162607 11.61467457 -1.846918464 0.9520277977 
3.048649788 11.76072502 -1.846726537 0.9520326257 
1.455837369 12.05895233 -1.846281409 0.952043891 
0.9179186821 12.11108494 -1.846176147 0.9520465732 
0.3782494962 12.1393919 -1.84609282 0.9520486593 
-0.1621301174 12.1438036 -1.846034408 0.9520501494 
-1.240779996 12.08099937 -1.845982909 0.9520514607 
-2.314486027 11.94799042 -1.849866867 0.9519530535 
-4.403233528 11.37480164 -1.854004741 0.9518482089 
-4.901448727 11.15990067 -1.852714062 0.9518809319 
-5.862259388 10.65890026 -1.849036694 0.9519741535 
-6.330435753 10.3872633 -1.848982334 0.9519754648 
-7.345232964 10.9269619 -2.001288176 0.9481239319 
-8.733509064 9.851288795 -2.001121521 0.9481281638 
-9.162835121 9.452793121 -2.001068592 0.9481294751 
-9.574027061 9.035611153 -2.001017094 0.9481307268 
-10.69068623 7.680362225 -2.000869751 0.9481344819 
-11.02148914 7.197021484 -2.000822306 0.948135674 
-11.33048534 6.699487209 -2.000779629 0.9481367469 
-11.8806324 5.665649414 -2.000700474 0.9481387734 
-12.33675289 4.587128639 -2.00063014 0.948140502 
-12.52839088 4.033747673 -2.000598669 0.9481413364 
-13.04397392 1.751723647 -2.000496387 0.9481438994 
-13.10886478 1.169733882 -2.000477314 0.9481443763 
-13.16075897 -2.441406195e-06 -2.000446796 0.9481451511 
-13.04348373 -1.751652837 -2.000421762 0.9481458068 
-12.95264149 -2.33013916 -2.000418901 0.9481458664 
-12.69429398 -3.472143412 -2.000421524 0.9481458068 
-12.33552265 -4.58673811 -2.000435829 0.9481454492 
-12.11934566 -5.130949497 -2.00044632 0.9481451511 
-11.61552906 -6.187892914 -2.00047636 0.9481443763 
-11.32887173 -6.698534966 -2.000495195 0.948143959 
-11.01980209 -7.195934772 -2.000516891 0.948143363 
-9.964394569 -8.598972321 -2.000597 0.9481413364 
-9.160979271 -9.450871468 -2.000662565 0.9481397271 
-8.731674194 -9.849210739 -2.000698566 0.9481387734 
-6.343742371 -11.53442383 -2.000913858 0.948133409 
-5.381071568 -10.90670395 -1.848623633 0.9519845843 
-4.890705585 -11.13554859 -1.848669648 0.9519834518 
-4.390627384 -11.34239483 -1.848717332 0.9519821405 
-3.365331888 -11.68836403 -1.848816752 0.9519796371 
-0.7033251524 -12.14458942 -1.84908402 0.9519729614 
-0.1623974591 -12.16423798 -1.84913981 0.9519714713 
0.3788818419 -12.15977955 -1.849196076 0.9519701004 
1.458220124 -12.07873535 -1.84931016 0.9519671798 
2.526157141 -11.90206242 -1.84942472 0.9519642591 
3.57427001 -11.63113213 -1.84953928 0.9519613981 
4.088254452 -11.46098137 -1.849596381 0.951959908 
4.594169617 -11.26811981 -1.849652767 0.9519584775 
6.517446041 -10.27790546 -1.849873304 0.9519528747 
6.968388557 -9.978100777 -1.849926353 0.9519515634 
10.12642097 -8.429067612 -2.002686977 0.9480885863 
11.4598732 -6.503493309 -2.002865553 0.9480841756 
11.99302006 -5.459423542 -2.002942562 0.948082149 
12.6135788 -3.814785004 -2.003041267 0.9480796456 
12.90306568 -2.678679228 -2.00309515 0.9480782747 
13.00959396 -2.102077484 -2.003118038 0.9480777383 
13.17667484 0.2345483303 -2.00318408 0.9480760694 
12.8002367 3.136423349 -2.003205061 0.9480755329 
12.64802265 3.702709913 -2.003201008 0.9480756521 
12.47075653 4.261662483 -2.003194332 0.9480758309 
12.26877689 4.812158108 -2.003184557 0.9480760694 
11.20539761 6.227931976 -1.948627114 0.9494538903 
10.36817646 6.382224083 -1.850619793 0.95193398 
10.07389355 6.837036133 -1.850598574 0.9519345164 
9.073888779 8.116687775 -1.850521207 0.9519364834 
8.703083038 8.511544228 -1.850357413 0.9519405961 
6.603899002 10.2121973 -1.848549962 0.9519864321 
5.183433533 10.99507141 -1.847668767 0.9520087838 
4.688547134 11.21320534 -1.847412467 0.9520152807 
4.184575081 11.40920639 -1.847175837 0.9520212412 
3.153278828 11.73335552 -1.846763253 0.952031672 
2.627964973 11.8608799 -1.846587896 0.9520361423 
1.563143253 12.04566097 -1.846305251 0.9520433545 
1.025699496 12.10255337 -1.846195459 0.9520460963 
0.4862951636 12.13562393 -1.846107602 0.9520483613 
-0.05402587727 12.1448288 -1.846043468 0.952049911 
-1.670006037 12.02920723 -1.84598732 0.9520513415 
-2.739637375 11.86386776 -1.850776076 0.9519300461 
-3.266655207 11.73740196 -1.85190475 0.9519014359 
-5.292626858 10.97239685 -1.851701617 0.9519065619 
-5.767200947 10.7107172 -1.849047661 0.9519738555 
-8.645522118 9.928693771 -2.00113225 0.9481278658 
-9.078388214 9.5340271 -2.001079082 0.9481291771 
-11.27048779 6.800053596 -2.000787973 0.9481365085 
-12.07456779 5.239155293 -2.000671387 0.9481395483 
-12.4920311 4.145114422 -2.00060463 0.9481411576 
-12.66385269 3.585268497 -2.000574827 0.9481419325 
-12.81063652 3.018349648 -2.000547647 0.9481425881 
-13.0278883 1.867763638 -2.000500441 0.9481438398 
-13.09796333 1.286376953 -2.00048089 0.9481442571 
-13.14209175 0.7024511695 -2.000463724 0.9481447935 
-13.1602459 0.1170898378 -2.000449419 0.9481450915 
-13.05856133 -1.635539532 -2.000422716 0.9481458068 
-12.86150074 -2.78969717 -2.000418663 0.9481458664 
-12.72467232 -3.359060049 -2.000420809 0.9481458664 
-12.5626955 -3.921787024 -2.000425577 0.9481456876 
-12.37585449 -4.476755142 -2.000433922 0.9481455088 
-12.16451645 -5.022863865 -2.000443935 0.9481452703 
-11.92913342 -5.559054852 -2.000457048 0.9481448531 
-9.65212822 -8.948309898 -2.000622034 0.9481407404 
-8.818921089 -9.771098137 -2.000691414 0.9481389523 
-8.375688553 -10.15391827 -2.000729322 0.9481380582 
-7.915932655 -10.51665497 -2.000769377 0.9481369257 
-7.440378189 -10.85859871 -2.000811577 0.948135972 
-6.446130276 -11.47745132 -2.000904322 0.9481336474 
-3.984267473 -11.49169445 -1.848756552 0.9519812465 
-3.469221115 -11.65787125 -1.84880662 0.9519799352 
-2.947292328 -11.80099106 -1.84885788 0.9519786239 
-2.419487238 -11.9207468 -1.848910332 0.9519773126 
-1.350483418 -12.0893116 -1.849017859 0.9519745708 
-0.8113427758 -12.13778782 -1.849072933 0.9519731998 
0.270678699 -12.16260433 -1.849184871 0.9519703388 
1.887272954 -12.01947689 -1.849355936 0.9519659877 
3.470576048 -11.66241455 -1.849527836 0.9519616961 
4.493657112 -11.30850601 -1.849641562 0.9519587755 
5.481291294 -10.86501217 -1.849753499 0.9519559741 
5.959360123 -10.61074448 -1.849808455 0.9519545436 
6.425653934 -10.33545399 -1.849862576 0.9519531727 
6.879252911 -10.03967285 -1.849915862 0.9519518018 
8.737199783 -9.680478096 -1.982143164 0.9486072063 
9.661804199 -8.95727253 -2.002627611 0.9480901361 
10.42019463 -8.06348896 -2.002725124 0.9480876327 
10.7688446 -7.592096806 -2.002771139 0.9480865002 
11.0961132 -7.105759144 -2.002815247 0.9480854273 
11.40149403 -6.605224609 -2.002857208 0.9480842948 
12.17991638 -5.029157639 -2.002970934 0.9480814338 
12.39175797 -4.482504845 -2.003004313 0.9480805993 
12.5790987 -3.926850557 -2.003035307 0.9480798244 
12.74149132 -3.36350584 -2.003064156 0.9480791092 
13.11576366 1.2880615 -2.003199577 0.9480757117 
13.04550743 1.870288014 -2.003204346 0.9480755329 
12.94941139 2.448693752 -2.003206253 0.9480755329 
12.50820255 4.150488377 -2.003196001 0.9480757713 
11.84427261 5.778329849 -2.003160715 0.9480766058 
11.43562031 6.223295689 -1.978949189 0.9486878514 
8.393176079 8.814422607 -1.850042582 0.9519485831 
7.141120434 9.84725666 -1.848947048 0.9519763589 
6.694777489 10.15336895 -1.848614454 0.9519847631 
6.235373497 10.43936825 -1.848298907 0.9519928098 
5.76393795 10.7046566 -1.848001361 0.95200032 
5.281208515 10.94883251 -1.847722292 0.9520074129 
4.788311481 11.17133045 -1.847462296 0.9520139694 
4.286020279 11.37180042 -1.847221613 0.9520201087 
3.257609844 11.70506573 -1.846800804 0.9520307779 
2.733488798 11.83723927 -1.846621394 0.9520353079 
2.203984261 11.94610691 -1.84646523 0.9520393014 
1.670320988 12.03143787 -1.84632957 0.9520426989 
0.5942980647 12.1309309 -1.846123457 0.9520478845 
0.05403320119 12.14489746 -1.846053481 0.9520496726 
-0.4862072766 12.1349802 -1.846009493 0.9520508051 
-2.100627422 11.98248672 -1.849127293 0.9519718289 
-2.63364625 11.88630486 -1.850549221 0.9519358277 
-3.16166997 11.7645874 -1.851679683 0.9519071579 
-5.676753998 10.77122307 -1.850700974 0.9519319534 
-6.144579887 10.49843693 -1.84900403 0.9519749284 
-7.634152889 10.72683048 -2.001253843 0.9481247663 
-9.411761284 9.204696655 -2.001037598 0.94813025 
-10.55274773 7.869479656 -2.000889063 0.9481329918 
-10.89177704 7.39206028 -2.000841141 0.9481352568 
-11.77799034 5.876298904 -2.000715733 0.9481383562 
-12.45469475 4.256108284 -2.000610828 0.9481409788 
-12.90981865 2.560490608 -2.000527382 0.948143065 
-13.01079559 1.983608365 -2.000504732 0.948143661 
-13.13535595 0.8193529844 -2.000467062 0.9481446147 
-13.15869331 0.2342822254 -2.00045228 0.9481450319 
-13.07261467 -1.519235849 -2.000423908 0.9481457472 
-12.99206066 -2.099301815 -2.000419855 0.9481458068 
-12.59714317 -3.809770346 -2.000424385 0.9481455684 
-12.20874214 -4.91438961 -2.000441551 0.9481452703 
-11.97809315 -5.452685356 -2.000454187 0.9481449723 
-11.72379589 -5.98011446 -2.000469446 0.9481446147 
-11.44625187 -6.49582243 -2.000487328 0.9481441379 
-9.327677727 -9.286272049 -2.000648499 0.9481400251 
-8.905473709 -9.692216873 -2.000684023 0.9481391311 
-8.465712547 -10.07893085 -2.000721455 0.9481381774 
-8.009091377 -10.44576836 -2.000761271 0.9481372237 
-7.049304008 -11.11675739 -2.000847816 0.9481350183 
-6.548017502 -11.41956043 -2.000895023 0.9481338263 
-5.088102818 -11.04662132 -1.848651052 0.9519838691 
-3.572783232 -11.62649632 -1.848796487 0.9519801736 
-3.052199602 -11.7742157 -1.848847508 0.9519789219 
-2.525436878 -11.89868164 -1.848899603 0.951977551 
-1.457980871 -12.07674789 -1.849006891 0.9519748688 
-0.9194018245 -12.13000202 -1.849061847 0.9519734979 
-0.3788647354 -12.15927219 -1.849117398 0.9519720078 
1.243056655 -12.1026125 -1.849287271 0.9519677758 
1.780195236 -12.03572273 -1.849344492 0.9519662857 
2.313955069 -11.94498253 -1.849401832 0.9519648552 
2.843054056 -11.83059025 -1.849459171 0.9519634247 
3.366664886 -11.69277763 -1.849516392 0.951961875 
3.883532524 -11.53180599 -1.849573493 0.9519605041 
4.392839432 -11.34796619 -1.849630237 0.9519590735 
4.893393517 -11.14168167 -1.849686503 0.951957643 
5.38437748 -10.91327858 -1.849742413 0.9519562721 
5.864643574 -10.66331005 -1.849797487 0.9519548416 
6.789577484 -10.10045147 -1.849905372 0.9519520998 
7.232409477 -9.788683891 -1.849957824 0.9519507289 
8.585122108 -9.683898926 -1.967119455 0.9489866495 
9.974738121 -8.607831955 -2.002667427 0.9480891228 
10.34798527 -8.155827522 -2.002715826 0.9480879307 
11.03241158 -7.204167366 -2.002806425 0.9480856061 
11.62952614 -6.195363522 -2.002889395 0.9480835199 
11.89386463 -5.671955585 -2.002928019 0.9480825663 
12.13459969 -5.137409687 -2.00296402 0.9480816126 
12.35134697 -4.592560768 -2.002997875 0.9480807781 
12.54359627 -4.038701057 -2.003029346 0.9480799437 
12.71103954 -3.476723671 -2.003058434 0.9480792284 
13.12638664 -1.171293974 -2.003149509 0.9480769038 
13.16560268 -0.5861743093 -2.00316596 0.9480764866 
13.17872524 4.882812391e-06 -2.003179312 0.9480761886 
13.12669373 1.171325684 -2.003198147 0.9480757117 
13.06163025 1.754145503 -2.00320363 0.9480755329 
12.71195984 3.476974964 -2.003203154 0.9480755329 
12.54464531 4.039040565 -2.003197193 0.9480757117 
12.3525238 4.592998028 -2.003188848 0.9480759501 
10.19402599 6.656694412 -1.850607395 0.9519343376 
9.561799049 7.536183834 -1.85055995 0.9519355297 
9.21694088 7.953999996 -1.85053277 0.9519361854 
7.65819788 9.45429039 -1.849368215 0.9519656897 
7.228715897 9.783688545 -1.849015713 0.9519746304 
6.785075665 10.09375572 -1.848679662 0.9519831538 
5.859138012 10.65329933 -1.848059297 0.9519988298 
5.378664494 10.9016943 -1.847776651 0.9520059824 
3.878218889 11.5160265 -1.847043514 0.9520246387 
3.361789465 11.67583942 -1.846839309 0.9520297647 
2.838742495 11.81266212 -1.846655488 0.9520344734 
2.310319662 11.92619038 -1.846494198 0.9520385265 
1.7773242 12.01626205 -1.846355081 0.9520420432 
1.240909338 12.08266735 -1.846236706 0.9520450234 
0.1620873958 12.14401436 -1.84606564 0.9520493746 
-0.3782275319 12.13887405 -1.846017003 0.9520506263 
-0.9178723097 12.10984993 -1.845988989 0.9520513415 
-1.455595613 12.05700302 -1.845983267 0.9520514607 
-1.990561485 11.98042488 -1.845999002 0.9520510435 
-3.580095053 11.65025806 -1.852576733 0.9518843889 
-3.132750273 8.782335281 -1.417310715 0.9629769325 
-4.603640079 11.29149723 -1.853485346 0.9518613815 
-5.581353664 10.82281971 -1.850951672 0.9519255757 
-6.050976276 10.55274677 -1.849014878 0.95197469 
-7.538452148 10.79437923 -2.001265287 0.9481245279 
-8.010979652 10.44804096 -2.001209021 0.9481258988 
-8.467535973 10.08110046 -2.001153708 0.9481273293 
-8.907400131 9.694148064 -2.001100063 0.9481287003 
-9.733151436 8.863648415 -2.000997066 0.9481315613 
-10.48202229 7.963104248 -2.0008986 0.948133707 
-11.14776134 6.999628544 -2.00080514 0.9481360912 
-11.7252903 5.980868816 -2.000723362 0.9481381774 
-12.41632557 4.36686039 -2.000617266 0.9481409192 
-12.59811783 3.810109854 -2.00058651 0.9481416345 
-12.75496769 3.245827675 -2.000558138 0.9481423497 
-12.88653755 2.675256252 -2.000532389 0.948143065 
-13.07303715 1.519289494 -2.000488281 0.9481441379 
-13.12756348 0.9361840487 -2.0004704 0.9481445551 
-13.15862751 -0.2342773378 -2.000442266 0.9481452703 
-13.13512421 -0.8193310499 -2.000432253 0.9481455088 
-13.08562756 -1.402873516 -2.000424862 0.9481456876 
-13.01024151 -1.983522892 -2.000420332 0.9481458068 
-12.90911388 -2.56035161 -2.000418663 0.9481458664 
-12.78245354 -3.132011652 -2.000419617 0.9481458664 
-12.45356655 -4.255727291 -2.000430346 0.9481455684 
-12.25195503 -4.805559158 -2.000439405 0.9481453896 
-12.02616882 -5.345795631 -2.000451565 0.9481450319 
-11.77651596 -5.875566483 -2.000466108 0.9481446743 
-11.50357628 -6.393720627 -2.000483751 0.9481441975 
-10.88999748 -7.390995979 -2.00052619 0.9481431842 
-10.19027805 -8.329857826 -2.000579119 0.9481418133 
-9.80982399 -8.775004387 -2.000609398 0.948141098 
-9.409892082 -9.202882767 -2.000641823 0.9481402636 
-7.147995472 -11.05348587 -2.000838518 0.9481352568 
-5.916811466 -11.22672844 -1.928964138 0.9499509335 
-4.691833496 -11.22093678 -1.848688602 0.9519829154 
-4.188110352 -11.41884995 -1.848736882 0.9519817233 
-3.676064253 -11.59417915 -1.848786473 0.951980412 
-2.631186485 -11.87568569 -1.848889112 0.9519777894 
-2.100417376 -11.98129845 -1.848942161 0.9519764781 
-1.565358877 -12.0632391 -1.848996043 0.9519751072 
-1.027275324 -12.12127876 -1.849050879 0.9519737363 
1.135219693 -12.11312962 -1.849275827 0.9519680738 
2.737665892 -11.85535622 -1.849447727 0.9519636631 
3.262375355 -11.72221184 -1.849504948 0.9519622326 
4.794043064 -11.18470669 -1.849675417 0.9519579411 
5.76950407 -10.71500015 -1.84978652 0.95195508 
6.240666389 -10.44802952 -1.849841118 0.9519537091 
6.699413776 -10.16040707 -1.849894643 0.9519523382 
7.144992352 -9.85258007 -1.849947453 0.9519510269 
8.435351372 -9.687246323 -1.952473521 0.9493566155 
9.08507061 -9.541061401 -2.002555609 0.9480919838 
9.897631645 -8.696273804 -2.002657652 0.9480893612 
10.96783161 -7.302004337 -2.002797842 0.9480858445 
11.28201866 -6.80709219 -2.002840757 0.948084712 
12.08838367 -5.24514389 -2.002956867 0.9480817914 
12.50712395 -4.150126934 -2.003023386 0.9480801225 
12.94876671 -2.448569298 -2.003104448 0.9480780363 
13.04499245 -1.870212317 -2.003126621 0.9480775595 
13.11541462 -1.28802979 -2.003145933 0.948077023 
13.17819023 -0.1172485352 -2.003176928 0.9480762482 
13.13659668 1.054487228 -2.003196716 0.9480757117 
13.07673264 1.637758732 -2.003202677 0.9480755925 
12.99094009 2.217890501 -2.003205776 0.9480755329 
12.39291763 4.482922077 -2.003190756 0.9480758905 
11.94529247 5.56658411 -2.003166676 0.9480764866 
11.68571281 6.092438698 -2.003150702 0.9480769634 
10.76539516 6.236703873 -1.891115546 0.9509084225 
10.25287819 6.565754414 -1.850611567 0.9519341588 
9.287424088 7.871618271 -1.850538254 0.9519360662 
8.927907944 8.276882172 -1.850509405 0.9519367814 
8.153852463 9.03421402 -1.849812269 0.951954484 
7.742390156 9.38607502 -1.849440932 0.9519638419 
6.874943733 10.03329468 -1.848745584 0.9519814849 
6.420656681 10.32739925 -1.848423004 0.9519896507 
5.953967094 10.60102367 -1.848118186 0.9519973993 
5.475607872 10.85373306 -1.847831726 0.9520046115 
4.488006592 11.29428196 -1.847315431 0.9520177245 
2.416374445 11.9053669 -1.846524358 0.9520377517 
1.884189367 12.00014973 -1.846381307 0.9520413876 
0.8100707531 12.11865044 -1.84615767 0.95204705 
-0.2702172697 12.14181614 -1.846025229 0.9520504475 
-1.348266602 12.06946659 -1.845982671 0.9520515203 
-1.883789062 11.99763966 -1.84599483 0.9520511627 
-2.421042442 11.92838001 -1.850094676 0.9519473314 
-2.951019287 11.81612301 -1.851228595 0.951918602 
-3.47588253 11.68024158 -1.852353215 0.9518900514 
-3.070370913 8.855665207 -1.424678802 0.9627880454 
-4.503629208 11.33358574 -1.853744507 0.951854825 
-4.999900818 11.11429405 -1.852459073 0.9518874288 
-5.95688343 10.60623837 -1.849025726 0.9519743323 
-6.422565937 10.33047009 -1.848971725 0.9519757628 
-7.917662144 10.5190258 -2.001219988 0.9481256604 
-8.37755394 10.15608501 -2.001164913 0.9481270909 
-8.820789337 9.773151398 -2.001110792 0.9481283426 
-9.653980255 8.950024605 -2.00100708 0.9481310248 
-10.04234505 8.511469841 -2.000957251 0.9481322765 
-11.08503914 7.098657131 -2.000813723 0.9481358528 
-11.38963795 6.598339558 -2.000771523 0.9481369257 
-11.67166519 6.084980488 -2.00073123 0.948137939 
-12.37703323 4.477172852 -2.000623703 0.9481406808 
-12.72559547 3.359301567 -2.000563622 0.9481421709 
-12.86226749 2.789809465 -2.000537395 0.9481428862 
-13.11873245 1.053054214 -2.000473738 0.9481444955 
-13.16021729 -0.1170971617 -2.000444412 0.9481452107 
-13.14190197 -0.7024413943 -2.000433922 0.9481455088 
-12.66286564 -3.585056067 -2.000422478 0.9481458068 
-12.29421616 -4.69635725 -2.000437498 0.9481454492 
-12.07322693 -5.238576412 -2.000448942 0.9481451511 
-11.56001949 -6.290996075 -2.000479937 0.9481443763 
-11.26882553 -6.799135685 -2.000499487 0.9481437802 
-10.26402569 -8.238754272 -2.000573397 0.9481419325 
-9.887482643 -8.687348366 -2.000603199 0.9481412172 
-8.193713188 -10.30145741 -2.000745058 0.948137641 
-7.72746563 -10.65599346 -2.000786066 0.9481366277 
-6.750104904 -11.3011322 -2.000875711 0.9481343627 
-6.211157322 -11.53522396 -1.991385341 0.9483738542 
-4.289511681 -11.38107872 -1.848727107 0.9519819617 
-3.779145479 -11.56090832 -1.84877634 0.95198071 
-3.261171818 -11.71790981 -1.848827004 0.9519794583 
-1.135073185 -12.1115818 -1.849039912 0.9519740343 
-0.0541186519 -12.16527271 -1.849151134 0.9519711733 
0.4870532155 -12.15600586 -1.84920752 0.9519698024 
1.565744638 -12.06533146 -1.849321604 0.9519669414 
2.100910664 -11.98413563 -1.849378824 0.9519653916 
2.632070303 -11.87916946 -1.849436283 0.9519639611 
3.677683115 -11.5989399 -1.849550724 0.9519610405 
4.190090179 -11.42423058 -1.849607706 0.95195961 
4.694321156 -11.22685719 -1.849664092 0.9519581795 
5.18918705 -11.00726986 -1.84972012 0.9519568086 
5.673906326 -10.76584244 -1.849775553 0.9519553781 
6.608715534 -10.21954823 -1.849884152 0.9519525766 
7.579919338 -9.705785751 -1.871880293 0.9513953924 
8.287631989 -9.690517426 -1.938180447 0.9497178793 
9.419084549 -9.211872101 -2.002597094 0.9480909109 
10.56219006 -7.876786709 -2.002743721 0.9480871558 
10.90238285 -7.399260044 -2.002789021 0.9480860829 
11.51736259 -6.401249886 -2.002873659 0.9480839372 
11.79095173 -5.882741451 -2.00291276 0.9480828643 
12.64705276 -3.702424288 -2.003047228 0.9480795264 
13.02781677 -1.986201167 -2.00312233 0.9480776191 
13.10340023 -1.404777765 -2.003142357 0.9480771422 
13.17407227 0.3518310487 -2.003186226 0.9480760098 
13.010149 2.102221727 -2.003205538 0.9480755329 
12.61456776 3.815087795 -2.003199816 0.9480757117 
11.9943552 5.46009016 -2.003169775 0.948076427 
10.9820652 6.232397556 -1.919360638 0.9501937628 
10.31095409 6.474199295 -1.850615621 0.9519340992 
9.357131004 7.788703442 -1.850543737 0.9519358873 
9.00127697 8.197071075 -1.850515366 0.9519366622 
7.40222168 9.654256821 -1.84915483 0.9519710541 
6.048239708 10.54796982 -1.848177791 0.9519958496 
5.57212162 10.8049078 -1.847887516 0.952003181 
4.082798958 11.44570923 -1.847131014 0.9520223737 
3.569162607 11.61467457 -1.846918464 0.9520277977 
2.522239923 11.88359833 -1.846555591 0.9520369768 
1.455837369 12.05895233 -1.846281409 0.952043891 
0.9179674983 12.11108112 -1.846176147 0.9520465732 
-0.1621801704 12.14380264 -1.846034408 0.9520501494 
-1.240832448 12.08099461 -1.845982909 0.9520514607 
-1.776964068 12.01389503 -1.845990658 0.9520512819 
-3.371412277 11.70928764 -1.852129221 0.9518957138 
-3.89124012 11.5546875 -1.853244424 0.9518675208 
-5.389354229 10.92336178 -1.851451516 0.9519129395 
-6.330435753 10.3872633 -1.848982334 0.9519754648 
-7.823804855 10.58910847 -2.001231432 0.9481253624 
-8.733509064 9.851288795 -2.001121521 0.9481281638 
-9.16287899 9.45275116 -2.001068592 0.9481294751 
-11.33051777 6.699438095 -2.000779629 0.9481367469 
-11.61705494 6.188708305 -2.000739098 0.9481377602 
-11.8806324 5.665649414 -2.000700474 0.9481387734 
-12.83694839 2.904247999 -2.000542402 0.948142767 
-13.04396915 1.751777291 -2.000496387 0.9481438994 
-13.14781666 0.5853881836 -2.000460863 0.9481447935 
-12.39731693 -4.882812391e-06 -2.00052619 0.9510099292 
-12.3849802 -0.5514819026 -2.000515938 0.9510101676 
-12.3481369 -1.101862788 -2.000507832 0.951010406 
-12.28687191 -1.65005362 -2.000502586 0.9510105252 
-12.20128918 -2.194990158 -2.000499964 0.9510105848 
-11.61996841 -4.320649147 -2.000514984 0.9510102272 
-11.4163332 -4.833293438 -2.000525236 0.9510099292 
-11.19010258 -5.336381912 -2.000538349 0.9510096312 
-10.3805418 -6.778483868 -2.000592232 0.9510083795 
-10.06885433 -7.233617783 -2.00061512 0.951007843 
-9.737243652 -7.674458027 -2.000640154 0.9510071874 
-9.386340141 -8.100129128 -2.000667572 0.9510065317 
-8.225099564 -9.277812004 -2.000763416 0.9510042667 
-6.917441368 -10.29060745 -2.000877857 0.9510015249 
-6.452968597 -10.58835888 -2.000919819 0.9510005116 
-5.975688457 -10.86516094 -2.000963211 0.9509994984 
-3.656596661 -10.85790539 -1.848803639 0.9546397924 
-2.677224159 -11.14051723 -1.848899603 0.9546374679 
-2.179055214 -11.24887657 -1.848949194 0.9546362758 
-0.1529687494 -11.45824432 -1.849155545 0.9546313882 
0.3568994105 -11.45403767 -1.849208474 0.9546300769 
2.379543304 -11.21118641 -1.849423766 0.9546249509 
3.366765022 -10.95596695 -1.84953177 0.9546223283 
3.850905657 -10.7956686 -1.849585414 0.954621017 
4.795451641 -10.41128159 -1.849691629 0.954618454 
6.164103985 -9.720709801 -1.857401252 0.9544337392 
8.39617157 -9.137834549 -2.002492428 0.9509630203 
8.79456234 -8.755519867 -2.00254178 0.9509617686 
9.538393021 -7.939582348 -2.002635956 0.9509595633 
10.5109396 -6.599814415 -2.00276494 0.9509565234 
10.79434586 -6.125824928 -2.002804279 0.9509555697 
11.05636978 -5.639687538 -2.002841711 0.9509546757 
11.70921803 -4.118124962 -2.002941132 0.9509522915 
12.02923298 -3.061208487 -2.002996206 0.9509509206 
12.38167477 -0.8830370903 -2.003078222 0.9509490132 
12.40880585 -0.3313842714 -2.003092527 0.9509486556 
12.41133022 0.2209350467 -2.00310421 0.9509483576 
12.38926983 0.7728271484 -2.00311327 0.9509481788 
11.74640846 4.014106274 -2.003113747 0.9509481788 
11.34304142 5.042182446 -2.003093243 0.9509486556 
11.10744095 5.541728497 -2.003079176 0.9509489536 
10.11936283 6.229057312 -1.917512417 0.952994287 
9.192827225 6.855578423 -1.850507498 0.9545989037 
8.878630638 7.257619381 -1.85048306 0.9545996189 
8.198210716 8.017790794 -1.850428104 0.9546008706 
7.055300236 9.034059525 -1.849693894 0.9546183944 
6.645277977 9.337310791 -1.849367619 0.9546262622 
6.222297192 9.622056961 -1.849057317 0.9546337128 
5.78718996 9.887749672 -1.848763347 0.9546407461 
5.340812683 10.13388443 -1.848486304 0.9546473622 
2.476256132 11.17615795 -1.847208261 0.9546780586 
1.976490378 11.27437687 -1.84706533 0.9546814561 
1.472908854 11.3503809 -1.846941471 0.9546844363 
0.4582189918 11.43521595 -1.846755385 0.9546889067 
-1.573605895 11.33498669 -1.846641541 0.9546915889 
-2.079240561 11.26975727 -1.849288583 0.9546286464 
-2.580186605 11.17345905 -1.850485086 0.9545994997 
-3.076435566 11.05397415 -1.851547599 0.9545739889 
-3.567139864 10.91238213 -1.852600217 0.9545487761 
-3.31790638 8.80307579 -1.518079638 0.9626001716 
-4.97845459 10.32109261 -1.849121451 0.954632163 
-5.432495117 10.08912849 -1.849069476 0.9546334147 
-5.875771523 9.837206841 -1.849018216 0.9546346664 
-8.1438694 9.352553368 -2.001172304 0.9509944916 
-8.551631927 8.980797768 -2.001122236 0.9509956837 
-9.315540314 8.184793472 -2.001025438 0.9509980083 
-9.670180321 7.762121201 -2.000977993 0.9509991407 
-10.00566864 7.324094296 -2.000931263 0.9510002732 
-10.3213377 6.871611118 -2.000888348 0.9510012865 
-10.61659431 6.405549049 -2.000847816 0.9510022402 
-10.89081287 5.926826 -2.000808954 0.9510031939 
-11.14347363 5.436391354 -2.000772238 0.9510040283 
-11.58216572 4.424301624 -2.000705242 0.9510056376 
-11.76732349 3.904640913 -2.000674963 0.9510064125 
-11.92920113 3.377285004 -2.00064683 0.9510070682 
-12.06747532 2.843246937 -2.00062108 0.9510076642 
-12.35746574 -0.9919286966 -2.000509262 0.9510103464 
-12.30106926 -1.540649414 -2.00050354 0.9510105252 
-12.22032928 -2.086311102 -2.000500202 0.9510105848 
-12.11542416 -2.627858877 -2.000499725 0.9510105848 
-11.9865551 -3.164194345 -2.000501633 0.9510105252 
-11.65795898 -4.21706295 -2.000513315 0.9510102272 
-11.45888424 -4.73149395 -2.00052309 0.9510099888 
-10.99315453 -5.73130846 -2.000550747 0.9510093331 
-10.72741699 -6.214711666 -2.00056839 0.9510089159 
-9.805116653 -7.587465763 -2.000634909 0.9510073662 
-8.708374023 -8.825414658 -2.000722647 0.9510052204 
-7.456640244 -9.906506538 -2.000829935 0.9510026574 
-6.546908855 -10.53045845 -2.000911474 0.9510007501 
-6.072124004 -10.81149864 -2.00095439 0.9509997368 
-5.422138691 -10.74775124 -1.942546964 0.9523954391 
-4.23077631 -10.64694786 -1.848748446 0.9546411037 
-3.267905235 -10.98139858 -1.848841548 0.9546388388 
-2.279069662 -11.22896957 -1.84893918 0.9546365738 
-1.777360797 -11.31955528 -1.848989487 0.9546353221 
1.272272944 -11.38935566 -1.849305034 0.9546277523 
2.279658079 -11.2318573 -1.849413157 0.9546251893 
3.754658222 -10.82945251 -1.849574685 0.954621315 
5.163083553 -10.23423767 -1.849733591 0.9546175003 
6.052604675 -9.735385895 -1.849836349 0.9546149969 
7.294550419 -9.691162109 -1.957339644 0.9520418048 
8.314476967 -9.212155342 -2.002482176 0.9509631991 
8.716252327 -8.833400726 -2.002532005 0.950962007 
9.467308998 -8.024115562 -2.002626657 0.9509598017 
11.25025082 -5.242685318 -2.002870083 0.9509539604 
11.47251225 -4.737131119 -2.002903461 0.9509531856 
11.67207527 -4.222157955 -2.002934933 0.9509524107 
11.84850311 -3.698820829 -2.002964258 0.950951755 
12.00147152 -3.16814208 -2.002991199 0.9509510994 
12.1306715 -2.631164551 -2.003015757 0.9509505033 
12.316782 -1.542607427 -2.003057718 0.9509494901 
12.37331295 -0.9931957722 -2.003074884 0.9509490728 
12.41278744 0.1104809567 -2.003102064 0.9509484172 
12.39563656 0.6625390649 -2.003111601 0.9509482384 
12.35395718 1.213288546 -2.003118753 0.950948 
12.2877779 1.761640549 -2.003123283 0.9509479403 
11.94395733 3.381457329 -2.003121138 0.950948 
11.78168678 3.90941143 -2.003115416 0.9509481192 
11.59607124 4.429611683 -2.003106833 0.950948298 
11.38747501 4.941042423 -2.003095865 0.950948596 
11.15633774 5.442670822 -2.003082037 0.950948894 
9.253493309 6.773508072 -1.850512028 0.9545988441 
8.942907333 7.178334713 -1.850488067 0.9545994401 
7.907546043 8.30439949 -1.850403905 0.9546014071 
7.529091835 8.646533012 -1.850105286 0.9546086192 
6.307888031 9.566617012 -1.849117994 0.9546322227 
4.038546085 10.71509266 -1.847805381 0.9546637535 
3.5575037 10.88291073 -1.84759748 0.9546687007 
3.069560528 11.02927017 -1.847408652 0.9546732306 
2.575657845 11.15386963 -1.847239494 0.9546772838 
2.07677722 11.25650883 -1.847092509 0.9546808004 
1.573884249 11.33695889 -1.846964717 0.9546838999 
1.067955256 11.39508438 -1.846857071 0.9546864629 
0.05092529207 11.44396114 -1.846704006 0.9546900988 
-1.976055861 11.27190876 -1.846658587 0.9546911716 
-2.480357647 11.1946888 -1.850271463 0.9546046257 
-3.469495773 10.94244957 -1.852390528 0.9545538425 
-3.212852716 8.759774208 -1.50562191 0.9629013538 
-4.886434078 10.3650465 -1.849132061 0.9546319246 
-5.342532635 10.13712978 -1.849079847 0.9546331763 
-6.222028732 9.621640205 -1.848977804 0.9546356201 
-7.19115448 10.10433578 -2.001286983 0.9509918094 
-8.471411705 9.056593895 -2.00113225 0.9509954453 
-9.600774765 7.847907543 -2.00098753 0.9509989023 
-11.32973099 5.036259651 -2.000744343 0.9510048032 
-11.5423584 4.527216911 -2.000711441 0.9510055184 
-11.73214817 4.009221077 -2.000680685 0.9510062337 
-12.04173279 2.950532198 -2.000626087 0.951007545 
-12.16091251 2.41192627 -2.000602245 0.951008141 
-12.32691097 1.321491718 -2.000561714 0.9510090947 
-12.37338829 0.7718237042 -2.000545263 0.9510094523 
-12.36580276 -0.8819140196 -2.000510931 0.9510103464 
-12.01423836 -3.057407141 -2.000501156 0.9510105252 
-11.86636448 -3.588820696 -2.000505209 0.9510104656 
-11.50052452 -4.629325867 -2.000520945 0.9510100484 
-11.28315639 -5.136476994 -2.000532866 0.9510099888 
-11.04370308 -5.633239746 -2.000547409 0.9510094523 
-10.19594955 -7.053242207 -2.000605583 0.9510080814 
-9.872231483 -7.499894619 -2.000629902 0.9510074854 
-8.786547661 -8.747524261 -2.000716448 0.9510053992 
-8.388861656 -9.129879951 -2.000749588 0.9510046244 
-7.974560261 -9.494184494 -2.000784874 0.9510037899 
-6.168076038 -10.75699234 -2.000945568 0.9509999156 
-4.325334549 -10.60883236 -1.848739386 0.9546413422 
-3.849233389 -10.79099083 -1.848785043 0.9546402693 
-3.365485668 -10.95182133 -1.848832011 0.9546391368 
-2.875058413 -11.09098148 -1.848880172 0.9546379447 
-2.378894091 -11.20819569 -1.848929286 0.9546367526 
-1.373378873 -11.3758831 -1.849030256 0.9546343684 
-0.8660058379 -11.42604923 -1.849081993 0.9546331167 
0.1529785097 -11.45844173 -1.849187255 0.9546306133 
1.17086184 -11.40017319 -1.849294186 0.9546279907 
2.179599524 -11.25164032 -1.849402308 0.9546254277 
2.678034544 -11.14386177 -1.84945631 0.954624176 
4.137804985 -10.68920422 -1.849617362 0.9546202421 
4.609333515 -10.49485302 -1.849670529 0.95461905 
5.52417469 -10.04421329 -1.849775076 0.9546165466 
7.162441254 -9.694013596 -1.944962621 0.9523376822 
7.810656548 -9.642495155 -2.002421141 0.9509648085 
9.025300026 -8.517741203 -2.002570629 0.950961113 
9.395475388 -8.108019829 -2.002617598 0.9509599805 
9.747076988 -7.682204247 -2.002663136 0.9509589672 
10.07938194 -7.241181374 -2.002706766 0.9509578943 
10.68353939 -6.316931248 -2.002788544 0.9509558678 
