# .PCD v0.7 - Point Cloud Data file format
VERSION 0.7
FIELDS x y z intensities
SIZE 4 4 4 4
TYPE F F F F
COUNT 1 1 1 1
WIDTH 938
HEIGHT 1
VIEWPOINT 0 0 0 1 0 0 0
POINTS 938
DATA ascii
-5.078042984 32.3405571 1.647461057 0.8771187067 
-45.07555389 100.1997604 5.529233932 0.6440086365 
-62.68325043 91.48040771 5.5807724 0.6413729787 
-16.23818016 -1.594780207 0.8211109638 0.9367415905 
-56.3545723 -13.27787113 2.913671732 0.7930383086 
-46.91027069 -13.28080559 2.453518867 0.8226184249 
-39.9711113 -13.2632761 2.119373083 0.8447877169 
-35.50392914 -17.32079506 1.98799932 0.853666544 
-34.11029816 -22.70957375 2.062219381 0.8486389518 
-51.55026245 -41.37867737 3.326611757 0.7673999667 
-43.06283951 -41.37181473 3.005191088 0.7872830629 
-36.3294487 -41.72146988 2.784047842 0.8012617826 
-7.259982586 -19.26232338 1.035930634 0.9208626151 
-5.032546043 -15.39534664 0.8151041865 0.937189281 
-3.554816723 -15.39414501 0.7950895429 0.9386834502 
-2.840041399 -15.39356899 0.7877461314 0.9392320514 
-0.7540112138 -15.39188957 0.775516212 0.9401466846 
-0.06849853694 -15.39133263 0.7745680213 0.9402176738 
1.304323673 -15.39021969 0.777281642 0.94001472 
2.697834492 -15.38909626 0.7862580419 0.9393433332 
3.409567833 -15.38851547 0.7932004929 0.938824594 
6.433385849 -15.38607883 0.8392558098 0.9353896379 
9.004084587 -15.38399887 0.8970466256 0.9310973883 
9.947882652 -15.38323689 0.9219190478 0.9292562008 
10.9475317 -15.38242626 0.9501417279 0.9271712899 
17.45283318 -22.34773827 1.426960588 0.8926464319 
17.44845009 -18.65371513 1.285400867 0.9027600288 
17.44597435 -15.60562992 1.177956104 0.910512805 
18.81042671 -15.3761034 1.222644448 0.9072803259 
20.61627579 -15.37464809 1.294236898 0.9021253586 
24.97099876 -15.37112236 1.47564888 0.8891944289 
27.65209579 -15.3689642 1.59207046 0.8809939027 
30.79923058 -15.36641598 1.732157111 0.8712265491 
81.69682312 -27.91823196 4.344779968 0.7076691389 
80.44649506 -19.71149445 4.168185234 0.7176852822 
98.0051651 -14.9419384 4.989050865 0.672298789 
78.41475677 9.11299324 3.972673893 0.7289357781 
85.95797729 13.88901806 4.381899357 0.7055821419 
99.43035126 20.64181137 5.110471725 0.6658335328 
41.22703171 14.49959469 2.199306488 0.8394308686 
30.3795681 12.22873974 1.648044825 0.8770778775 
29.34098244 16.65110779 1.69777441 0.8736138344 
46.89833832 32.44272232 2.869812489 0.7958111763 
37.49431992 34.14474869 2.552037954 0.8161934018 
37.49174118 37.32529831 2.662357092 0.8090594411 
39.11603165 42.57128906 2.909426928 0.7933062911 
37.65525055 44.83076859 2.946325541 0.7909795642 
36.99561691 48.2506485 3.059800386 0.7838692069 
30.59767342 48.25204849 2.875317812 0.7954624295 
27.66263771 48.24309921 2.798614502 0.8003334999 
13.99475574 30.38369751 1.683442831 0.8746106029 
13.02706528 31.95168304 1.736458898 0.8709281683 
11.28381538 31.63317871 1.690173507 0.8741425276 
14.80258751 48.16983414 2.535998821 0.8172363639 
12.86224842 49.61802673 2.579534769 0.8144097924 
5.374782562 32.34904861 1.650269032 0.8769230247 
2.451599121 32.34667587 1.632498622 0.8781639338 
-0.1829028279 13.69975758 0.6894944906 0.9466050863 
-1.873090744 32.34316254 1.630376339 0.8783119917 
-3.321696758 32.34197998 1.636154652 0.8779084086 
-4.783519268 32.34079361 1.645238757 0.8772738576 
-44.59139633 101.528862 5.580461502 0.6413886547 
-15.83501911 0.7050927281 0.7976799011 0.9384900331 
-15.84377384 -0.7054907084 0.7981214523 0.9384570718 
-62.93670654 -14.2387495 3.247298002 0.7722585797 
-48.69560623 -13.31933117 2.540599346 0.816937387 
-37.63194656 -15.93207455 2.056539059 0.8490229249 
-36.32220459 -17.32145882 2.025107861 0.8511494398 
-52.50159454 -41.37944794 3.364106417 0.7651135325 
-36.98801422 -41.72200012 2.805937529 0.7998667955 
-34.17474747 -42.1894722 2.732325315 0.8045663834 
-34.10071945 -50.72938919 3.076115131 0.7828520536 
-7.945568562 -16.10450172 0.9037214518 0.9306029081 
-3.699445724 -15.39426231 0.796762228 0.9385583401 
-2.981955528 -15.39368629 0.7890812755 0.939132452 
-2.276784658 -15.39311028 0.7830787301 0.9395811558 
-0.8913940191 -15.39199638 0.7758915424 0.9401186705 
-0.2054858357 -15.39144039 0.7746351361 0.940212667 
1.16648674 -15.39033699 0.7767304778 0.9400557876 
1.857985854 -15.38977051 0.7801072598 0.9398034215 
3.266203642 -15.38863754 0.7916755676 0.9389383793 
7.086589336 -15.38555145 0.8524549603 0.9344077706 
7.934093952 -15.3848629 0.8711295724 0.9330201149 
8.821310997 -15.38414478 0.8924427629 0.9314386845 
9.754939079 -15.38339329 0.9166920185 0.9296430945 
10.74271679 -15.3825922 0.9442124963 0.9276091456 
17.45316124 -22.76288605 1.443501115 0.8914726377 
17.45155525 -20.77709961 1.36549449 0.8970239758 
17.45010948 -18.99153709 1.297929525 0.9018606544 
17.44740486 -17.3699646 1.238968372 0.9061021209 
17.44620323 -15.88757324 1.18747139 0.9098235369 
20.2383461 -15.37495613 1.2790519 0.9032163024 
22.22332191 -15.37334919 1.359892368 0.8974240422 
24.48092079 -15.3715229 1.45471108 0.8906771541 
30.12620354 -15.36695766 1.701926112 0.8733249307 
81.65887451 -28.71932602 4.356199265 0.7070273161 
97.31453705 -15.72401333 4.960813522 0.6738108993 
97.54721832 14.87209415 4.965741634 0.6735472679 
30.8270874 12.09123039 1.666421294 0.8757961988 
28.89313698 12.8435297 1.591213822 0.8810538054 
91.39859009 56.26128387 5.401163101 0.6506064534 
47.80464554 32.44449615 2.907489061 0.7934285998 
37.49481201 33.53955841 2.531651735 0.8175187707 
37.49227524 36.66729355 2.639118671 0.8105571866 
38.92509842 41.61407471 2.867596388 0.7959534526 
37.54534912 48.0754776 3.069750309 0.7832481861 
34.73480988 48.80601501 3.014665365 0.7866902351 
32.21225739 49.81248093 2.985261679 0.7885322571 
16.02606583 30.40850067 1.729811549 0.8713892698 
13.35205746 31.93294525 1.741832376 0.8705559969 
15.27314949 48.17020798 2.543070555 0.8167763948 
13.33174038 49.60746384 2.585216045 0.8140522838 
10.67204285 48.16647339 2.482735395 0.8207078576 
-0.06035888568 13.56737518 0.6827790737 0.947111249 
-4.489896297 32.34103012 1.643153548 0.8774194717 
-5.966623306 32.33983231 1.654948592 0.8765960336 
-37.80182266 100.2956619 5.393936634 0.6509811282 
-54.03490067 100.3525009 5.735755444 0.6335105896 
-53.64523315 89.81281281 5.264661312 0.6577128768 
-33.01728058 9.347538948 1.726881266 0.8715922236 
-16.17850494 1.588920832 0.8180937171 0.936966598 
-15.83421803 0.84634763 0.797985971 0.9384670258 
-15.83835888 0.1409863234 0.797089994 0.938534081 
-16.03874016 -1.287441373 0.8097379804 0.9375897646 
-39.97014236 -14.4585104 2.139031887 0.8434669971 
-34.1143074 -17.78556633 1.936094165 0.8572003245 
-34.1126976 -19.7624855 1.983975291 0.8539398313 
-34.11100388 -21.84386635 2.038428783 0.8502473235 
-34.10921478 -24.04722023 2.100230932 0.8460757732 
-48.81846619 -41.37646866 3.220471621 0.7739092708 
-44.62760544 -41.37306213 3.062507868 0.7837001681 
-12.53487492 -12.70340538 0.8981187344 0.9310181141 
-34.41360855 -41.71992493 2.721639395 0.8052510023 
-34.0919075 -45.29286575 2.85286665 0.7968848944 
-34.16848755 -49.86597443 3.042075157 0.7849755883 
-7.889709473 -15.63897896 0.8815046549 0.9322499037 
-8.665798187 -19.26346207 1.062998533 0.9188811183 
-7.654386997 -19.26264191 1.043111444 0.9203365445 
-5.337770939 -15.39559078 0.8200193644 0.936822772 
-3.844733715 -15.39437962 0.7985099554 0.9384279251 
-3.124392033 -15.3938036 0.7904810905 0.9390277863 
-0.3424633741 -15.39155197 0.774761498 0.9402030706 
0.3425268531 -15.39100075 0.774736166 0.9402051568 
1.028835416 -15.3904438 0.776245892 0.9400922656 
1.719187021 -15.38988781 0.7793052793 0.9398633242 
2.416398764 -15.3893261 0.7839481831 0.9395160675 
3.123376369 -15.38875484 0.7902201414 0.9390471578 
4.579138279 -15.38757324 0.8079316616 0.9377244711 
5.3347826 -15.38696766 0.8195607066 0.9368570447 
6.114069462 -15.38633728 0.8332038522 0.9358404875 
6.921354771 -15.38568783 0.8490129113 0.9346635342 
9.564108849 -15.38354969 0.9115882516 0.9300205112 
10.54037285 -15.38275337 0.9384257197 0.9280363917 
17.45186234 -21.15703583 1.380198479 0.8959748149 
17.44765282 -17.68209457 1.250113368 0.9052991271 
18.1423111 -15.37664509 1.196817756 0.9091470242 
21.80644226 -15.37368107 1.342702508 0.8986526728 
24.00448418 -15.37190914 1.434476137 0.8921129107 
35.75788879 -14.76482391 1.946865678 0.8564658165 
55.4966011 -20.07494545 2.969941378 0.7894945741 
74.38414001 -23.22101974 3.921501875 0.7319140434 
77.52297974 -20.46453476 4.034947872 0.7253359556 
89.00127411 -15.1948576 4.543747902 0.6965517402 
91.7481308 13.15360832 4.66437912 0.6898962259 
41.09692383 13.63682556 2.179068804 0.8407838941 
29.21233177 12.67523384 1.602520227 0.8802616596 
48.73535919 32.44632339 2.946406841 0.7909745574 
45.00711823 32.94517136 2.806924343 0.7998039722 
39.11723328 41.08051682 2.854675293 0.7967705131 
38.96225739 44.74501801 2.985801935 0.7884986997 
37.54650116 47.20487595 3.035381317 0.7853938341 
34.99010849 48.25005341 2.999426126 0.7876440883 
32.66182709 49.53530502 2.985960722 0.7884889245 
28.81583214 48.24344254 2.827937603 0.7984675169 
25.97628021 48.24259567 2.757355928 0.8029654026 
14.5467577 30.15758705 1.684996724 0.8745025396 
11.87300777 31.50139427 1.694151759 0.8738654256 
1.995031714 8.639375687 0.4462136626 0.9651113153 
5.968281269 32.34953308 1.655444145 0.8765614629 
4.490771294 32.34833145 1.643523097 0.8773936033 
1.584494591 32.34597015 1.629747987 0.8783562779 
0.06035888568 13.56747246 0.6827839613 0.9471108913 
-1.296057105 32.34363174 1.628982306 0.8784096241 
-4.196846962 32.34127045 1.641201615 0.8775556684 
-5.669486046 32.34007645 1.652317047 0.8767799139 
-53.34113312 101.2121277 5.757529259 0.6324141622 
-11.02242565 9.01000309 0.7164408565 0.9445775151 
-15.83343029 0.9876489043 0.7983582616 0.9384393096 
-15.84191132 -0.4230785966 0.797521472 0.9385018349 
-82.62635803 -13.35069275 4.21205759 0.7151837945 
-64.21931458 -13.33193302 3.300709248 0.7689831257 
-34.20372009 -12.02940369 1.824642777 0.8648378253 
-37.89120865 -15.25234795 2.055540562 0.8490901589 
-34.11302567 -19.35935974 1.973903894 0.854624927 
-34.11135101 -21.41856956 2.026980162 0.8510222435 
-38.33665085 -41.7231102 2.851454973 0.7969745398 
-34.09954834 -44.47356415 2.820271492 0.7989550233 
-34.1692543 -48.9272995 3.003239632 0.7874049544 
-11.04682827 -19.26538086 1.117595673 0.9148970842 
-7.572253227 -16.43988228 0.9108695984 0.9300736785 
-2.557560921 -15.39334393 0.7852802873 0.9394164085 
-1.166594267 -15.39221668 0.7768266201 0.9400486946 
-0.4795727432 -15.39166451 0.7749534249 0.9401888847 
0.2054858357 -15.39110851 0.7746192813 0.9402139187 
0.8913109899 -15.39055157 0.775818646 0.9401240945 
1.580632329 -15.38999939 0.7785673141 0.9399184585 
2.276247501 -15.38943768 0.7828916907 0.9395951033 
2.981022835 -15.38886642 0.7888325453 0.9391509295 
3.698014975 -15.38828087 0.7964555025 0.9385814071 
5.181872368 -15.38708496 0.8170777559 0.9370421767 
5.956091404 -15.38646984 0.8303043842 0.9360562563 
7.590700626 -15.38514137 0.863355875 0.9335973859 
9.375471115 -15.38370609 0.9066187739 0.930388391 
10.34057331 -15.38291454 0.9327842593 0.9284530282 
17.45385933 -23.62288475 1.478097081 0.8890212178 
17.45216942 -21.54508781 1.39533484 0.8948966265 
17.45066643 -19.68411064 1.323817253 0.9000040889 
17.44791794 -18.00004387 1.261562347 0.9044746161 
19.50824928 -15.37554169 1.250012994 0.9053062797 
21.39986038 -15.37400818 1.326040149 0.8998450041 
25.99495697 -15.3703022 1.519754767 0.8860790133 
28.8478241 -15.3679924 1.644902706 0.8772973418 
75.13404846 -24.19082451 3.972220898 0.728965342 
80.44835663 -22.00422859 4.197225094 0.7160282135 
80.44527435 -18.19967651 4.150676727 0.7186859846 
88.37067413 -15.89759731 4.518602848 0.6979473829 
90.88574982 12.20536613 4.61483717 0.6926220655 
84.65105438 23.15372467 4.416505814 0.7036416531 
41.0145607 13.20559025 2.168386221 0.8414990306 
31.62795067 11.76025867 1.698126912 0.8735890388 
30.81981659 13.04813194 1.68426156 0.874553442 
100.6143341 53.59990692 5.737037659 0.6334460378 
29.42178917 17.39649773 1.720092893 0.8720631599 
49.69093704 32.44820404 2.986610651 0.7884480953 
41.08078003 32.37805557 2.63229537 0.8109971285 
37.49331665 35.38481522 2.594438314 0.813444376 
37.54762268 46.35330582 3.001992702 0.7874833345 
35.64988327 48.25025177 3.019041777 0.7864152193 
29.40171051 48.24361801 2.843178034 0.7974996567 
26.53271675 48.24276352 2.770748138 0.8021100163 
14.77075386 29.93831635 1.680020571 0.8748488426 
13.8703804 31.581213 1.735835075 0.8709713221 
16.22241211 48.17097473 2.557953835 0.8158096671 
2.068701029 8.608324051 0.4455429018 0.9651628733 
3.322250843 32.34738159 1.636427402 0.8778893352 
0.4326318204 32.40480042 1.630900383 0.8782756329 
-1.012399912 32.49201584 1.635936379 0.8779236078 
-63.54835892 100.2147827 5.971756458 0.6217228174 
-15.83666515 0.4229321182 0.7972578406 0.938521564 
-15.84100342 -0.2819726467 0.7973176241 0.9385170341 
-15.84569073 -0.9884082079 0.7989777923 0.938393116 
-67.15563202 -13.31944752 3.445403337 0.7601788044 
-37.85911179 -14.84939384 2.046552181 0.8496978879 
-37.95085907 -16.86986351 2.090050697 0.8467617035 
-34.71517181 -17.3201561 1.95238781 0.8560894132 
-34.11169434 -20.9977684 2.015811682 0.8517788649 
-34.10994339 -23.15006256 2.074572802 0.8478051424 
-46.25361252 -41.37438965 3.123057842 0.7799328566 
-39.02779007 -41.72366714 2.875128746 0.7954748273 
-35.68135071 -41.7209549 2.762716532 0.8026230335 
-34.17346954 -43.75814438 2.794077635 0.8006224632 
-34.17000198 -48.01268005 2.965647459 0.7897645235 
-11.27586651 -19.26556587 1.123381734 0.9144758582 
-7.697277546 -16.32743073 0.9083997607 0.9302566648 
-8.054377556 -19.26296425 1.050729156 0.9197789431 
-4.881306171 -15.3952198 0.8127656579 0.9373636842 
-3.410783529 -15.39402771 0.7934827805 0.9388033748 
-1.997492671 -15.39288521 0.7811347842 0.9397265315 
-1.304499507 -15.39232922 0.7773881555 0.9400067329 
-0.6167602539 -15.39177227 0.7752037048 0.9401701093 
0.06847412139 -15.39122009 0.774561882 0.940218091 
2.839235783 -15.38897896 0.78751266 0.9392495751 
5.799260139 -15.38659668 0.827495873 0.9362656474 
6.594792366 -15.385952 0.8424186707 0.9351543188 
7.42121315 -15.38527775 0.8596208096 0.9338747859 
8.283849716 -15.38458443 0.8793213964 0.9324118495 
9.188772202 -15.38385201 0.9017719626 0.9307473898 
10.14305401 -15.38308048 0.9272822142 0.9288596511 
17.45422173 -24.06871605 1.496212244 0.8877404332 
17.44817543 -18.32389069 1.273322582 0.9036284089 
21.00339508 -15.37433052 1.309899092 0.9010017514 
23.09017372 -15.3726511 1.395970941 0.8948510289 
25.47556305 -15.37072277 1.497319818 0.8876621127 
28.24032974 -15.3684864 1.617997885 0.879177928 
31.49685287 -15.36584949 1.763630509 0.8690471649 
81.73456573 -27.12126923 4.333795547 0.7082889676 
80.44586945 -18.95410156 4.159249306 0.7181959152 
99.78282166 21.64320755 5.1382761 0.6643612385 
84.58703613 22.32927132 4.402617931 0.7044193745 
82.29579926 33.98079681 4.480653763 0.7000579834 
28.42406845 14.8189497 1.613155961 0.8795167804 
29.40770149 17.03673363 1.710338593 0.8727405667 
50.66947174 32.44753647 3.027944803 0.7858587503 
46.01515579 32.44099045 2.833329916 0.7981255651 
38.19884109 32.37571716 2.519917965 0.8182832003 
37.49119949 37.99526596 2.686231136 0.8075236678 
32.12880707 35.59773254 2.413196802 0.825262785 
37.54872894 45.52058792 2.969587326 0.7895172238 
34.02871323 49.66194534 3.029622793 0.7857534885 
13.71935272 30.49712372 1.682896852 0.8746486902 
12.38225842 31.16051674 1.687409163 0.8743347526 
6.707504749 33.04761124 1.697014332 0.8736665845 
3.613525391 32.3476181 1.638000965 0.877779305 
-0.7293481231 32.77245712 1.649666905 0.8769649863 
-2.162092209 32.34292603 1.631275177 0.878249526 
-5.078042984 32.3405571 1.647461057 0.8771187067 
-6.563748837 32.33935165 1.660645604 0.8761990666 
-62.69079971 100.8359909 5.975276947 0.621548295 
-15.87349129 1.274113774 0.8013957143 0.9382125139 
-15.8358345 0.5639404058 0.7974357605 0.9385082126 
-15.84010696 -0.1410009712 0.7971772552 0.9385275245 
-16.23818016 -1.594780207 0.8211109638 0.9367415905 
-70.52855682 -13.3370409 3.612215996 0.7501535416 
-56.3545723 -13.27787113 2.913671732 0.7930383086 
-46.91027069 -13.28080559 2.453518867 0.8226184249 
-34.11367416 -18.56476021 1.954502702 0.8559453487 
-34.11203003 -20.58154678 2.004932404 0.8525171876 
-34.11029816 -22.70947647 2.062216282 0.8486391306 
-34.10846329 -24.96737289 2.127215147 0.8442605138 
-51.55005646 -41.37867737 3.326603413 0.7674004436 
-47.09089661 -41.37506104 3.154606342 0.7779768109 
-43.06266403 -41.37181091 3.005184889 0.7872834206 
-34.17411804 -42.96505356 2.762747765 0.802621007 
-34.09264755 -47.0124855 2.922488928 0.7924813628 
-7.2600317 -19.2623291 1.035931468 0.9208625555 
-5.032585144 -15.39534664 0.8151047826 0.9371892214 
-2.840007305 -15.39356899 0.7877476215 0.939232111 
-2.136931181 -15.39299774 0.7820743918 0.9396562576 
-1.442551255 -15.3924408 0.7780091763 0.9399601221 
1.304323673 -15.39021969 0.777281642 0.94001472 
1.997077584 -15.38966274 0.7809690833 0.9397387505 
4.878810883 -15.3873291 0.8123518229 0.9373947978 
5.643415451 -15.38671875 0.8247678876 0.9364688993 
6.433347225 -15.38607883 0.8392552137 0.9353896976 
7.253180981 -15.38541508 0.85598737 0.9341449142 
8.108112335 -15.38472176 0.8751707077 0.9327200055 
9.004128456 -15.38399887 0.8970478773 0.9310973287 
9.947921753 -15.38323689 0.9219202995 0.9292561412 
17.45282936 -22.34764099 1.426956654 0.8926467299 
17.45125198 -20.40512657 1.351205587 0.898044765 
17.447155 -17.06317902 1.228118062 0.9068850875 
18.81042671 -15.3761034 1.222644448 0.9072803259 
20.61627579 -15.37464809 1.294236898 0.9021253586 
22.65101814 -15.37300301 1.37763989 0.8961575031 
27.65209579 -15.3689642 1.59207046 0.8809939027 
30.79923058 -15.36641598 1.732157111 0.8712265491 
35.54983521 -15.80255795 1.957818389 0.8557196856 
81.69680786 -27.91843605 4.344782829 0.7076690197 
80.44649506 -19.71132851 4.168183327 0.7176854014 
98.00551605 -14.94176769 4.989066124 0.672297895 
78.41475677 9.11299324 3.972673893 0.7289357781 
42.21156311 12.76625919 2.219304562 0.8380960822 
41.22703934 14.49948692 2.199305296 0.8394309878 
30.37967491 12.22872066 1.648053646 0.8770775199 
29.34104729 16.65122986 1.697780609 0.8736134171 
37.65525055 44.83076859 2.946325541 0.7909795642 
13.99481678 30.38367271 1.683442831 0.8746106029 
13.02714539 31.95167732 1.736461043 0.8709280491 
5.374721527 32.34905243 1.650268316 0.8769230247 
-1.873090744 32.34316254 1.630376339 0.8783119917 
-4.783519268 32.34079361 1.645238757 0.8772738576 
-32.8196907 66.52033234 3.732875824 0.7429848313 
-72.68187714 89.72737122 5.811038017 0.6297261119 
-15.84377384 -0.7054907084 0.7981214523 0.9384570718 
-16.17489433 -1.443322778 0.817227304 0.9370310307 
-62.93670654 -14.2385931 3.247296572 0.7722587585 
-41.3493042 -13.3133831 2.186085701 0.8403146863 
-39.96981812 -14.86204052 2.146013975 0.8429987431 
-37.63175964 -15.93209457 2.056528807 0.8490234613 
-36.32201767 -17.32145882 2.025098562 0.8511499763 
-34.1139946 -18.17341232 1.945180416 0.8565806746 
-34.11236954 -20.16996002 1.9943223 0.8532371521 
-34.11065292 -22.27425766 2.050178289 0.8494528532 
-43.8377533 -41.37242889 3.033452034 0.7855141759 
-40.02257919 -41.2890358 2.893804789 0.7942929268 
-36.98801422 -41.72200012 2.805937529 0.7998667955 
-34.17474747 -42.1894722 2.732325315 0.8045663834 
-34.17144394 -46.24929047 2.893848896 0.7942903638 
-34.10087204 -50.72938538 3.076127768 0.7828518152 
-10.59543705 -19.26501465 1.106457353 0.9157086015 
-7.945534706 -16.10452652 0.9037223458 0.9306029081 
-8.460372925 -19.26329613 1.058791041 0.9191887975 
-5.184684753 -15.39546871 0.8175230026 0.9370089769 
-2.276784658 -15.39311028 0.7830787301 0.9395811558 
-0.2054858357 -15.39144039 0.7746351361 0.940212667 
0.4795580804 -15.39088345 0.7749128342 0.9401918054 
1.166452646 -15.39033699 0.7767301798 0.9400557876 
1.857951641 -15.38977528 0.7801069617 0.9398034215 
2.556877375 -15.38921356 0.7850700021 0.9394321442 
3.266164541 -15.38863754 0.791674912 0.9389384389 
4.728600979 -15.38745117 0.8101032972 0.9375624061 
5.488645077 -15.38684559 0.8221235275 0.9366659522 
6.27316618 -15.38621044 0.8361863494 0.9356182814 
7.086628437 -15.38555145 0.8524558544 0.934407711 
8.821310997 -15.38414478 0.8924427629 0.9314386845 
9.754939079 -15.38339329 0.9166920185 0.9296430945 
10.74271679 -15.3825922 0.9442124963 0.9276091456 
17.45316124 -22.76288605 1.443501115 0.8914726377 
24.48101807 -15.3715229 1.454715133 0.890676856 
33.75104523 -15.36402798 1.866210103 0.8619812727 
81.65887451 -28.71932602 4.356199265 0.7070273161 
74.62756348 -22.56998444 3.923594236 0.7317925692 
84.82099152 16.82310104 4.351716995 0.7072786093 
42.93813324 12.57014179 2.251536608 0.8359491229 
41.18053436 14.07269001 2.190057278 0.8400489688 
30.8270874 12.09123039 1.666421294 0.8757961988 
28.89313698 12.8435297 1.591213822 0.8810538054 
27.77989388 13.85998726 1.562346578 0.8830803633 
29.07734489 16.16110229 1.674130678 0.8752592206 
91.39859009 56.26128387 5.401163101 0.6506064534 
47.80464554 32.44449615 2.907489061 0.7934285998 
37.49227524 36.6671524 2.63911438 0.8105574846 
32.2121315 49.81248093 2.985258818 0.7885324359 
28.2361393 48.24327087 2.813082218 0.7994120121 
11.58975029 31.59932518 1.693801641 0.8738896847 
13.33174038 49.60746384 2.585216045 0.8140522838 
5.671103477 32.34929276 1.652789474 0.8767470717 
2.741401196 32.34691238 1.633676529 0.8780815601 
-3.031196117 32.34222412 1.634737372 0.878007412 
-37.80182266 100.2956619 5.393936634 0.6509811282 
-72.42288208 91.05290985 5.854904175 0.6275316477 
-15.83421803 0.84634763 0.797985971 0.9384670258 
-77.89728546 -13.2991209 3.976861477 0.7286967635 
-62.93718719 -13.65126419 3.240936279 0.7726503015 
-50.46125031 -13.32075691 2.626420259 0.8113760948 
-39.97014236 -14.4585104 2.139031887 0.8434669971 
-38.098629 -15.73134232 2.074310303 0.8478229642 
-34.1143074 -17.78556633 1.936094165 0.8572003245 
-34.11100388 -21.84386635 2.038428783 0.8502473235 
-34.1072998 -26.39311028 2.170331001 0.8413692117 
-34.41360855 -41.71992493 2.721639395 0.8052510023 
-34.16848755 -49.86597443 3.042075157 0.7849755883 
-7.889709473 -15.63897896 0.8815046549 0.9322499037 
-7.654386997 -19.26264191 1.043111444 0.9203365445 
-5.337770939 -15.39559078 0.8200193644 0.936822772 
-4.581335545 -15.39498043 0.8083207607 0.9376954436 
-3.124392033 -15.3938036 0.7904810905 0.9390277863 
-1.719499469 -15.39266586 0.7794465423 0.9398527741 
-1.028874516 -15.39211369 0.7763276696 0.9400860071 
-0.3424633741 -15.39155197 0.774761498 0.9402030706 
1.028835416 -15.3904438 0.776245892 0.9400922656 
3.123376369 -15.38875484 0.7902201414 0.9390471578 
4.579138279 -15.38757324 0.8079316616 0.9377244711 
6.114069462 -15.38633728 0.8332038522 0.9358404875 
6.921354771 -15.38568783 0.8490129113 0.9346635342 
7.76158905 -15.385005 0.867190063 0.9333125949 
8.640349388 -15.38429165 0.8879554272 0.9317714572 
10.54037285 -15.38275337 0.9384257197 0.9280363917 
17.45350266 -23.18789482 1.460542083 0.8902643919 
17.45037842 -19.33432579 1.31069231 0.9009450078 
18.1423111 -15.37664509 1.196817756 0.9091470242 
21.80644226 -15.37368107 1.342702508 0.8986526728 
26.53045082 -15.36986828 1.543002486 0.8844411969 
35.75777054 -14.76458931 1.946856141 0.8564664721 
77.52297974 -20.46453476 4.034947872 0.7253359556 
55.33528137 -12.0021534 2.849468946 0.797100544 
89.00127411 -15.1948576 4.543747902 0.6965517402 
91.7481308 13.15360832 4.66437912 0.6898962259 
31.28515244 11.95084476 1.685367584 0.8744766116 
29.21233177 12.67523384 1.602520227 0.8802616596 
29.82290268 14.54934978 1.669901252 0.8755538464 
97.90887451 53.2822876 5.609579563 0.6399041414 
45.00711823 32.94517136 2.806924343 0.7998039722 
40.33659363 32.37744904 2.602967978 0.8128923774 
37.49280548 36.02035141 2.616473913 0.8120190501 
39.11723328 41.08051682 2.854675293 0.7967705131 
38.96225739 44.74459839 2.985785961 0.7884996533 
37.54650116 47.20487595 3.035381317 0.7853938341 
32.66182709 49.53530502 2.985960722 0.7884889245 
25.97628021 48.24259567 2.757355928 0.8029654026 
14.54662609 30.15764427 1.684996724 0.8745025396 
13.65226078 31.85129738 1.743935943 0.8704100847 
15.74650574 48.17059326 2.550396919 0.8163007498 
13.57690144 48.78385544 2.548327923 0.816435039 
5.968281269 32.34953308 1.655444145 0.8765614629 
3.031511068 32.34714508 1.634986401 0.877990067 
-1.295910597 32.34363174 1.628982067 0.8784096837 
-7.230541706 32.63321686 1.682079554 0.8747056723 
-37.25144196 101.5657959 5.444186211 0.6483824849 
-37.52987289 89.75587463 4.8958745 0.6773024797 
-53.34113312 101.2110138 5.75747776 0.6324166656 
-53.33298874 91.12284851 5.313407898 0.6551659703 
-11.02239799 9.00990963 0.7164366245 0.9445778131 
-62.43103409 21.33439445 3.320197582 0.767791748 
-15.84191132 -0.4230785966 0.797521472 0.9385018349 
-15.84667492 -1.130224586 0.7995030284 0.9383538961 
-82.62660217 -13.35109806 4.212073803 0.7151829004 
-44.02778244 -13.31555653 2.314789534 0.8317511678 
-37.57797623 -17.10631371 2.077815771 0.8475863934 
-34.11302567 -19.35935974 1.973903894 0.854624927 
-34.11135101 -21.41837883 2.026974916 0.8510226011 
-34.18795395 -25.97229004 2.160661459 0.8420165777 
-38.3362999 -41.72309875 2.851443529 0.7969753742 
-9.934743881 -19.26447678 1.090798497 0.9168503881 
-7.572253227 -16.43988228 0.9108695984 0.9300736785 
-5.491808891 -15.39571762 0.8225983977 0.9366306067 
-4.730871677 -15.39509773 0.8105052114 0.9375324845 
-1.858312964 -15.3927784 0.7802565098 0.939792037 
0.2055541873 -15.39110851 0.7746192813 0.9402139187 
1.580700636 -15.38999939 0.7785676122 0.9399184585 
3.698014975 -15.38828087 0.7964555025 0.9385814071 
4.430534363 -15.38769054 0.8058378696 0.9378808737 
5.956159592 -15.38646984 0.830305934 0.9360561967 
6.757399559 -15.38581467 0.8456690907 0.9349124432 
7.590700626 -15.38514137 0.863355875 0.9335973859 
8.46117878 -15.38443851 0.883582294 0.9320958257 
9.375471115 -15.38370609 0.9066187739 0.930388391 
10.34047604 -15.38291454 0.9327812195 0.9284532666 
17.45217514 -21.54527855 1.395342827 0.8948960304 
17.45066643 -19.68411064 1.323817253 0.9000040889 
17.44667625 -16.46551323 1.207260847 0.9083915949 
17.81873703 -15.37690926 1.184450865 0.9100422263 
23.541008 -15.37228012 1.414901257 0.8935038447 
28.8478241 -15.3679924 1.644902706 0.8772973418 
75.13432312 -24.1912632 3.97224164 0.72896415 
88.37067413 -15.89759731 4.518602848 0.6979473829 
84.65059662 15.22838306 4.328382015 0.7085935473 
84.65105438 23.15372467 4.416505814 0.7036416531 
100.6143341 53.59990692 5.737037659 0.6334460378 
29.42177963 17.39633751 1.720088959 0.872063458 
49.69093704 32.44820404 2.986610651 0.7884480953 
45.33254623 32.56736374 2.809017897 0.799670577 
37.8094635 32.62870026 2.513293266 0.8187142611 
37.49331665 35.38481522 2.594438314 0.813444376 
35.64988327 48.25025177 3.019041777 0.7864152193 
33.38270187 49.66141891 3.01134944 0.7868974209 
29.40171051 48.24361801 2.843178034 0.7974996567 
26.53271675 48.24276352 2.770748138 0.8021100163 
16.22241211 48.17097473 2.557953835 0.8158096671 
2.068701029 8.608324051 0.4455429018 0.9651628733 
6.293410301 32.48749542 1.66531229 0.8758737445 
4.784672737 32.34857178 1.645637631 0.877246201 
1.87326169 32.34620667 1.630530834 0.8783012629 
0.4324951172 32.40489578 1.630905271 0.8782752752 
-6.874482155 32.38932037 1.666281819 0.8758057952 
-37.24319839 91.34757233 4.964410782 0.6736183763 
-62.68186569 89.75482178 5.509304047 0.6450307369 
-15.83666515 0.4229321182 0.7972578406 0.938521564 
-15.84100342 -0.2820361257 0.7973176241 0.9385170341 
-67.15563202 -13.31944752 3.445403337 0.7601788044 
-54.37807465 -13.32392025 2.8174963 0.7991313934 
-39.97079086 -13.65912533 2.125715733 0.8443614244 
-37.85911179 -14.84939384 2.046552181 0.8496978879 
-37.95133972 -16.86987686 2.090072632 0.8467602134 
-34.71517181 -17.3201561 1.95238781 0.8560894132 
-34.10994339 -23.15025902 2.074577332 0.8478047848 
-34.18834686 -25.49605942 2.146259069 0.8429819345 
-50.61943436 -41.37791824 3.290178061 0.7696277499 
-42.30182648 -41.37119675 2.9776721 0.7890092731 
-39.02779007 -41.72366714 2.875128746 0.7954748273 
-34.17346954 -43.75775146 2.794062376 0.8006234765 
-34.17000198 -48.01268005 2.965647459 0.7897645235 
-11.27586651 -19.26556587 1.123381734 0.9144758582 
-10.15302944 -19.26465225 1.095887542 0.9164793491 
-7.697277546 -16.32743073 0.9083997607 0.9302566648 
-8.054474831 -19.26296425 1.050731063 0.9197788239 
-7.064806938 -19.26216698 1.032501101 0.9211140871 
-4.137214184 -15.39461422 0.8022145033 0.9381512403 
-2.698596239 -15.39345169 0.786480248 0.9393267035 
-1.997424245 -15.39288521 0.7811344862 0.9397265911 
-1.304499507 -15.39232922 0.7773881555 0.9400067329 
0.06847412139 -15.39122009 0.774561882 0.940218091 
0.7539916635 -15.3906641 0.7754557729 0.9401512742 
1.442326665 -15.39011192 0.7778931856 0.9399689436 
2.839167356 -15.38897896 0.7875117064 0.9392496347 
4.282536507 -15.38780689 0.8038126826 0.9380318522 
10.14305401 -15.38308048 0.9272822142 0.9288596511 
17.45422173 -24.06850052 1.49620378 0.8877410293 
17.45094872 -20.04084396 1.337314844 0.8990379572 
19.15555382 -15.3758297 1.236130238 0.906306982 
25.47530937 -15.37072277 1.497306943 0.8876628876 
35.21987534 -15.28191376 1.932077169 0.8574743867 
81.09735107 -30.97817802 4.368805408 0.7063179016 
81.0544281 -15.32716274 4.151301384 0.7186498642 
78.45752716 6.297865868 3.961039305 0.7296152115 
99.78248596 21.6426506 5.138251305 0.6643624306 
84.58703613 22.32927132 4.402617931 0.7044193745 
41.55068207 12.97096634 2.190531492 0.8400169611 
29.91819572 13.94206047 1.661072254 0.8761691451 
29.40770149 17.03673363 1.710338593 0.8727405667 
50.66901398 32.44753265 3.027926683 0.7858599424 
46.01515579 32.44099045 2.833329916 0.7981255651 
41.84197235 32.37868118 2.662505388 0.8090496063 
37.49382401 34.75980377 2.572966337 0.8148353696 
37.49119949 37.99494934 2.686219454 0.8075243831 
32.12880707 35.59773254 2.413196802 0.825262785 
37.54872894 45.52016449 2.969570875 0.7895182371 
36.31808853 48.25045395 3.039163113 0.7851575017 
34.02902603 49.66194534 3.029631853 0.7857529521 
14.97916508 29.69166756 1.673594475 0.8752962351 
13.71921635 30.49718285 1.682897091 0.8746486902 
12.38225842 31.16051674 1.687409163 0.8743347526 
14.34285831 48.1972847 2.530621767 0.8175860643 
12.06413746 48.30580902 2.505626678 0.8192139268 
5.079206467 32.3488121 1.64787972 0.8770894408 
0.7198535204 32.34526443 1.628162026 0.878467083 
-3.612870932 32.34174728 1.637701869 0.877800107 
-5.077901363 32.3405571 1.647460461 0.8771188259 
-62.69079971 100.8359909 5.975276947 0.621548295 
-62.68326187 91.47989655 5.580751896 0.6413740516 
-15.87356853 1.274189472 0.8013996482 0.9382122159 
-15.84010506 -0.1409374923 0.7971772552 0.9385275245 
-15.84472656 -0.8469091654 0.7985172868 0.9384275079 
-70.52685547 -13.3370409 3.612131834 0.7501585484 
-39.9711113 -13.2632761 2.119373083 0.8447877169 
-39.96948624 -15.26824188 2.153201342 0.8425162435 
-35.50371933 -17.32079506 1.987989664 0.8536671996 
-34.11367416 -18.56476021 1.954502702 0.8559453487 
-34.11029816 -22.70947647 2.062216282 0.8486391306 
-34.10846329 -24.96737289 2.127215147 0.8442605138 
-51.55047607 -41.37867737 3.326619864 0.7673994303 
-47.09089661 -41.37506104 3.154606342 0.7779768109 
-39.73018265 -41.72423172 2.899410963 0.793939054 
-36.32977676 -41.72147369 2.784058094 0.8012610674 
-7.821691513 -16.21570778 0.9060200453 0.9304328561 
-3.554851055 -15.39414501 0.7950901389 0.9386833906 
-2.136999369 -15.39300251 0.7820731997 0.939656198 
-1.442551255 -15.3924408 0.7780091763 0.9399601221 
-0.06846923381 -15.39133263 0.7745680213 0.9402176738 
0.6166576743 -15.39078045 0.775154233 0.9401738048 
1.99714601 -15.38966274 0.7809696794 0.9397387505 
3.409636259 -15.38851547 0.7932011485 0.9388245344 
6.433415413 -15.38607883 0.8392567039 0.9353895783 
9.947921753 -15.38323689 0.9219202995 0.9292561412 
17.45282936 -22.34764099 1.426956654 0.8926467299 
17.44845009 -18.65371513 1.285400867 0.9027600288 
17.44715118 -17.06332397 1.228123307 0.9068847299 
17.44597435 -15.60562992 1.177956104 0.910512805 
24.97099876 -15.37112236 1.47564888 0.8891944289 
30.79923058 -15.36641598 1.732157111 0.8712265491 
80.31517029 -31.5018692 4.341609001 0.7078482509 
80.56414032 -15.97885227 4.133331299 0.719679296 
42.21156311 12.76625919 2.219304562 0.8380960822 
28.24880028 14.40922832 1.595865607 0.8807278275 
29.34104729 16.65122986 1.697780609 0.8736134171 
83.69355011 52.55079651 4.973265648 0.6731436253 
37.49431992 34.1444664 2.552028894 0.8161939979 
37.65525055 44.83076859 2.946325541 0.7909795642 
36.99530411 48.25064468 3.059789896 0.7838698626 
30.59729195 48.25188446 2.875301361 0.7954635024 
27.66275597 48.2430954 2.798617601 0.8003333211 
13.99481678 30.38367271 1.683442831 0.8746106029 
12.86238956 49.61813354 2.579541683 0.8144093156 
10.22303963 48.16611099 2.477928162 0.8210219145 
5.374858379 32.34905243 1.650269032 0.876922965 
3.905256271 32.34785461 1.639708042 0.8776600957 
-0.1829614192 13.69985771 0.6894996762 0.9466047287 
-1.873090744 32.34316254 1.630376339 0.8783119917 
-3.321838379 32.34197998 1.636155844 0.877908349 
-4.783519268 32.34079361 1.645238757 0.8772738576 
-32.8196907 66.52033234 3.732875824 0.7429848313 
-11.1429491 8.782387733 0.7139991522 0.9447609782 
-15.83501911 0.705031693 0.7976799011 0.9384900331 
-15.81242371 -0.7040966749 0.6515333652 0.9385998845 
-73.86924744 -13.2889452 3.089492798 0.7404668331 
-48.40118408 -13.23877907 2.065528154 0.8180054426 
-39.96985626 -14.86195755 1.755341887 0.8430589437 
-38.13029099 -16.14307022 1.704429746 0.8472434282 
-34.11402512 -18.17336845 1.591069102 0.856636107 
-34.11240005 -20.16991615 1.631263256 0.8532937169 
-34.11069489 -22.27424812 1.676957488 0.8495106697 
-43.8377533 -41.37244034 2.481225491 0.7855934501 
-40.0225296 -41.28902817 2.366991758 0.7943695784 
-9.504450798 -19.26413536 0.8842310905 0.917596519 
-8.460412025 -19.26329613 0.866042912 0.9192211032 
-5.184704304 -15.39546394 0.6686949134 0.9370344877 
-2.981970072 -15.39368153 0.6454328895 0.9391571283 
1.166467309 -15.39033699 0.6353297234 0.9400801063 
2.556896925 -15.38921356 0.6421519518 0.9394567013 
3.988957405 -15.38805103 0.6543549895 0.9383422732 
7.086608887 -15.38555145 0.6972697377 0.9344342351 
7.934074402 -15.38486767 0.7125400901 0.9330471754 
17.45014381 -20.7754097 1.116822004 0.8970726728 
17.44738579 -17.36990738 1.013416529 0.9061396718 
17.44617844 -15.88759708 0.9712944031 0.9098594785 
20.23831177 -15.37495613 1.04620254 0.9032548666 
22.22327805 -15.37335396 1.112324953 0.8974647522 
27.08252144 -15.36942387 1.281807423 0.8827931285 
30.12622643 -15.3669672 1.392102122 0.8733742833 
80.11341858 -32.24816513 3.554854155 0.7077008486 
80.44703674 -20.47225571 3.416996479 0.7172538042 
80.44398499 -16.70022392 3.381923199 0.7197041512 
101.6346436 10.89566898 4.207561493 0.6641718745 
41.08827209 12.02851009 1.762305975 0.8424878716 
28.4821167 14.21031189 1.310232043 0.880356133 
43.41909027 32.37996674 2.229532003 0.8050609231 
39.60832977 32.37686539 2.105787516 0.8148078322 
37.49476624 33.53955841 2.070775747 0.8175877333 
37.48946381 40.07917023 2.259020805 0.8027552962 
34.29327774 48.18563843 2.434501171 0.7891711593 
31.74025536 49.08261108 2.406034708 0.7913594842 
28.19962502 48.18068695 2.297989607 0.7997187972 
15.27317142 48.17020416 2.080114603 0.8168454766 
13.33174801 49.60746002 2.114480734 0.8141223192 
4.503017426 34.700737 1.440365672 0.8692840934 
-0.06037597358 13.5661335 0.5584292412 0.947137475 
-3.086435556 32.93259811 1.361543655 0.8759732842 
-6.839064598 37.06897736 1.551622987 0.8599284887 
-37.80164719 100.2956619 4.41206789 0.6510981321 
-54.03493881 100.352478 4.691586971 0.6336314678 
-53.64518356 89.81281281 4.30606842 0.6578282118 
-72.42299652 91.05278015 4.789042473 0.627654016 
-11.02965641 8.853360176 0.5821870565 0.9449517131 
-16.17012215 1.588071227 0.6688145399 0.9370236993 
-15.99472332 -1.283884287 0.6605110168 0.9377807975 
-106.5303421 -13.34240723 4.419379711 0.6506299973 
-77.89735413 -13.29900837 3.252883196 0.7287930846 
-50.46151352 -13.32075691 2.148300648 0.8114461899 
-39.97018051 -14.4585104 1.749631405 0.8435268998 
-37.17152405 -17.32215309 1.688075423 0.8485918641 
-34.11273956 -19.76252365 1.622806787 0.8539959788 
-34.11104202 -21.84394455 1.667344213 0.8503047228 
-34.10734177 -26.39317894 1.77524209 0.8414297104 
-48.81831741 -41.37646484 2.634194851 0.7739925385 
-44.62744904 -41.37306595 2.504980326 0.7837803364 
-12.53490925 -12.70338345 0.7346208096 0.9310458899 
-34.41374207 -41.71992111 2.226180315 0.8053236604 
-34.17218399 -45.3993988 2.339008093 0.7965350747 
-34.16854095 -49.86593246 2.488272429 0.7850551009 
-10.82001686 -19.26519394 0.909527123 0.9153418541 
-8.665798187 -19.26346207 0.869484067 0.9189136028 
-7.654391766 -19.26264191 0.853215158 0.9203684926 
-5.337756157 -15.39559078 0.6707383394 0.936848402 
-4.581320763 -15.39497566 0.6611701846 0.9377206564 
-3.124377489 -15.39379883 0.6465754509 0.9390525222 
-0.342502445 -15.3915472 0.6337196231 0.9402273297 
0.3424926698 -15.39099598 0.6336970329 0.9402294159 
1.719162583 -15.38988781 0.6374357343 0.9398877025 
2.416379452 -15.38932133 0.6412339807 0.939540565 
3.123352051 -15.38875484 0.6463633776 0.9390718937 
6.114069462 -15.38633728 0.6815189719 0.9358664155 
7.761594296 -15.385005 0.7093198895 0.9333395362 
9.56413269 -15.38354015 0.7456376553 0.9300487041 
10.54040241 -15.38275814 0.7675880194 0.9280653 
17.45209694 -23.18595123 1.194554567 0.8903162479 
17.45045662 -21.15524864 1.12884903 0.8960241079 
17.44763374 -17.68214226 1.022533059 0.905336678 
19.86910439 -15.37524891 1.034151793 0.9043143392 
21.80639839 -15.37368107 1.098267913 0.8986929059 
26.53040314 -15.36986256 1.262100339 0.8844867349 
29.47620201 -15.36748981 1.368329287 0.8753958344 
32.97092819 -15.36465263 1.497312427 0.8644827008 
55.49538803 -20.07444382 2.429229736 0.7895767093 
73.11576843 -22.8249855 3.152913809 0.7359139323 
90.71447754 13.0053072 3.772277832 0.6928939223 
84.96053314 16.06604004 3.559218645 0.7074007988 
101.3073883 28.68120575 4.334030628 0.6560533643 
29.64167213 11.32288551 1.306132674 0.8807070255 
30.00825882 13.02062511 1.346499443 0.8772562146 
31.15389252 16.95409203 1.459985495 0.8676267266 
81.54470825 49.20022964 3.920275211 0.6829913855 
48.64182663 32.38420868 2.405396938 0.7914078236 
37.49275589 36.02053452 2.140158415 0.8120894432 
37.49003983 39.37156296 2.237860203 0.8044095635 
37.48706055 43.05075073 2.349783182 0.7957011461 
37.4837532 47.1258812 2.478649616 0.7857904434 
34.94377136 48.18616104 2.450137138 0.7879716754 
31.95988464 48.47074127 2.389882565 0.7926031351 
28.77861595 48.18115616 2.310129881 0.7987746 
15.02472591 31.14850044 1.423537135 0.8707081676 
11.56372738 30.68095398 1.349645853 0.8769876957 
1.994865656 8.638759613 0.3649548292 0.9651281238 
0.0603662096 13.56623173 0.5584347248 0.9471371174 
-2.791031361 32.93283463 1.360475898 0.876064539 
-53.33308411 91.122612 4.346026421 0.655282259 
-15.80620289 0.2813745141 0.6507365108 0.9386727214 
-15.81058788 -0.4222216606 0.6510447264 0.9386444688 
-82.46331787 -13.32435989 3.438472748 0.7157571316 
-64.21920776 -13.33193779 2.699825287 0.7690678835 
-52.2811203 -13.30457973 2.220642567 0.8057574034 
-34.20365524 -12.02942848 1.492467523 0.8648905754 
-37.67921448 -15.16706467 1.671931267 0.8499253988 
-37.45602798 -17.05066872 1.694036365 0.8481000066 
-34.11465073 -17.40139198 1.57640028 0.8578590155 
-34.11138916 -21.41848564 1.657976151 0.8510797024 
-34.10961914 -23.5959568 1.707265139 0.84700948 
-34.10773087 -25.91149902 1.76317358 0.8424165249 
-49.61285019 -41.29679489 2.65713191 0.7722680569 
-12.7286911 -12.67215347 0.7393372655 0.9306188822 
-38.33666611 -41.72310638 2.332359791 0.7970501781 
-35.04273605 -41.72043228 2.242761612 0.8040260673 
-34.16931152 -48.92737198 2.456523895 0.7874833941 
-9.934811592 -19.26447678 0.8922245502 0.9168835282 
-4.730900764 -15.39509773 0.662956357 0.9375576973 
-3.267302275 -15.39391613 0.6477778554 0.9389428496 
-1.858327627 -15.3927784 0.6382142305 0.9398164153 
0.2054858357 -15.39110851 0.6336015463 0.9402381778 
0.8913109899 -15.39055157 0.6345857382 0.9401483536 
2.276247501 -15.3894434 0.6403694153 0.9396196008 
3.698029757 -15.38829041 0.6514625549 0.9386062622 
4.430476189 -15.38770008 0.6591361761 0.9379060268 
5.181891918 -15.38708496 0.6683323383 0.9370676279 
5.956125259 -15.38646412 0.6791535616 0.9360821247 
6.75743866 -15.38581467 0.69171983 0.9349386692 
7.590651512 -15.38514137 0.7061848044 0.9336242676 
8.461227417 -15.38444805 0.7227287292 0.9321231246 
9.37544632 -15.3836956 0.741572082 0.9304165244 
17.45245743 -23.62104034 1.208923459 0.8890731931 
17.44789314 -18.00001335 1.031896234 0.904512763 
19.50829315 -15.37554169 1.022452474 0.905343771 
23.54106712 -15.37228012 1.157322764 0.8935457468 
35.81063461 -15.16101074 1.600741982 0.8558306694 
81.58227539 -30.33467674 3.582811832 0.7057794333 
76.06014252 -20.80406761 3.245869637 0.7292904854 
80.55036163 -18.22355461 3.399492025 0.7184752226 
88.51902771 -15.92440414 3.702194214 0.6976311803 
90.38421631 12.13811016 3.753896475 0.6941332221 
85.12124634 15.31313896 3.560099363 0.7073400617 
100.8858261 27.59450531 4.305299759 0.657887876 
42.15768433 13.57353973 1.823067784 0.8375235796 
30.0424633 12.71895695 1.342900157 0.8775632381 
29.28778458 13.96685982 1.335642219 0.8781829476 
28.4903965 16.84576225 1.362418056 0.8758990765 
45.28170776 32.53106308 2.29507637 0.7999453545 
41.08074951 32.37805176 2.153090715 0.8110682368 
37.49060059 38.67698288 2.217259645 0.8060229421 
37.48444366 46.27539444 2.45136404 0.7878783345 
35.6028595 48.18669891 2.466189384 0.7867431641 
32.43144608 48.24599457 2.392937422 0.7923675776 
15.49636173 31.40881729 1.441678643 0.8691731095 
13.73913574 31.28223801 1.406392932 0.8721609712 
12.57306385 32.48009872 1.433658004 0.86985147 
5.475651741 37.02019501 1.540443182 0.8608641028 
3.411389112 33.21517563 1.374428868 0.87487638 
1.9074682 32.93665314 1.358044863 0.8762716651 
-6.177934647 37.18321991 1.55155921 0.8599340916 
-62.68196106 89.75488281 4.50624752 0.6451487541 
-15.80536079 0.4220922887 0.6508299112 0.9386641383 
-15.80969238 -0.281452626 0.6508784294 0.9386596084 
-15.81430626 -0.9864941239 0.652231276 0.9385361671 
-54.37755585 -13.32393551 2.304562569 0.7992079258 
-39.97083282 -13.65922356 1.738735795 0.8444209099 
-37.75915527 -16.78463745 1.7009269 0.8475320935 
-34.71517181 -17.3201561 1.596963644 0.8561450243 
-34.10997772 -23.1500721 1.696903467 0.847863555 
-50.61985397 -41.37792206 2.691227913 0.769710958 
-46.25362015 -41.37438965 2.554511786 0.7800138593 
-35.68119812 -41.72095108 2.259772778 0.8026971221 
-7.064811707 -19.26216698 0.8445383906 0.9211457372 
-4.137209415 -15.39462376 0.6561747789 0.9381762743 
-3.410783529 -15.39402771 0.649032414 0.9388281703 
-2.698596239 -15.39345169 0.6433048844 0.9393512607 
-1.304499507 -15.39232922 0.6358677745 0.9400310516 
0.06850341707 -15.39121532 0.6335560679 0.9402423501 
2.136486769 -15.38955021 0.6395558119 0.9396938086 
2.839196682 -15.38898373 0.6441468596 0.9392741919 
4.282580376 -15.38781261 0.6574821472 0.9380568862 
5.029933929 -15.3872118 0.6663669944 0.9372467399 
5.799260139 -15.38659191 0.6768516302 0.9362914562 
6.594797134 -15.385952 0.6890580654 0.9351805449 
7.421217918 -15.38528252 0.7031309605 0.9339014888 
8.283849716 -15.3845892 0.7192445397 0.9324390888 
9.188772202 -15.38384724 0.7376084924 0.9307753444 
10.14304924 -15.38307571 0.7584745884 0.9288883209 
17.4528141 -24.06677246 1.223733902 0.8877931833 
23.09008026 -15.37264633 1.141833663 0.8948928714 
28.24034309 -15.36848068 1.323442221 0.8792252541 
73.7778244 -24.48105812 3.199746609 0.7325694561 
80.55096436 -18.97885704 3.406520844 0.7179849148 
106.0433197 -15.20305157 4.409701347 0.6512424946 
89.76831055 11.24297333 3.724006891 0.6961535811 
42.62207794 11.25137711 1.814559102 0.8382173181 
42.53684616 13.27903271 1.834282637 0.8366106749 
30.91495705 11.1829443 1.353252411 0.8766801953 
29.5375061 13.76466751 1.341395974 0.8776920438 
30.05529404 15.66937923 1.395210743 0.8731101155 
77.37817383 44.82744598 3.681357861 0.6990702152 
50.57306671 32.38577652 2.472007751 0.7862982154 
41.84217834 32.37868118 2.177814245 0.8091207743 
38.19868851 32.37571716 2.061166286 0.8183522224 
37.49378204 34.75962448 2.104561567 0.8149056435 
36.27066422 48.18723679 2.482644796 0.7854853868 
29.95532417 48.18211365 2.335378885 0.796816051 
15.8404541 31.39889526 1.447635293 0.8686696291 
12.77746296 32.15507507 1.424271703 0.8706456423 
11.43338585 32.97699738 1.436704874 0.8695935607 
14.34285355 48.19728088 2.069921732 0.8176549077 
12.06437683 48.30588913 2.049500465 0.8192817569 
9.775841713 48.16575241 2.02307415 0.8213896155 
5.804748535 36.96914673 1.54041183 0.8608670831 
2.201728582 32.93688965 1.358811736 0.8762065768 
-0.7328832746 32.93450928 1.356020927 0.8764442205 
-2.201479435 32.93331528 1.358661056 0.8762191534 
-3.678746223 32.93211746 1.364016294 0.8757627606 
-30.75161743 88.69591522 3.864203453 0.6867256761 
-62.69090652 100.8357239 4.887495041 0.6216723323 
-15.80880356 -0.1406933516 0.6507664323 0.9386700392 
-39.97114944 -13.2632761 1.733551741 0.8448471427 
-34.11206055 -20.58166504 1.639942169 0.8525737524 
-34.11034012 -22.709589 1.686802149 0.8486970663 
-47.09109116 -41.37507248 2.58032155 0.7780579925 
-43.06283951 -41.37181091 2.458100796 0.7873618007 
-34.092659 -47.0124855 2.390464783 0.7925584316 
-10.37317085 -19.26483345 0.9006516933 0.9161324501 
-7.259987831 -19.2623291 0.8473438621 0.9208943248 
-4.2844944 -15.39473629 0.6577784419 0.9380299449 
-3.554816723 -15.39414501 0.6503452659 0.9387082458 
-2.136965275 -15.39299774 0.6396998167 0.9396806955 
-0.06850341707 -15.39132786 0.6335594058 0.9402419329 
0.6167260408 -15.39077568 0.6340406537 0.9401981235 
1.304318786 -15.39022446 0.6357789636 0.9400389791 
2.697834492 -15.38910103 0.6431233287 0.9393678904 
3.409567833 -15.38852024 0.6487998962 0.9388493299 
4.135426998 -15.38793468 0.6558909416 0.9382022619 
4.878806114 -15.38733387 0.664465189 0.9374200702 
7.253229618 -15.38541985 0.7001612782 0.9341714382 
9.947882652 -15.38323689 0.7540876865 0.9292847514 
10.9475317 -15.38243103 0.7771751285 0.9272005558 
17.45141792 -22.34594154 1.16709733 0.8926969767 
17.44984055 -20.4035778 1.105135322 0.8980926275 
17.44714165 -17.0631485 1.004542351 0.9069222212 
24.9710083 -15.37112713 1.207013369 0.8892380595 
30.79925919 -15.36641598 1.416821122 0.8712766767 
35.36089706 -15.71849537 1.592887998 0.8564841747 
73.63217926 -21.55566406 3.158126831 0.7355403304 
80.51139832 -15.96820736 3.378652334 0.719933331 
98.38999939 20.42580605 4.136379242 0.6687855721 
43.80920792 11.14858341 1.86080277 0.8344560862 
42.84219742 12.95698166 1.842404008 0.8359501958 
27.95158386 14.2577076 1.291610479 0.8819517493 
83.40512848 52.36992645 4.053900719 0.6741732955 
46.81158066 32.38271332 2.343033791 0.7962233424 
42.62146378 32.37930679 2.203285217 0.8071187735 
38.89590454 32.37628174 2.083152771 0.8166037798 
32.0750618 34.9083519 1.951406717 0.8271347284 
37.48577499 44.62898254 2.399110794 0.7918920517 
36.94742203 48.1877861 2.499511003 0.7841976881 
30.55363464 48.18260193 2.348493338 0.7958004475 
16.18138695 31.37719345 1.453219771 0.8681982756 
14.47895241 31.43495941 1.424622059 0.8706161976 
14.80259514 48.16982269 2.07433176 0.8173053861 
10.2231369 48.16611099 2.026831388 0.8210895658 
6.133478642 36.91536713 1.540380716 0.860869348 
4.127395153 34.18795013 1.417499781 0.8712193966 
1.026247501 32.93593597 1.356402993 0.8764116764 
-0.1828637719 13.6971283 0.5638667345 0.946636796 
-7.168820858 37.00740814 1.551654816 0.8599258065 
-32.81956482 66.52038574 3.053313494 0.7430770993 
