# .PCD v0.7 - Point Cloud Data file format
VERSION 0.7
FIELDS x y z intensities
SIZE 4 4 4 4
TYPE F F F F
COUNT 1 1 1 1
WIDTH 924
HEIGHT 1
VIEWPOINT 0 0 0 1 0 0 0
POINTS 924
DATA ascii
-7.442253113 -0.9321069121 -1.999708772 0.969427526 
-7.159921646 -2.23516345 -1.999784946 0.9694263339 
-7.053508282 -2.55147934 -1.999813795 0.9694258571 
-6.93313694 -2.862768412 -1.999846458 0.9694253802 
-6.651513577 -3.46778059 -1.999923229 0.9694242477 
-5.933020115 -4.591135025 -2.000119209 0.9694212675 
-5.501796722 -5.100585938 -2.000236988 0.969419539 
-5.027021408 -5.569760799 -2.000366688 0.969417572 
-4.774435997 -5.788071156 -2.000435829 0.9694164991 
-4.512402058 -5.994943619 -2.000507355 0.9694154263 
-3.962021351 -6.372751236 -2.000658035 0.9694131613 
-3.078930616 -6.844223499 -2.00090003 0.9694095254 
-2.458642483 -7.091396332 -2.001069784 0.9694069624 
-2.140847206 -7.194052696 -2.001157045 0.9694056511 
-1.818796396 -7.28248024 -2.00124526 0.9694043398 
-1.493105412 -7.356506348 -2.001334667 0.9694030285 
-1.164431095 -7.415976524 -2.001424551 0.9694016576 
-0.5007397532 -7.490800381 -2.001606703 0.9693989158 
-0.167036131 -7.506010532 -2.001698256 0.9693975449 
1.819694757 -7.286120415 -2.002243757 0.9693893194 
2.773635149 -6.980007172 -2.002506018 0.9693853855 
3.383322716 -6.706425667 -2.002673388 0.9693828225 
3.678452015 -6.549548149 -2.002754688 0.9693816304 
3.966313362 -6.379687309 -2.002833843 0.9693804383 
4.78069067 -5.795656681 -2.003057957 0.9693770409 
5.732058048 -4.858276367 -2.003319979 0.9693731666 
6.502375126 -3.767035961 -2.00353241 0.9693698883 
6.663657188 -3.474125862 -2.003576994 0.9693692327 
7.266611099 -1.918239713 -2.003744125 0.9693667293 
7.344836235 -1.593117595 -2.00376606 0.9693663716 
7.491677284 -0.6013598442 -2.003807306 0.9693657756 
7.511034966 -0.2674999833 -2.003813028 0.969365716 
7.505080223 0.4011376798 -2.003812075 0.969365716 
7.47978735 0.7345873713 -2.003805399 0.9693657756 
7.439660549 1.066584468 -2.003794909 0.969366014 
7.315305233 1.723574162 -2.003761292 0.9693664312 
7.132978439 2.366867542 -2.003712177 0.9693672657 
7.020527363 2.681779623 -2.00368166 0.9693676829 
6.89415741 2.991381884 -2.003647327 0.9693682194 
6.434267521 3.882131338 -2.003521919 0.9693701267 
5.859848499 4.703615665 -2.003365278 0.9693724513 
5.418285847 5.205514908 -2.003244638 0.9693742394 
4.676753044 5.879775047 -2.003041744 0.9693772793 
3.707109213 6.206454754 -1.927429557 0.9705160856 
3.346293926 6.21465826 -1.881839871 0.9712033272 
2.155920267 6.595265865 -1.84995079 0.9716843367 
1.860327125 6.684345722 -1.849869847 0.9716855288 
1.561066866 6.760185242 -1.849787712 0.9716867805 
1.25874269 6.822631836 -1.849704862 0.9716880322 
0.6473242044 6.906877518 -1.849537134 0.9716905355 
0.3394091725 6.928520203 -1.849452615 0.9716918468 
0.03085693344 6.936440468 -1.849367976 0.9716930985 
-0.2777197063 6.93062973 -1.849283457 0.9716944098 
-0.5857152939 6.911100864 -1.849198699 0.9716956615 
-0.892531693 6.877895355 -1.849114537 0.9716969132 
-1.500161052 6.770734787 -1.848947763 0.9716994762 
-1.799782634 6.69699955 -1.848865271 0.9717007279 
-2.095825195 6.610016823 -1.848784089 0.97170192 
-3.630927563 6.203649998 -1.916447043 0.9706816077 
-4.00554657 6.194101334 -1.966648936 0.9699252248 
-4.618347168 5.913620472 -2.000491142 0.9694157243 
-4.876669884 5.702121258 -2.000420094 0.9694167972 
-5.363808632 5.24576664 -2.000285864 0.9694188237 
-5.80846405 4.747983456 -2.000163317 0.9694206715 
-6.013757229 4.484770298 -2.000106573 0.9694215059 
-6.20713377 4.21270752 -2.000053167 0.9694222808 
-6.556676865 3.644169807 -1.999956727 0.9694237709 
-6.854338169 3.046867609 -1.999874353 0.969424963 
-6.982961178 2.738898754 -1.999838829 0.969425559 
-7.285080433 1.785029292 -1.999754906 0.9694267511 
-7.485822678 0.4669457972 -1.9996984 0.9694275856 
-7.499159813 0.133493647 -1.999694347 0.9694277048 
-7.450256348 -0.865839839 -1.999706626 0.9694274664 
-7.343923092 -1.524602056 -1.999735236 0.9694270492 
-7.268901348 -1.84980464 -1.999755502 0.9694267511 
-6.958315372 -2.800937414 -1.999839783 0.9694254994 
-6.682087421 -3.408439875 -1.999914765 0.969424367 
-6.523989201 -3.702387571 -1.9999578 0.9694237113 
-6.169396877 -4.267797947 -2.000054598 0.9694222808 
-5.973610878 -4.538125038 -2.000108004 0.9694214463 
-5.765985966 -4.799499512 -2.000164747 0.9694206119 
-5.31691885 -5.293300629 -2.000287533 0.9694187641 
-4.018535137 -6.337189674 -2.000642538 0.9694133997 
-3.439655781 -6.669802189 -2.000801086 0.9694110751 
-3.139682531 -6.816486835 -2.000883341 0.9694098234 
-2.204770565 -7.174653053 -2.001139402 0.9694059491 
-1.558496118 -7.342868328 -2.001316547 0.9694032669 
-1.230368614 -7.405253887 -2.00140667 0.9694019556 
-0.5673877001 -7.485986233 -2.001588583 0.9693991542 
-0.2338256836 -7.504159927 -2.001679897 0.9693977833 
0.1002246067 -7.507472992 -2.001771688 0.9693964124 
2.077929735 -7.216994286 -2.002314806 0.9693882465 
3.323476553 -6.736217976 -2.002656937 0.9693830609 
3.619985342 -6.581974983 -2.002738714 0.9693818688 
3.90936017 -6.41467762 -2.002818108 0.9693806767 
4.728886604 -5.837936878 -2.003043652 0.9693772793 
5.229406834 -5.394895077 -2.003181458 0.9693751931 
6.102719784 -4.384296894 -2.00342226 0.9693715572 
6.291874886 -4.108598709 -2.003474474 0.9693707824 
6.783205509 -3.23480463 -2.003610134 0.9693687558 
7.15375948 -2.303313017 -2.003712893 0.9693672061 
7.330346584 -1.658413053 -2.003762007 0.9693664908 
7.448859692 -1.000346661 -2.003795385 0.9693659544 
7.486027718 -0.6679980159 -2.003805876 0.9693657756 
7.508356571 -0.3343334794 -2.003812313 0.969365716 
7.51581049 -2.441406195e-06 -2.003814697 0.9693656564 
7.508361816 0.3343261778 -2.003813028 0.969365716 
7.486027718 0.6679931283 -2.003807068 0.9693657756 
7.448866844 1.000336885 -2.003797293 0.9693659544 
7.33036375 1.658400893 -2.003765583 0.9693664312 
7.153781414 2.30330801 -2.003717661 0.9693671465 
6.29189682 4.108598709 -2.003483057 0.9693706632 
5.901513577 4.651313305 -2.003376484 0.9693722725 
5.688596249 4.909091473 -2.003318548 0.9693731666 
4.984113693 5.62201643 -2.003125906 0.9693760276 
4.728918552 5.837963581 -2.003056049 0.9693771005 
3.781379223 6.20468235 -1.93725431 0.9703680277 
3.41712141 6.213102818 -1.890502334 0.9710726738 
1.919758201 6.667577744 -1.849886179 0.9716853499 
1.31941402 6.811220646 -1.849721432 0.9716877937 
0.7087646127 6.900905609 -1.849553943 0.9716902971 
0.4010668993 6.925282955 -1.849469543 0.9716916084 
-0.2160327137 6.932892799 -1.849300146 0.9716941118 
-1.136708975 6.841520786 -1.849047542 0.9716979265 
-1.439860821 6.783881664 -1.848964214 0.9716991782 
-1.740134239 6.712814808 -1.848881841 0.9717004299 
-2.329667807 6.531010628 -1.848719716 0.9717028737 
-2.617778301 6.420641899 -1.84864068 0.9717040658 
-2.90067625 6.297570705 -1.848562837 0.9717052579 
-3.558202982 6.205422401 -1.907135367 0.9708219171 
-3.929086924 6.196105957 -1.956104994 0.9700840712 
-4.296332836 6.151955605 -2.000579596 0.9694143534 
-4.565568924 5.954535961 -2.000505686 0.9694154859 
-5.076384068 5.524792194 -2.000365019 0.969417572 
-5.973649979 4.538142204 -2.000117779 0.9694212675 
-6.169428349 4.267805099 -2.000063658 0.9694221616 
-6.353007793 3.989037991 -2.000013113 0.9694229364 
-6.682109356 3.40844965 -1.999922156 0.9694242477 
-6.826979637 3.107761145 -1.999881983 0.9694248438 
-7.075932503 2.48858881 -1.99981308 0.9694259167 
-7.343933105 1.524599552 -1.999738455 0.9694270492 
-7.404423714 1.196401358 -1.999721527 0.9694272876 
-7.450256348 0.8658300638 -1.999708533 0.969427526 
-7.481367111 0.5335595608 -1.999699712 0.9694275856 
-7.499165058 -0.1335082948 -1.99969399 0.9694277048 
-7.457655907 -0.7994970679 -1.999704719 0.969427526 
-7.414750576 -1.130461454 -1.999716163 0.9694273472 
-7.357182503 -1.459187031 -1.99973166 0.9694271088 
-7.285058498 -1.785031676 -1.999751091 0.9694268703 
-7.198530197 -2.107358456 -1.999774456 0.9694264531 
-7.097763538 -2.425522327 -1.999801755 0.9694260359 
-6.712123871 -3.348828077 -1.99990654 0.9694244862 
-6.556650162 -3.644169807 -1.999948978 0.9694238305 
-6.207099438 -4.212697506 -2.000044346 0.9694224596 
-6.013727665 -4.484755993 -2.000097036 0.9694216251 
-5.808437347 -4.74796629 -2.000153065 0.9694207907 
-4.876628399 -5.702096939 -2.000407934 0.969416976 
-4.350849628 -6.11340332 -2.000551701 0.9694147706 
-4.074748516 -6.301130295 -2.000627279 0.9694136381 
-3.498864651 -6.638876915 -2.000784874 0.9694112539 
-3.200202465 -6.788225174 -2.000866652 0.9694100022 
-2.89517808 -6.924162388 -2.000950336 0.9694087505 
-1.948083401 -7.248830318 -2.001209736 0.9694048762 
-1.623776793 -7.3286376 -2.001298666 0.9694035649 
2.013603449 -7.235141277 -2.002296925 0.969388485 
2.333569288 -7.13871336 -2.002384901 0.9693871737 
2.648925781 -7.02814436 -2.002471685 0.9693858624 
2.959069729 -6.903652191 -2.002556801 0.9693846107 
3.263369083 -6.765470982 -2.002640486 0.969383359 
3.561235189 -6.613872051 -2.002722502 0.9693821073 
4.410370827 -6.081745625 -2.002956152 0.9693785906 
4.676708698 -5.879755497 -2.003029346 0.9693774581 
6.063427448 -4.438413143 -2.003411293 0.969371736 
6.255022049 -4.164404392 -2.003464222 0.9693709612 
6.434237957 -3.882133722 -2.003513813 0.9693701863 
6.600719929 -3.592136145 -2.003559589 0.9693695307 
6.754118443 -3.295026779 -2.003602028 0.969368875 
6.894137859 -2.991381884 -2.00364089 0.969368279 
7.020505428 -2.681787014 -2.003675699 0.9693677425 
7.132966042 -2.36687994 -2.00370717 0.9693672657 
7.505080223 -0.4011401236 -2.003811359 0.969365716 
7.515507698 -0.06689208746 -2.003814459 0.9693656564 
7.511039734 0.2674926817 -2.003813505 0.969365716 
7.491684437 0.6013427377 -2.003808737 0.9693657756 
7.408503056 1.264807105 -2.003786564 0.9693661332 
7.174015999 2.239553213 -2.003723145 0.9693670869 
6.946359634 2.868222475 -2.003661394 0.969367981 
6.811767578 3.174326181 -2.003624916 0.969368577 
6.663693905 3.474123478 -2.003584623 0.9693691134 
6.502407074 3.767026186 -2.003540516 0.9693698287 
6.32824707 4.052455902 -2.003493071 0.969370544 
5.942705154 4.598635197 -2.003387928 0.9693720937 
5.732101917 4.858295918 -2.003330231 0.9693729877 
5.033988953 5.577473164 -2.003139496 0.9693758488 
4.780722618 5.795683384 -2.003070354 0.9693769217 
4.24354744 6.19307375 -2.001590014 0.9693991542 
3.856386662 6.202870846 -1.947325706 0.9702162743 
3.140107393 6.224308968 -1.858705759 0.9715522528 
2.846933603 6.328530312 -1.850140214 0.9716814756 
2.5625 6.448637486 -1.850062251 0.9716826081 
1.979030728 6.650295258 -1.849902272 0.9716850519 
1.681176662 6.731447697 -1.849820614 0.9716863036 
0.7701562047 6.894389629 -1.84957087 0.9716900587 
0.4626879692 6.921508789 -1.84948647 0.9716913104 
0.1543188393 6.934919357 -1.849401832 0.9716926217 
-1.680341721 6.728093147 -1.848898292 0.9717001915 
-2.271472216 6.551545143 -1.848735809 0.9717026353 
-2.560551643 6.443737507 -1.848656416 0.9717038274 
-2.844531298 6.323188305 -1.848578334 0.9717050195 
-3.137953997 6.220038891 -1.857430577 0.9715714455 
-3.853425264 6.19806385 -1.945820093 0.9702389836 
-4.239946365 6.187795162 -1.999884486 0.9694248438 
-4.512434006 5.994970798 -2.000520229 0.9694152474 
-4.774467468 5.788097858 -2.000447989 0.9694163799 
-5.723105431 4.850673676 -2.000186682 0.9694202542 
-5.93305397 4.591142654 -2.000128984 0.9694211483 
-6.131235123 4.322556019 -2.000074148 0.9694219828 
-6.317292213 4.045436859 -2.000022888 0.9694227576 
-6.490839481 3.760327101 -1.999974966 0.9694234729 
-6.799084187 3.16841054 -1.999889731 0.9694247246 
-6.933166504 2.862771034 -1.999852538 0.969425261 
-7.053527832 2.551491737 -1.999819279 0.9694257975 
-7.252182484 1.914416432 -1.999764085 0.9694266319 
-7.330090046 1.589902282 -1.999742389 0.96942693 
-7.442275047 0.932097137 -1.999710798 0.9694274068 
-7.476332664 0.6001098752 -1.999701142 0.9694275856 
-7.495607853 0.2669458091 -1.999695539 0.9694276452 
-7.216977596 -2.043207884 -1.999769568 0.9694265723 
-7.119045258 -2.362253428 -1.999796152 0.9694261551 
-7.007021427 -2.676635742 -1.999826431 0.9694256783 
-6.881134987 -2.985727549 -1.999860644 0.9694252014 
-6.422907352 -3.875290394 -1.999985456 0.9694232941 
-6.244321346 -4.157272816 -2.000034094 0.9694225788 
-5.410222054 -5.197765827 -2.000262022 0.9694191217 
-5.173810959 -5.433466911 -2.000326395 0.9694181681 
-4.130632401 -6.264567852 -2.00061202 0.9694138765 
-3.260458946 -6.759421349 -2.000850201 0.9694103003 
-2.646996975 -7.023054123 -2.001018286 0.9694077373 
-2.332067728 -7.134150028 -2.001104593 0.9694064856 
-1.032272935 -7.435666561 -2.001461029 0.9694011211 
0.3006225526 -7.502324104 -2.001826525 0.9693956375 
0.6340820193 -7.481870174 -2.001918077 0.969394207 
3.502209425 -6.645251274 -2.002706051 0.9693823457 
3.794506788 -6.483144283 -2.002786398 0.9693811536 
4.624162674 -5.921093464 -2.003014803 0.9693776965 
4.883151531 -5.709736347 -2.00308609 0.9693766236 
5.371674538 -5.253466606 -2.003220558 0.9693745971 
5.600224495 -5.009474754 -2.003283739 0.9693736434 
6.217682838 -4.21987772 -2.00345397 0.96937114 
6.399396896 -3.93921876 -2.003504038 0.9693703651 
6.568449497 -3.650734663 -2.003550768 0.9693696499 
6.867216587 -3.05260253 -2.003633261 0.9693683982 
6.996337891 -2.744145393 -2.003669262 0.9693678617 
7.111596584 -2.430248976 -2.00370121 0.9693673849 
7.299643517 -1.7886132 -2.003753424 0.9693665504 
7.372055531 -1.462138653 -2.003773689 0.9693662524 
7.501208305 -0.467907697 -2.003810167 0.969365716 
7.513129711 0.2006420791 -2.003813982 0.9693656564 
7.496750355 0.5346435308 -2.003809929 0.969365716 
7.465507507 0.8675976396 -2.003801823 0.9693658948 
7.419477463 1.198823214 -2.003789425 0.9693660736 
7.358745098 1.527668476 -2.003773212 0.969366312 
7.283437252 1.853488684 -2.003752947 0.9693666101 
7.193678856 2.175617695 -2.003728628 0.9693670273 
7.089680195 2.493442297 -2.003700256 0.9693673849 
6.839775085 3.113591194 -2.003632545 0.9693684578 
6.694365025 3.414699554 -2.00359273 0.9693690538 
6.535703182 3.709033012 -2.003549576 0.9693696499 
5.983442307 4.54557848 -2.003398895 0.9693719149 
5.555414677 5.059108734 -2.00328207 0.969373703 
4.571286678 5.962001801 -2.003012896 0.9693777561 
4.301398754 6.159211159 -2.002938986 0.9693788886 
3.932187319 6.201005936 -1.957651615 0.9700607657 
3.206340313 6.217851639 -1.865224123 0.9714543223 
2.90316391 6.302998066 -1.850155592 0.9716812372 
2.038156748 6.632475376 -1.849918485 0.9716848135 
0.5242626667 6.917177677 -1.849503398 0.971691072 
0.2160351574 6.933337212 -1.849418879 0.9716923237 
-0.09260741621 6.935763836 -1.849334121 0.971693635 
-0.7086132765 6.899455547 -1.849164963 0.971696198 
-1.014780283 6.860795975 -1.84908092 0.9716974497 
-1.318908691 6.808554649 -1.848997474 0.9716987014 
-1.620410085 6.742839336 -1.848914623 0.9716999531 
-2.213100433 6.571557522 -1.848751783 0.9717023969 
-2.503127337 6.466320515 -1.848672152 0.9717036486 
-3.778510571 6.199970722 -1.935782552 0.9703902006 
-4.458938122 6.034936428 -2.000535011 0.969415009 
-4.722802639 5.830395222 -2.000462294 0.9694161415 
-5.221952915 5.387197018 -2.000324726 0.9694182277 
-5.679738522 4.901445389 -2.000198841 0.969420135 
-5.89198494 4.643801212 -2.00014019 0.9694209695 
-6.457140923 3.817961454 -1.999984264 0.9694233537 
-6.620439529 3.526862621 -1.999939084 0.9694240093 
-6.907436371 2.92437005 -1.999859691 0.9694252014 
-7.030561447 2.614160061 -1.999825597 0.9694257379 
-7.139782429 2.298801184 -1.999795318 0.9694261551 
-7.47069788 0.6666259766 -1.999702692 0.9694275856 
-7.492929459 -0.333645016 -1.999695539 0.9694277048 
-7.38196516 -1.328015089 -1.999724984 0.969427228 
-7.315646648 -1.655087829 -1.999742866 0.96942693 
-7.234855652 -1.978898883 -1.999764681 0.9694266319 
-6.45710659 -3.817961454 -1.999976158 0.9694234729 
-5.456220627 -5.14937973 -2.000249386 0.9694193602 
-5.221926212 -5.387172699 -2.000313282 0.9694183469 
-4.977292538 -5.614323616 -2.000380278 0.9694173336 
-4.722773552 -5.830366135 -2.000449896 0.9694163203 
-4.186181545 -6.227514744 -2.000596762 0.969414115 
-3.905170918 -6.407812119 -2.000673532 0.9694129229 
-3.017939329 -6.871408463 -2.000916719 0.9694092274 
-2.709379911 -6.999145508 -2.00100112 0.9694080353 
-2.07674551 -7.21288538 -2.001174688 0.9694054127 
-1.098393559 -7.426117897 -2.001442909 0.9694013596 
-0.4340624809 -7.495034218 -2.001625061 0.9693986177 
1.230790973 -7.407758713 -2.002082109 0.9693917632 
1.559165001 -7.346005917 -2.002172232 0.9693903923 
1.884482384 -7.269704342 -2.002261639 0.9693890214 
2.835659027 -6.955109596 -2.002522945 0.9693850875 
3.142380238 -6.822372913 -2.002607107 0.9693838358 
3.736628294 -6.516596317 -2.002770662 0.969381392 
4.022968769 -6.34417963 -2.00284934 0.9693801999 
4.301364422 -6.159179688 -2.002925873 0.9693790674 
4.57125473 -5.961965084 -2.003000259 0.9693779349 
5.775112152 -4.807096958 -2.0033319 0.9693729281 
6.179851055 -4.27502203 -2.00344348 0.9693712592 
6.364064693 -3.996001005 -2.003494263 0.9693704844 
6.839750767 -3.113593578 -2.003625631 0.9693685174 
6.971618652 -2.806291342 -2.003662348 0.969367981 
7.089670181 -2.493434906 -2.003695011 0.9693674445 
7.358745098 -1.52768302 -2.003769875 0.969366312 
7.465500355 -0.8676123023 -2.003799915 0.9693658948 
7.496747971 -0.5346630812 -2.003808737 0.969365716 
7.514616489 0.1337768584 -2.003814459 0.9693656564 
7.299653053 1.788598537 -2.003757238 0.9693665504 
7.111623287 2.430246592 -2.003706217 0.9693672657 
6.996352196 2.744157553 -2.003674984 0.9693678021 
6.867240906 3.052612305 -2.003639936 0.9693683386 
6.568481445 3.65073967 -2.003558636 0.9693695307 
5.817731857 4.755554199 -2.003353596 0.9693726301 
5.600258827 5.009494305 -2.00329423 0.9693735242 
5.371557713 5.253498554 -2.003231764 0.9693748355 
4.883193016 5.709758282 -2.003098249 0.9693764448 
4.624201775 5.921123028 -2.003027439 0.9693775177 
3.633579016 6.208180904 -1.917847276 0.9706605077 
3.27608633 6.216174126 -1.873395801 0.9713306427 
2.097123861 6.614133358 -1.849934697 0.9716845751 
1.800747037 6.700583458 -1.849853516 0.9716857672 
1.500827551 6.773752213 -1.849771261 0.9716870189 
0.8927710056 6.879714012 -1.849604487 0.9716895223 
-0.03085693344 6.936376572 -1.849351168 0.9716933966 
-0.3393628001 6.927822113 -1.84926641 0.9716946483 
-0.6471776962 6.905551434 -1.84918189 0.9716959 
-1.258291006 6.820077896 -1.849014044 0.971698463 
-1.560356379 6.757055283 -1.848931193 0.9716997147 
-1.859309077 6.680661678 -1.848848939 0.9717009068 
-2.445510149 6.488398075 -1.848688006 0.9717033505 
-3.344047785 6.210478306 -1.880573988 0.9712224007 
-4.405070782 6.074426174 -2.000549793 0.9694148302 
-4.927175045 5.658464432 -2.000406027 0.969416976 
-5.173835278 5.433505535 -2.000338078 0.9694179893 
-5.635939598 4.951811314 -2.000210762 0.9694199562 
-6.422948837 3.87528801 -1.999993682 0.9694231749 
-6.588825703 3.585651875 -1.999947906 0.9694238901 
-6.881156921 2.985734701 -1.999867082 0.9694250822 
-7.11906004 2.362250805 -1.999801159 0.9694260955 
-7.30065155 1.720124483 -1.999750495 0.9694268703 
-7.424521446 1.0644238 -1.999715805 0.9694273472 
-7.330070496 -1.589924335 -1.999738932 0.9694269896 
-7.159919262 -2.235166073 -1.999784946 0.9694263339 
-7.053500652 -2.551486731 -1.999813795 0.9694259167 
-6.799052715 -3.168405771 -1.999882936 0.9694248438 
-6.651513577 -3.46778059 -1.999923229 0.9694242477 
-6.131215572 -4.322546482 -2.00006485 0.969422102 
-5.723081112 -4.850642204 -2.00017643 0.969420433 
-5.26961422 -5.34045887 -2.000300407 0.9694185853 
-5.027006626 -5.569775105 -2.000366688 0.969417572 
-4.774421215 -5.788080692 -2.000435829 0.9694165587 
-4.241405964 -6.189968109 -2.000581503 0.9694143534 
-3.962009192 -6.372758865 -2.000658035 0.9694131613 
-3.674743652 -6.5429492 -2.000736713 0.9694120288 
-3.380178213 -6.700200081 -2.000817299 0.9694108367 
-3.078930616 -6.844223499 -2.00090003 0.9694095254 
-2.458644867 -7.091389179 -2.001069784 0.9694069624 
-1.164443374 -7.415981293 -2.001424551 0.9694016576 
-0.8334375024 -7.460773945 -2.001515388 0.9694002867 
-0.5007519126 -7.49080801 -2.001606703 0.9693989158 
-0.1670165956 -7.506008148 -2.001698256 0.9693975449 
0.1670507789 -7.506352425 -2.001790047 0.969396174 
0.8336206079 -7.462482929 -2.001972914 0.9693933725 
1.493720651 -7.359526157 -2.002154112 0.9693906307 
1.819697261 -7.286122799 -2.002243757 0.9693893194 
2.142099619 -7.198278427 -2.002332211 0.9693880081 
3.966315746 -6.379689693 -2.002833843 0.9693804383 
5.03396225 -5.577436447 -2.003127813 0.9693760276 
6.502382755 -3.767028809 -2.00353241 0.9693698883 
6.811740398 -3.174326181 -2.003618002 0.9693686366 
7.266613483 -1.918249488 -2.003744125 0.9693667293 
7.344831467 -1.593122482 -2.00376606 0.9693664312 
7.408495903 -1.26482904 -2.003783941 0.9693661332 
7.505082607 0.4011401236 -2.003812075 0.969365716 
7.384794712 1.396467209 -2.003780127 0.9693661928 
6.894165039 2.991376877 -2.003647327 0.9693682194 
6.754145145 3.295026779 -2.00360918 0.9693687558 
6.434274673 3.882123947 -2.003521919 0.9693700671 
6.063449383 4.438435078 -2.00342083 0.9693716168 
5.859846115 4.703632832 -2.003365278 0.9693724513 
5.644640923 4.959499359 -2.003306389 0.9693733454 
5.41827631 5.205524921 -2.003244638 0.9693742394 
5.181176662 5.441215515 -2.003179789 0.9693752527 
4.933842659 5.666118145 -2.003112078 0.969376266 
4.410405159 6.081772327 -2.002968788 0.9693784118 
4.086176872 6.197133541 -1.979079962 0.9697380662 
2.736091137 6.38340807 -1.851652384 0.9716586471 
2.155930042 6.595265865 -1.84995079 0.9716843367 
1.860334396 6.684343338 -1.849869847 0.9716855288 
0.9539477229 6.871560097 -1.849621177 0.9716892838 
0.6473046541 6.906879902 -1.849537134 0.9716905355 
0.03085693344 6.936442852 -1.849367976 0.9716930985 
-0.5857201815 6.911103249 -1.849198699 0.9716956615 
-0.892531693 6.877895355 -1.849114537 0.9716969132 
-1.500161052 6.770734787 -1.848947763 0.9716994762 
-1.799782634 6.69699955 -1.848865271 0.9717007279 
-2.674782753 6.39703846 -1.848624945 0.9717043042 
-3.273910999 6.21208477 -1.872161269 0.971349299 
-3.630908012 6.203649998 -1.916444778 0.9706816077 
-4.005561352 6.194103718 -1.96665132 0.9699252248 
-4.350888729 6.113425255 -2.000564575 0.9694145918 
-4.618354321 5.913608074 -2.000491142 0.9694157243 
-4.876669884 5.702114105 -2.000420094 0.9694167972 
-5.363811016 5.245761395 -2.000285864 0.9694188237 
-5.591672421 5.001811504 -2.000222921 0.9694197774 
-5.80846405 4.747983456 -2.000163317 0.9694206715 
-6.013757229 4.484770298 -2.000106573 0.9694215059 
-6.20713377 4.21270752 -2.000053167 0.9694222808 
-6.556679726 3.644177198 -1.999956727 0.9694237113 
-6.712158203 3.348837852 -1.999913692 0.969424367 
-7.357202053 1.45916748 -1.999734759 0.9694270492 
-7.414762974 1.130439401 -1.999718547 0.9694273472 
-7.499159813 0.1334863305 -1.999694347 0.9694277048 
-7.343923092 -1.524602056 -1.999735236 0.9694270492 
-7.268903732 -1.849797368 -1.999755502 0.9694267511 
-7.179513931 -2.171337843 -1.999779582 0.9694263935 
-7.075910568 -2.488591194 -1.999807715 0.9694259763 
-6.958317757 -2.800930023 -1.999839783 0.9694254994 
-6.826962948 -3.107746601 -1.999875426 0.969424963 
-6.523979187 -3.702402353 -1.9999578 0.9694237113 
-6.169394493 -4.267802715 -2.000054598 0.9694222808 
-5.97359848 -4.538132191 -2.000108004 0.9694214463 
-5.765974045 -4.799506664 -2.000164747 0.9694206119 
-5.546928406 -5.05139637 -2.00022459 0.9694197178 
-5.316906452 -5.293310642 -2.000287533 0.9694187641 
-4.825732231 -5.745317459 -2.000421762 0.969416678 
-4.565541744 -5.95450449 -2.00049305 0.9694156647 
-3.732814789 -6.509926796 -2.000720978 0.9694122076 
-3.439662933 -6.669799805 -2.000801086 0.9694110155 
-2.833486319 -6.949694633 -2.000967264 0.9694085121 
-2.521611214 -7.069169998 -2.001052618 0.9694072604 
-2.204755783 -7.174657822 -2.001139402 0.9694059491 
-1.883500934 -7.265946865 -2.001227617 0.9694046378 
-1.55849123 -7.342870712 -2.001316547 0.9694032669 
-1.230368614 -7.405256271 -2.00140667 0.969401896 
-0.8997753859 -7.452992916 -2.001497269 0.9694005847 
-0.5673754811 -7.485981464 -2.001588583 0.9693992138 
0.1002246067 -7.507472992 -2.001771688 0.9693964124 
0.4341015518 -7.49592495 -2.001863241 0.9693950415 
0.7671533227 -7.469535828 -2.001954794 0.9693936706 
1.098718286 -7.428351879 -2.002045631 0.9693922997 
2.397009134 -7.117726803 -2.002402306 0.9693869352 
3.323488712 -6.736210823 -2.002656937 0.9693830609 
4.464360237 -6.042284966 -2.002970934 0.9693783522 
4.728891373 -5.837927341 -2.003043652 0.9693772793 
4.984079361 -5.621989727 -2.003113985 0.9693762064 
5.688551903 -4.909069538 -2.003307819 0.9693733454 
5.901489258 -4.651298523 -2.003366709 0.9693723917 
6.102712154 -4.384299278 -2.00342226 0.9693715572 
6.291862488 -4.108598709 -2.003474474 0.9693707824 
6.632441044 -3.533288479 -2.003568411 0.9693694115 
7.330348969 -1.658405781 -2.003762007 0.9693664908 
7.396940708 -1.330690861 -2.003780603 0.9693661928 
7.448859692 -1.000344157 -2.003795385 0.9693659544 
7.486027718 -0.6679980159 -2.003805876 0.9693657756 
7.51581049 -2.441406195e-06 -2.003814697 0.9693656564 
7.508361816 0.3343261778 -2.003813028 0.969365716 
7.448866844 1.000329614 -2.003797293 0.9693659544 
7.330366135 1.658393502 -2.003765583 0.9693664312 
7.249262333 1.982807517 -2.003743649 0.9693667293 
7.153774261 2.303317785 -2.003717661 0.9693671465 
6.920536995 2.92992425 -2.00365448 0.9693681002 
6.468593597 3.824745893 -2.003531218 0.9693699479 
5.901513577 4.651313305 -2.003376484 0.9693722725 
5.688596249 4.909091473 -2.003318548 0.9693731666 
5.229443073 5.394919395 -2.003192902 0.9693750143 
4.728925705 5.837954044 -2.003056049 0.9693771005 
1.919746041 6.667580605 -1.849886179 0.9716853499 
0.09260009229 6.935961723 -1.849385023 0.9716928601 
-0.2160180658 6.932892799 -1.849300146 0.9716941118 
-2.036943197 6.628466606 -1.848800302 0.9717016816 
-2.329677582 6.531005859 -1.848719716 0.9717028737 
-2.900681019 6.297568321 -1.848562837 0.9717052579 
-3.204428673 6.213647366 -1.86396575 0.971472919 
-3.558215141 6.205420017 -1.907136798 0.9708219171 
-3.929086924 6.196105957 -1.956104994 0.9700840712 
-4.296332836 6.151955605 -2.000579596 0.9694143534 
-4.82575655 5.745337009 -2.000433922 0.9694165587 
-5.076384068 5.524792194 -2.000365019 0.969417572 
-5.316940784 5.293337345 -2.000298738 0.9694185853 
-5.766005516 4.79952383 -2.000174999 0.9694204926 
-6.35301733 3.989028215 -2.000013113 0.9694228768 
-6.524018288 3.702382803 -1.999965787 0.9694236517 
-6.958334923 2.800927639 -1.999845743 0.9694254398 
-7.075932503 2.48858881 -1.99981308 0.9694259167 
-7.268915653 1.849794865 -1.999759316 0.9694267511 
-7.343933105 1.524599552 -1.999738455 0.9694270492 
-7.450256348 0.8658300638 -1.999708533 0.969427526 
-7.481367111 0.5335595608 -1.999699712 0.9694275856 
-7.499157429 -0.1334912032 -1.999694228 0.9694277048 
-7.41476059 -1.130441904 -1.999716163 0.9694273472 
-7.285060883 -1.785048842 -1.999751091 0.9694268107 
-6.854311466 -3.046872377 -1.999867916 0.9694250822 
-6.712123871 -3.348828077 -1.99990654 0.9694244862 
-6.38819313 -3.932314396 -1.999994874 0.9694231749 
-6.207099438 -4.212697506 -2.000044346 0.9694224596 
-6.013727665 -4.484755993 -2.000097036 0.9694216251 
-5.808437347 -4.74796629 -2.000153065 0.9694207907 
-5.3637743 -5.245732307 -2.000274658 0.9694190025 
-4.876643181 -5.702087402 -2.000407934 0.9694169164 
-4.618303299 -5.913600922 -2.000478506 0.9694159031 
-4.350839615 -6.113412857 -2.000551701 0.9694147706 
-4.074740887 -6.301139832 -2.000627279 0.9694136381 
-3.4988451 -6.638879299 -2.000784874 0.9694112539 
-3.200182915 -6.788225174 -2.000866652 0.9694100618 
-2.89517808 -6.924162388 -2.000950336 0.9694087505 
-2.584418774 -7.046389103 -2.001035452 0.9694074988 
-2.268508196 -7.154687405 -2.001121998 0.9694061875 
-1.948083401 -7.248830318 -2.001209736 0.9694048762 
-1.29622066 -7.393947601 -2.00138855 0.969402194 
0.03339355439 -7.50799799 -2.00175333 0.9693967104 
1.032575607 -7.437773228 -2.002027512 0.9693925381 
1.689707041 -7.317221642 -2.002207994 0.9693898559 
2.333569288 -7.13871336 -2.002384901 0.9693871737 
2.648925781 -7.02814436 -2.002471685 0.9693858624 
2.959069729 -6.903652191 -2.002556801 0.9693846107 
3.263369083 -6.765470982 -2.002640486 0.969383359 
3.852082491 -6.44917202 -2.002802372 0.9693809152 
4.135312557 -6.271672249 -2.002880335 0.9693797231 
4.933808327 -5.666090965 -2.003100157 0.9693764448 
5.418239594 -5.205505371 -2.003233433 0.9693744183 
5.64463377 -4.959460258 -2.003295898 0.9693734646 
5.859802246 -4.703598499 -2.003355265 0.9693726897 
6.255029202 -4.164396763 -2.003464222 0.9693709612 
6.754118443 -3.295026779 -2.003602028 0.969368875 
6.894137859 -2.991381884 -2.00364089 0.969368279 
7.020505428 -2.681787014 -2.003675699 0.9693677425 
7.132966042 -2.36687994 -2.00370717 0.9693672657 
7.231284142 -2.047263145 -2.00373435 0.9693669081 
7.315282822 -1.723583937 -2.003757715 0.9693665504 
7.384775162 -1.396479487 -2.003777266 0.9693662524 
7.43965292 -1.066601515 -2.003792763 0.969366014 
7.505080223 -0.4011572301 -2.003811359 0.969365716 
7.515505314 -0.06690429896 -2.003814459 0.9693656564 
7.511039734 0.2675073147 -2.003813505 0.9693656564 
7.457489967 0.9340161085 -2.003799677 0.9693658948 
7.344838619 1.593112707 -2.003769398 0.9693663716 
7.266623497 1.918237209 -2.003748178 0.9693667293 
7.067189693 2.556430578 -2.003694296 0.9693675041 
6.811767578 3.174326181 -2.003624916 0.969368577 
6.663693905 3.474123478 -2.003584623 0.9693691134 
6.502407074 3.767026186 -2.003540516 0.9693698287 
6.141564846 4.329836369 -2.003442287 0.9693712592 
5.732101917 4.858285904 -2.003330231 0.9693729877 
4.243495941 6.19307375 -2.001586676 0.9693992734 
3.856386662 6.202870846 -1.947325706 0.9702162743 
3.488591194 6.211501122 -1.899386525 0.9709387422 
3.140107393 6.224308968 -1.858705759 0.9715522528 
2.846933603 6.328530312 -1.850140214 0.9716814756 
2.273005247 6.555959225 -1.849982858 0.9716838598 
1.681176662 6.731447697 -1.849820614 0.9716863036 
1.380007267 6.799262524 -1.849738121 0.9716875553 
-0.1543334872 6.934604168 -1.849317074 0.9716938734 
-0.7699853182 6.892814636 -1.849148154 0.9716964364 
-1.680341721 6.728093147 -1.848898292 0.9717001915 
-1.977873445 6.646391392 -1.848816514 0.9717014432 
-2.844531298 6.323188305 -1.848578334 0.9717050195 
-3.137953997 6.220038891 -1.857430577 0.9715714455 
-3.486154795 6.207148075 -1.898054719 0.9709588289 
-4.51241684 5.994980335 -2.000520229 0.9694152474 
-4.774475098 5.788088322 -2.000447989 0.9694163799 
-5.027058125 5.569775105 -2.000378609 0.9694173932 
-5.501833439 5.100603104 -2.000247717 0.9694193602 
-6.317292213 4.045436859 -2.000022888 0.9694227576 
-6.799084187 3.16841054 -1.999889731 0.9694247246 
-6.933166504 2.862771034 -1.999852538 0.969425261 
-7.393493652 1.262258291 -1.999724507 0.969427228 
-7.442272663 0.9320824742 -1.999710798 0.9694274664 
-7.495603085 0.2669311464 -1.999695539 0.9694276452 
-7.489670277 -0.4003295898 -1.999696493 0.9694276452 
-7.464465141 -0.7330981493 -1.99970305 0.9694275856 
-7.300646782 -1.720134258 -1.999746799 0.9694268703 
-7.216977596 -2.043207884 -1.999769568 0.9694265723 
-7.007021427 -2.676635742 -1.999826431 0.9694256783 
-6.741645336 -3.288935423 -1.999898672 0.9694246054 
-6.588798523 -3.585646868 -1.999940276 0.9694240093 
-6.24432373 -4.157260418 -2.000034094 0.9694225788 
-6.053356647 -4.431052208 -2.000086308 0.969421804 
-5.850417137 -4.696064472 -2.000141621 0.9694209695 
-5.635888577 -4.951813698 -2.000200272 0.9694200754 
-5.173800945 -5.433474064 -2.000326633 0.9694181681 
-4.670722485 -5.872219086 -2.000464201 0.9694160819 
-4.405051231 -6.07439661 -2.000536919 0.969415009 
-3.260458946 -6.759421349 -2.000850201 0.9694103003 
-2.64700675 -7.023046494 -2.001018286 0.9694077373 
-2.0125072 -7.231140137 -2.001192093 0.9694051147 
-1.688894033 -7.313837528 -2.001281023 0.9694038033 
-1.361938477 -7.382052898 -2.00137043 0.969402492 
-1.032258272 -7.435666561 -2.001461029 0.9694011211 
-0.3673315346 -7.498669147 -2.001643419 0.9693983793 
-0.03339843825 -7.507929325 -2.001734972 0.9693970084 
0.9663207531 -7.446603775 -2.002009392 0.9693928361 
1.296677232 -7.396576881 -2.002100229 0.9693914652 
2.586242676 -7.051389217 -2.002454281 0.9693861008 
2.89746809 -6.929655552 -2.002539873 0.9693848491 
3.502192259 -6.645258427 -2.002706051 0.9693823457 
4.079313755 -6.308166504 -2.002864838 0.9693799615 
4.356051922 -6.120697975 -2.002941132 0.969378829 
4.883161545 -5.709726334 -2.00308609 0.9693766236 
6.023652077 -4.49216795 -2.003400326 0.9693719149 
6.217682838 -4.21987772 -2.00345397 0.96937114 
6.399396896 -3.93921876 -2.003504038 0.9693703651 
6.568449497 -3.650734663 -2.003550768 0.9693696499 
6.724492073 -3.355009794 -2.003593922 0.9693689942 
6.867218971 -3.052614689 -2.003633261 0.9693683982 
6.996332645 -2.744164944 -2.003669262 0.9693678617 
7.111589432 -2.430266142 -2.00370121 0.9693673849 
7.372055531 -1.462121606 -2.003773689 0.969366312 
7.429862976 -1.132748961 -2.003789663 0.969366014 
7.472934246 -0.8011254668 -2.003802061 0.9693658948 
7.501208305 -0.467907697 -2.003810167 0.969365716 
7.514614105 -0.1337670833 -2.00381422 0.9693656564 
7.513129711 0.2006420791 -2.003813982 0.9693656564 
7.496750355 0.5346435308 -2.003809929 0.969365716 
7.465507507 0.8675976396 -2.003801823 0.9693658948 
7.358745098 1.527668476 -2.003773212 0.969366312 
7.193678856 2.175617695 -2.003728628 0.9693670273 
6.971640587 2.806288958 -2.003668308 0.9693678617 
6.535697937 3.70904541 -2.003549576 0.9693696499 
5.775138855 4.807124138 -2.003342152 0.9693728089 
5.555414677 5.059108734 -2.00328207 0.969373703 
5.324704647 5.301056862 -2.003218889 0.9693746567 
4.832155704 5.752946854 -2.003084421 0.9693766832 
4.571286678 5.962001801 -2.003012896 0.9693777561 
3.932187319 6.201005936 -1.957651615 0.9700607657 
3.56076169 6.209858418 -1.908501387 0.9708013535 
3.206994534 6.217851639 -1.865225911 0.9714531898 
2.903178692 6.302995682 -1.850155592 0.9716812372 
1.741022944 6.716281414 -1.849837184 0.9716860056 
0.2160351574 6.933337212 -1.849418879 0.9716923237 
-0.7086132765 6.899455547 -1.849164963 0.971696198 
-1.014780283 6.860795975 -1.84908092 0.9716974497 
-1.318908691 6.808554649 -1.848997474 0.9716987014 
-2.788183451 6.348300457 -1.848593712 0.9717047811 
-3.071984768 6.226425648 -1.851103187 0.9716669321 
-3.778530121 6.199970722 -1.935784698 0.970390141 
-4.977316856 5.614338398 -2.000392199 0.9694172144 
-5.456257343 5.149411678 -2.000260353 0.9694191813 
-5.679738522 4.901445389 -2.000198841 0.969420135 
-5.89198494 4.643801212 -2.00014019 0.9694209695 
-6.457140923 3.817973614 -1.999984264 0.9694232941 
-6.907441139 2.924352884 -1.999859691 0.9694252014 
-7.139784813 2.298784018 -1.999795318 0.9694261551 
-7.381979942 1.327990651 -1.999727726 0.9694271684 
-7.47069788 0.6666259766 -1.999702692 0.9694275856 
-7.492931843 0.3336401284 -1.999696255 0.9694276452 
-7.470690727 -0.6666235328 -1.999701381 0.9694275856 
-7.381962776 -1.327995539 -1.999724984 0.969427228 
-7.139753342 -2.298813343 -1.99979043 0.9694262743 
-7.030537128 -2.614174843 -1.999820113 0.9694257975 
-6.770607948 -3.228811026 -1.999890685 0.9694247246 
-6.620407581 -3.526867628 -1.999931574 0.9694241285 
-6.45710659 -3.817961454 -1.999976158 0.9694234729 
-6.281034946 -4.101518631 -2.000024319 0.969422698 
-6.092521667 -4.376972675 -2.000075579 0.9694219232 
-5.456220627 -5.14937973 -2.000249386 0.9694193602 
-5.221926212 -5.387172699 -2.000313282 0.9694183469 
-4.722773552 -5.830366135 -2.000449896 0.9694163203 
-3.905187845 -6.40780735 -2.000673532 0.9694129229 
-3.616398811 -6.575456619 -2.000752687 0.9694117308 
-2.709367514 -6.99915266 -2.00100112 0.9694080353 
-2.395446777 -7.113054276 -2.001087189 0.969406724 
-1.753916025 -7.298442364 -2.001263142 0.9694041014 
-0.4340624809 -7.495034218 -2.001625061 0.9693986177 
-0.1002319306 -7.507263184 -2.001716614 0.9693972468 
0.2338354439 -7.504633427 -2.001808167 0.9693958759 
0.5674560666 -7.487153053 -2.001899719 0.969394505 
0.8999950886 -7.454838753 -2.001991272 0.9693931341 
1.559152842 -7.346013069 -2.002172232 0.9693903923 
1.884497046 -7.269694805 -2.002261639 0.9693890214 
2.8356812 -6.955102444 -2.002522945 0.9693850875 
3.442910194 -6.676103592 -2.002689838 0.9693825841 
3.736628294 -6.516596317 -2.002770662 0.969381392 
4.57125473 -5.961965084 -2.003000259 0.9693779349 
4.832109451 -5.752927303 -2.003072023 0.969376862 
5.324665546 -5.301044941 -2.003207684 0.9693747759 
5.555376053 -5.059096336 -2.003271341 0.9693738818 
5.77509737 -4.807106972 -2.0033319 0.9693729281 
6.694347858 -3.414682627 -2.003585577 0.9693691134 
6.83976078 -3.113579035 -2.003625631 0.9693685174 
7.193662167 -2.175620079 -2.00372386 0.9693670869 
7.419472694 -1.198840261 -2.003786802 0.9693660736 
7.514618874 0.133757323 -2.003814459 0.9693656564 
7.50121069 0.4679052532 -2.003811121 0.969365716 
7.42986536 1.132773399 -2.003792286 0.969366014 
7.372062683 1.462148428 -2.003776789 0.9693662524 
7.299650669 1.788618088 -2.003757238 0.9693665504 
7.212775707 2.111530781 -2.003733873 0.9693669081 
7.111616135 2.430263519 -2.003706217 0.9693672657 
6.867240906 3.052612305 -2.003639936 0.9693683386 
6.72452116 3.355002403 -2.003601074 0.969368875 
6.399428368 3.939225912 -2.003512621 0.9693702459 
5.817731857 4.755554199 -2.003353596 0.9693726301 
5.371557713 5.253488541 -2.003231764 0.9693748951 
5.132529259 5.487060547 -2.003166437 0.9693754315 
4.883193016 5.709750652 -2.003098249 0.9693765044 
4.624186993 5.921127796 -2.003027439 0.9693775177 
2.959164858 6.27696991 -1.850170851 0.9716809988 
1.800747037 6.700583458 -1.849853516 0.9716857672 
1.500827551 6.773752213 -1.849771261 0.9716870189 
0.8927710056 6.879714012 -1.849604487 0.9716895223 
0.5858178735 6.912302017 -1.849520206 0.9716908336 
0.277746588 6.931200981 -1.849435687 0.9716920853 
-0.03085693344 6.936376572 -1.849351168 0.9716933966 
-0.3393628001 6.927822113 -1.84926641 0.9716946483 
-0.6472167969 6.905551434 -1.84918189 0.9716959 
-1.859309077 6.680661678 -1.848848939 0.9717009068 
-2.445510149 6.488398075 -1.848688006 0.9717033505 
-3.0122509 6.244838715 -1.8485322 0.9717057347 
-3.344047785 6.210478306 -1.880573988 0.9712224007 
-4.082817078 6.192050457 -1.977455258 0.9697625041 
-4.405070782 6.074426174 -2.000549793 0.9694148302 
-4.670749187 5.872248173 -2.000476599 0.9694159627 
-4.927175045 5.658464432 -2.000406027 0.969416976 
-5.173835278 5.433505535 -2.000338078 0.9694179893 
-5.635939598 4.951811314 -2.000210762 0.9694199562 
-6.053403378 4.43103981 -2.000095606 0.9694216847 
-6.588825703 3.585651875 -1.999947906 0.9694238901 
-6.741669655 3.28894043 -1.999905705 0.9694244862 
-7.007036209 2.676630735 -1.999832153 0.9694256186 
-7.217001915 2.043203115 -1.99977386 0.9694264531 
-7.30065155 1.720124483 -1.999750495 0.9694268703 
-7.442255497 -0.9321191311 -1.999708772 0.9694274664 
-7.330070496 -1.589924335 -1.999738932 0.9694269896 
-7.159919262 -2.235166073 -1.999784946 0.9694263339 
-7.053500652 -2.551486731 -1.999813795 0.9694259167 
-6.933134556 -2.862766027 -1.999846458 0.9694254398 
-6.651513577 -3.46778059 -1.999923229 0.9694242477 
-6.490812778 -3.76031971 -1.999966979 0.9694235921 
-6.317260742 -4.045427322 -2.000014305 0.9694228768 
-6.131215572 -4.322546482 -2.00006485 0.969422102 
-5.723081112 -4.850642204 -2.00017643 0.969420433 
-5.50178957 -5.100603104 -2.000236988 0.969419539 
-5.027006626 -5.569775105 -2.000366688 0.969417572 
-4.512387753 -5.994946003 -2.000507355 0.9694154263 
-3.078930616 -6.844223499 -2.00090003 0.9694095254 
-2.458644867 -7.091389179 -2.001069784 0.9694069624 
-2.140851974 -7.194050312 -2.001157045 0.9694056511 
-1.818796396 -7.28248024 -2.00124526 0.9694043398 
-1.493115187 -7.356506348 -2.001334667 0.9694030285 
-0.8334375024 -7.460773945 -2.001515388 0.9694002867 
0.8336206079 -7.462482929 -2.001972914 0.9693933725 
1.819697261 -7.286122799 -2.002243757 0.9693893194 
2.142099619 -7.198278427 -2.002332211 0.9693880081 
3.966315746 -6.379689693 -2.002833843 0.9693804383 
4.246337891 -6.197172642 -2.002910852 0.9693793058 
4.780695915 -5.795646667 -2.003057957 0.9693771005 
5.03396225 -5.577436447 -2.003127813 0.9693760276 
5.510092735 -5.108315468 -2.003258705 0.9693740606 
5.732069969 -4.858268738 -2.003319979 0.969373107 
6.328197956 -4.052473068 -2.003484488 0.9693706632 
6.663669109 -3.474091768 -2.003576994 0.9693692923 
6.811740398 -3.174326181 -2.003618002 0.9693686366 
7.067172527 -2.556435585 -2.003688812 0.9693675637 
7.173998833 -2.239536047 -2.003718615 0.9693671465 
7.408495903 -1.26482904 -2.003783941 0.9693661332 
7.491679668 -0.6013720632 -2.003807306 0.9693657756 
7.511032581 -0.2674853504 -2.003813028 0.969365716 
7.515507698 0.06685791165 -2.003814697 0.9693656564 
7.439662933 1.066596627 -2.003794909 0.9693659544 
7.315305233 1.723574162 -2.003761292 0.9693664312 
6.754128456 3.295058489 -2.00360918 0.9693687558 
6.434255123 3.882153273 -2.003521919 0.9693700671 
6.255060673 4.164396763 -2.003473043 0.969370842 
6.063449383 4.438435078 -2.00342083 0.9693716168 
4.933866978 5.66609621 -2.003112078 0.969376266 
4.676740646 5.879777908 -2.003041744 0.9693773389 
3.707079887 6.206454754 -1.927425504 0.9705161452 
3.014919281 6.250444412 -1.85018611 0.9716807604 
2.736091137 6.38340807 -1.851652384 0.9716586471 
1.860302687 6.684350491 -1.849869847 0.9716855288 
1.258728027 6.822631836 -1.849704862 0.9716880322 
0.9539794922 6.871560097 -1.849621177 0.9716892838 
0.03085693344 6.936442852 -1.849367976 0.9716930985 
-0.5857201815 6.911103249 -1.849198699 0.9716956615 
-0.8925561309 6.877890587 -1.849114537 0.9716969132 
-1.197543859 6.831068993 -1.849030733 0.9716982245 
-2.095844746 6.610012054 -1.84878397 0.97170192 
-2.387673378 6.509965897 -1.848703861 0.9717031121 
-2.674809456 6.397026062 -1.848624945 0.9717043042 
-2.956567287 6.271457195 -1.848547459 0.9717054963 
-3.630908012 6.203649998 -1.916444778 0.9706816077 
-4.350861549 6.113444805 -2.000564575 0.9694145918 
-4.618354321 5.913608074 -2.000491142 0.9694157243 
-5.125322342 5.479350567 -2.000351429 0.9694178104 
-5.363789082 5.24578619 -2.000285864 0.9694188237 
-5.591672421 5.001811504 -2.000222921 0.9694197774 
-5.808488846 4.747961521 -2.000163317 0.9694206119 
-6.207143307 4.21268034 -2.000053167 0.9694223404 
-6.388225079 3.932326555 -2.000003338 0.9694230556 
-6.556689262 3.644147873 -1.999956727 0.9694237709 
-6.712158203 3.348837852 -1.999913692 0.969424367 
-6.854348183 3.046848059 -1.999874353 0.969424963 
-6.982956409 2.738901377 -1.999838829 0.969425559 
-7.097780704 2.425500393 -1.999806881 0.9694260359 
-7.198542118 2.107368231 -1.999778986 0.9694263935 
-7.285075665 1.785017014 -1.999754906 0.9694268107 
-7.357192039 1.459201574 -1.999734759 0.9694271088 
-7.343923092 -1.524602056 -1.999735236 0.9694270492 
-6.958317757 -2.800930023 -1.999839783 0.9694254994 
-5.973622799 -4.538110256 -2.000108004 0.9694214463 
-5.316906452 -5.293310642 -2.000287533 0.9694187641 
-4.565510273 -5.954521179 -2.00049305 0.9694156647 
-4.296306133 -6.151923656 -2.000566721 0.9694145322 
-3.732814789 -6.509926796 -2.000720978 0.9694122076 
-2.204755783 -7.174657822 -2.001139402 0.9694059491 
-1.55849123 -7.342870712 -2.001316547 0.9694032669 
-1.23039794 -7.405251503 -2.00140667 0.969401896 
-0.8997753859 -7.452992916 -2.001497269 0.9694005847 
0.7671850324 -7.469533443 -2.001954794 0.9693936706 
1.098718286 -7.428351879 -2.002045631 0.9693922997 
1.754753351 -7.301962852 -2.002225876 0.9693895578 
2.077956438 -7.216987133 -2.002314806 0.9693882465 
2.397009134 -7.117726803 -2.002402306 0.9693869352 
3.323488712 -6.736210823 -2.002656937 0.9693830609 
4.19097662 -6.23468256 -2.002895594 0.9693794847 
4.464360237 -6.042284966 -2.002970934 0.9693783522 
4.728869438 -5.83795166 -2.003043652 0.9693772793 
5.464396954 -5.157102108 -2.003246307 0.9693742394 
5.688579082 -4.909052849 -2.003307819 0.9693732858 
5.901489258 -4.651298523 -2.003366709 0.9693723917 
6.468576431 -3.824709415 -2.003523111 0.9693700671 
6.632441044 -3.533288479 -2.003568411 0.9693694115 
6.920505047 -2.929934025 -2.003648281 0.9693681598 
7.044120789 -2.61920166 -2.003682375 0.9693676829 
7.249250412 -1.982819796 -2.003739357 0.9693667889 
7.330341816 -1.658439875 -2.003762007 0.9693664908 
7.448850155 -1.000368595 -2.003795385 0.969366014 
7.486027718 -0.6679980159 -2.003805876 0.9693657756 
7.508356571 -0.3343041837 -2.003812313 0.969365716 
7.508359432 0.3343554735 -2.003813028 0.969365716 
7.448866844 1.000363708 -2.003797293 0.9693659544 
7.33036375 1.658425212 -2.003765583 0.9693663716 
7.249262333 1.982807517 -2.003743649 0.9693667293 
6.920536995 2.92992425 -2.00365448 0.9693681002 
6.783234596 3.234787464 -2.003617048 0.9693686366 
6.291892052 4.108603477 -2.003483057 0.9693706632 
6.102768421 4.384282112 -2.003431559 0.969371438 
5.464426041 5.157121658 -2.003257275 0.9693740606 
4.984113693 5.622009277 -2.003125906 0.9693760872 
4.464396954 6.042319298 -2.00298357 0.9693781734 
3.074047804 6.230610371 -1.852346778 0.9716481566 
2.790471077 6.353569031 -1.850124598 0.9716817141 
1.319448233 6.811210632 -1.849721432 0.9716877937 
0.708732903 6.900910378 -1.849553943 0.9716902971 
0.09256836027 6.935956955 -1.849385023 0.9716928601 
-0.2160180658 6.932892799 -1.849300146 0.9716941118 
-0.5242138505 6.916103363 -1.849215627 0.9716954231 
-0.8312817216 6.88562727 -1.849131465 0.9716966748 
-1.136733413 6.841518402 -1.849047542 0.9716979265 
-1.439846158 6.783884048 -1.848964214 0.9716991782 
-1.740148902 6.71281004 -1.848881841 0.9717004299 
-2.036918879 6.628473759 -1.848800302 0.9717016816 
-2.329677582 6.531005859 -1.848719716 0.9717028737 
-3.558215141 6.205420017 -1.907136798 0.9708219171 
-3.929125786 6.196103573 -1.956111073 0.970083952 
-4.296332836 6.151955605 -2.000579596 0.9694143534 
-4.565593243 5.954511642 -2.000505686 0.9694154859 
-4.82575655 5.745337009 -2.000433922 0.9694165587 
-5.076403618 5.524772644 -2.000365019 0.969417572 
-5.316940784 5.293337345 -2.000298738 0.9694185853 
-6.169421196 4.267814636 -2.000063658 0.9694221616 
-6.35301733 3.989028215 -2.000013113 0.9694228768 
-6.524008751 3.702412128 -1.999965787 0.9694235921 
-6.682118893 3.408432484 -1.999922156 0.9694242477 
-6.8269701 3.107778311 -1.999881983 0.9694248438 
-7.343933105 1.524599552 -1.999738455 0.9694270492 
-7.450256348 0.8658300638 -1.999708533 0.969427526 
-7.48137188 0.5335229635 -1.999699712 0.9694275856 
-7.48581028 -0.4669457972 -1.999697328 0.9694276452 
-7.457653522 -0.7995190024 -1.999704719 0.969427526 
-7.357180119 -1.459201574 -1.99973166 0.9694271088 
-7.198527813 -2.107372999 -1.999774456 0.9694264531 
-7.097765923 -2.4255054 -1.999801755 0.9694260359 
-6.982936859 -2.738901377 -1.999832988 0.9694256186 
-6.712123871 -3.348828077 -1.99990654 0.9694244862 
-6.55663538 -3.644194365 -1.999948978 0.9694238305 
-6.207089901 -4.212722301 -2.000044346 0.9694224 
-6.013727665 -4.484755993 -2.000097036 0.9694216251 
-5.808420181 -4.747983456 -2.000153065 0.9694207907 
-5.125292778 -5.479326248 -2.000339746 0.9694179893 
-4.87662077 -5.702109337 -2.000407934 0.9694169164 
-4.618330002 -5.913583755 -2.000478506 0.9694158435 
-4.074760437 -6.301115513 -2.000627279 0.9694136381 
-3.498884201 -6.638869286 -2.000784874 0.9694112539 
-3.200182915 -6.788225174 -2.000866652 0.9694100618 
-2.584418774 -7.046389103 -2.001035452 0.9694074988 
-2.268483877 -7.154699326 -2.001121998 0.9694061875 
-1.948083401 -7.248830318 -2.001209736 0.9694048762 
-1.623745084 -7.328649521 -2.001298666 0.9694035053 
-0.6339794993 -7.48057127 -2.001570225 0.9693994522 
2.959069729 -6.903652191 -2.002556801 0.9693846107 
3.263398409 -6.7654562 -2.002640486 0.969383359 
3.852109194 -6.44915247 -2.002802372 0.9693809152 
4.135312557 -6.271672249 -2.002880335 0.9693797231 
4.933830261 -5.666069031 -2.003100157 0.9693764448 
5.418263912 -5.205481052 -2.003233433 0.9693744183 
5.859802246 -4.703598499 -2.003355265 0.9693726897 
6.063415527 -4.43842268 -2.003411293 0.969371736 
