# .PCD v0.7 - Point Cloud Data file format
VERSION 0.7
FIELDS x y z intensities
SIZE 4 4 4 4
TYPE F F F F
COUNT 1 1 1 1
WIDTH 944
HEIGHT 1
VIEWPOINT 0 0 0 1 0 0 0
POINTS 944
DATA ascii
31.77042198 43.80982208 4.711968899 0.8046986461 
23.22943497 48.15856171 4.655472755 0.8067978024 
18.15096855 48.15867233 4.481110573 0.8133111 
15.74263382 48.15871811 4.411527634 0.8159250617 
8.669125557 31.14943314 2.815253258 0.8782513738 
7.381071568 31.96342278 2.856290102 0.8765909672 
6.091577053 33.01786423 2.923379421 0.8738832474 
6.776525497 48.81187057 4.290808678 0.8204798698 
4.513361931 48.15896225 4.211575985 0.8234832883 
2.359333515 48.15899277 4.198230267 0.8239901066 
0.1441796869 32.40604782 2.821623564 0.8779936433 
-4.205312252 32.40548706 2.845203161 0.8770393729 
-5.774028301 32.93646622 2.911510468 0.8743617535 
-7.17989254 32.40466309 2.889902353 0.875233531 
-8.709057808 32.40644836 2.921745539 0.8739491701 
-11.88702393 32.40988159 3.005745173 0.8705704808 
-6.222995281 11.8076849 1.162139416 0.9478199482 
-6.703195572 11.4528513 1.155445099 0.948112607 
-7.14600563 11.05040836 1.145812511 0.948533833 
-38.28294373 9.380239487 3.431900501 0.8536294699 
-17.18756866 -0.4590112269 1.497055531 0.9332939982 
-42.95291901 -17.28982544 4.031527996 0.8303487897 
-39.88152313 -18.15492439 3.815353394 0.8386677504 
-39.88162231 -22.63307381 3.992709875 0.8318367004 
-18.31791496 -12.67177486 1.939307094 0.914450407 
-47.49595642 -39.53483582 5.380659103 0.7802637815 
-46.03972626 -41.92638397 5.421795368 0.7787852287 
-43.02509689 -42.83409119 5.286174297 0.7836710811 
-7.936569691 -15.38985062 1.507683516 0.9328365922 
-6.274582386 -15.38988495 1.447088718 0.935446918 
-5.489738464 -15.38990402 1.422698498 0.9364995956 
-3.989489555 -15.38994312 1.38429153 0.9381596446 
-3.266447783 -15.38996315 1.369853377 0.9387845397 
-2.557072639 -15.38998222 1.358374119 0.9392815828 
-1.857976079 -15.38999271 1.349734306 0.9396559 
-0.4795287848 -15.39002132 1.340660214 0.9400492907 
0.8912866116 -15.39006519 1.342256904 0.9399799705 
1.580715299 -15.39008045 1.347063422 0.9397717118 
2.276340246 -15.39008999 1.354591846 0.939445436 
2.981335402 -15.39011955 1.364926219 0.9389978051 
3.698454618 -15.39013386 1.378168821 0.9384246469 
4.431237698 -15.39014816 1.394458413 0.9377200007 
5.182902813 -15.39016819 1.413963795 0.9368767142 
11.68175507 -26.59800911 2.529401302 0.8899049163 
11.6818285 -23.67723846 2.29883647 0.8994171023 
11.68190193 -21.24047089 2.110656261 0.907255888 
13.64413834 -15.39040756 1.790819764 0.9207361341 
14.9184742 -15.3904314 1.86627543 0.9175379872 
16.30755615 -15.39046574 1.952389956 0.9139015675 
17.83449364 -15.39050484 2.051113129 0.9097505212 
26.16555405 -15.47102261 2.64667654 0.8851051927 
29.78443527 -15.8669548 2.938363552 0.8732796311 
69.22575378 -22.28885841 6.332192898 0.7467665672 
49.56159973 -6.656003475 4.354067802 0.818089962 
72.64205933 3.234880209 6.331212521 0.7468008995 
85.99173737 11.54851246 7.55450964 0.7058390379 
116.6915894 20.99253654 10.32341385 0.621230185 
35.68149567 13.26733112 3.314593315 0.858259201 
23.67197418 13.99662304 2.394446611 0.8954601884 
22.4644165 14.66926765 2.336067677 0.8978742957 
41.03898239 32.34512329 4.549685478 0.8107432127 
34.2726593 32.34525681 4.103229046 0.8276077509 
31.77034378 39.2215004 4.394807816 0.8165541291 
31.77041245 42.99958801 4.655041218 0.8068138957 
31.77046967 47.26304626 4.958520412 0.7956015468 
21.15113068 48.1586113 4.579761028 0.8096196055 
18.64243317 48.15867233 4.496379852 0.8127385974 
8.859284401 30.76922035 2.787913799 0.8793594241 
9.329228401 48.15886688 4.271140099 0.8212242723 
7.35166502 49.70385742 4.374787331 0.8173083663 
0.4332787991 32.46360016 2.826853514 0.8777817488 
-2.456350088 32.40746307 2.829809427 0.8776621819 
-8.400529861 32.40608978 2.914857626 0.8742267489 
-9.958867073 32.40790558 2.951976776 0.8727315068 
-11.56090641 32.40977478 2.996073484 0.8709586859 
-4.539675236 11.13461018 1.046972513 0.9528670311 
-6.614621639 11.53572845 1.157820821 0.9480086565 
-7.057424068 11.12933731 1.147441268 0.9484626055 
-7.338332176 10.50783062 1.11594224 0.9498412609 
-68.79924774 89.72903442 9.844930649 0.6350904703 
-57.00646973 -13.96796131 5.11038208 0.7900497913 
-45.73458862 -13.38880062 4.14923954 0.825853765 
-43.82946014 -14.97772217 4.032904148 0.8302961588 
-47.49593735 -38.82468414 5.341321468 0.7816808224 
-47.0328598 -42.07145309 5.494462013 0.7761802673 
-43.79763412 -42.83407211 5.334051609 0.7819427252 
-13.77118874 -16.10230637 1.844837427 0.9184456468 
-13.2734251 -16.99608612 1.87766552 0.9170562029 
-10.95270252 -15.38977718 1.644692779 0.9269615412 
-9.95217514 -15.38979721 1.595760942 0.9290555716 
-9.007452965 -15.38981628 1.552633524 0.9309051037 
-8.11088562 -15.38984585 1.514699817 0.9325348139 
-7.255275726 -15.38986492 1.481435657 0.9339664578 
-6.435011864 -15.38988495 1.452417374 0.9352169633 
-5.644577503 -15.38989925 1.427283168 0.936301589 
-4.135959148 -15.38994312 1.387546182 0.9380188584 
-3.409811974 -15.38996315 1.372498274 0.9386700392 
-2.697990656 -15.38997746 1.360439301 0.9391921759 
-1.304304123 -15.39000702 1.344811201 0.9398692846 
0.06846435368 -15.39004612 1.340023041 0.940076828 
2.839377403 -15.39011955 1.362629533 0.9390972257 
3.553928137 -15.39012909 1.375280619 0.9385495782 
4.283190727 -15.39014816 1.390945196 0.9378718138 
5.030900955 -15.39016819 1.409796596 0.9370568395 
11.68189144 -21.69535446 2.145446777 0.9058015943 
12.24140835 -15.39037323 1.712237954 0.9240787625 
16.0195961 -15.39046097 1.934230804 0.9146671295 
17.51663208 -15.3904953 2.030240059 0.9106265903 
19.27394295 -15.4708519 2.151933432 0.9055306911 
25.64152527 -15.47099781 2.607504129 0.8867055178 
30.17779541 -14.72249699 2.92359376 0.8738746643 
80.35734558 25.08532906 7.329699039 0.7131943703 
23.87590027 13.83199883 2.402532816 0.895126462 
22.77700424 14.58598804 2.354985714 0.8970913887 
34.88930511 32.34524918 4.142437458 0.826112628 
31.87708092 42.3503685 4.615276814 0.8082945943 
31.77046585 46.36581802 4.893879414 0.7979766726 
24.29552841 48.15854263 4.696549416 0.8052712679 
21.66424561 48.15859222 4.597907066 0.8089423776 
7.794147968 31.20841026 2.800777435 0.8788380027 
5.379792213 48.15894318 4.219275475 0.8231907487 
0.727019012 32.66724396 2.845036507 0.877045989 
-0.7212743759 32.40942383 2.822584867 0.8779546022 
-2.166284084 32.40779114 2.828041315 0.8777337074 
-5.08793211 32.40449142 2.856026649 0.8766018152 
-9.644030571 32.40753937 2.944013596 0.8730521798 
-4.286139965 10.78626347 1.010591507 0.954466939 
-5.332521915 11.85369015 1.131728292 0.9491500854 
-6.004094124 11.90130997 1.160648942 0.9478851557 
-6.52598381 11.61950302 1.160356879 0.9478978515 
-6.968811035 11.20908451 1.149219155 0.948384881 
-7.297563076 10.65006828 1.124108076 0.949483633 
-17.18498993 -0.1529028267 1.496356964 0.9333240986 
-58.80406952 -13.85499191 5.260272503 0.7846078873 
-39.96327209 -11.31421852 3.61636591 0.8463987708 
-43.82051849 -16.73931885 4.084357262 0.8283285499 
-39.88150406 -17.30460167 3.785273314 0.8398317695 
-39.96191788 -21.74738503 3.961354971 0.8330402374 
-39.88165665 -24.06288338 4.055585861 0.8294275999 
-47.49581909 -31.62109566 4.968135357 0.7952489257 
-47.49593735 -38.12416077 5.302927971 0.7830659747 
-47.49599457 -41.73101425 5.504964352 0.775804162 
-40.78705215 -42.83412933 5.149910927 0.7886107564 
-13.41664791 -16.8679409 1.876621485 0.9171003699 
-11.16029072 -15.38977242 1.655239105 0.9265108705 
-10.14747334 -15.38979244 1.605055928 0.9286572933 
-8.286672592 -15.38984585 1.521905065 0.9322254062 
-7.42333746 -15.38986492 1.487734795 0.9336951971 
-6.596477032 -15.38988018 1.457900167 0.9349806309 
-4.28312254 -15.38993835 1.390926957 0.9378726482 
-3.553879261 -15.38995838 1.37526679 0.9385502338 
-1.44231689 -15.39000225 1.345879316 0.9398230314 
0.616633296 -15.39006042 1.341085076 0.940030694 
1.304313898 -15.39007092 1.344815135 0.9398690462 
1.997204542 -15.39008999 1.351248026 0.9395902157 
2.698010206 -15.39010429 1.360450268 0.939191699 
4.879772663 -15.39015865 1.405763984 0.9372311234 
11.6817255 -27.93783379 2.636631489 0.8855154514 
11.6818037 -24.77938652 2.385272026 0.8958392143 
11.682024 -16.41453743 1.754206657 0.9222919941 
12.01941109 -15.39036369 1.700273871 0.9245887995 
13.16234589 -15.39039803 1.763268232 0.9219066501 
17.20545578 -15.39048576 2.009964705 0.9114784002 
18.92649078 -15.47084713 2.128424406 0.9065128565 
22.67717934 -15.3906126 2.386290789 0.8957970142 
25.13324356 -15.47098827 2.569711924 0.8882521391 
29.45216942 -14.69433784 2.865848303 0.8762047291 
49.53141403 -12.13639355 4.440271378 0.8148443699 
49.55780029 -7.555500507 4.364859104 0.8176831007 
49.58333969 -5.315690994 4.341952324 0.8185468912 
72.77474213 5.190485954 6.352593422 0.746064961 
80.56474304 24.36561203 7.328550816 0.7132321 
36.31570435 14.61815166 3.40856266 0.8545483947 
78.60691071 35.78353119 7.520093441 0.7069602609 
24.54911232 12.5220871 2.399498701 0.8952516913 
24.09301949 13.67294884 2.412043571 0.8947339654 
23.03249168 14.46198654 2.367987871 0.896553576 
77.19763184 53.40299606 8.173155785 0.6859874725 
39.30099869 32.71348953 4.452275276 0.8143931627 
32.48953247 32.34528351 3.991738081 0.8318735361 
31.77025604 34.57691193 4.088494778 0.8281701803 
31.77031517 37.82442093 4.300971031 0.8200954199 
32.17044449 41.95790863 4.60352087 0.8087329865 
30.53800011 48.15841675 4.965123653 0.7953593135 
27.61420631 48.15847397 4.833584309 0.800198555 
19.63470459 48.15864944 4.528284073 0.8115437627 
17.22324371 48.28348541 4.463498592 0.8139719367 
10.22149181 48.15884781 4.286592484 0.8206393123 
5.81405735 48.15894318 4.223644733 0.8230250478 
3.650251389 48.15897369 4.205224514 0.8237243295 
-0.4328344762 32.40974808 2.822165489 0.87797153 
-1.876852989 32.40811539 2.826500177 0.8777961135 
-3.328466654 32.4064827 2.836476326 0.8773924708 
-4.792983055 32.40482712 2.852183104 0.8767571449 
-6.158444881 31.79089546 2.819487333 0.8780798912 
-3.839758158 13.33590889 1.208328962 0.9458031654 
-6.880300045 11.28950882 1.15114212 0.9483007193 
-76.72534943 -13.80273628 6.070164204 0.7314167023 
-40.83906555 -17.28986931 3.453206062 0.8370009661 
-39.96185684 -19.05717087 3.447366238 0.8372527361 
-39.88169098 -26.04269791 3.708861589 0.8260473609 
-47.49584961 -34.12173843 4.553735733 0.7908584476 
-47.49591827 -37.43413925 4.708888531 0.7845612764 
-41.48131561 -42.79396439 4.640689373 0.7873227596 
-14.22705746 -19.2556324 1.86420691 0.9084137678 
-10.34516335 -15.38978767 1.443913341 0.9283010364 
-9.379162788 -15.38981152 1.403340578 0.9302436709 
-8.464201927 -15.38983154 1.367620945 0.9319574237 
-6.759216309 -15.38987541 1.308825254 0.934785068 
-5.957443714 -15.38989449 1.284994006 0.9359336495 
-3.698430061 -15.38995838 1.232462287 0.9384702444 
-2.981242657 -15.38997269 1.220625162 0.9390429258 
-1.580632329 -15.39000225 1.204653144 0.9398159981 
-0.8912768364 -15.39001656 1.200358987 0.9400240183 
-0.2054614276 -15.39004135 1.198458433 0.9401159883 
1.858010173 -15.39008522 1.207058787 0.9396995902 
3.266506195 -15.39012432 1.225054502 0.9388286471 
3.989499331 -15.39013863 1.23796761 0.9382041097 
4.729392052 -15.39015865 1.253670216 0.9374454618 
15.52671623 -43.52778244 3.598483086 0.830758512 
11.68170166 -28.65189171 2.409290314 0.8832546473 
11.68179417 -25.36204338 2.17423892 0.8940171003 
11.68192577 -20.37301064 1.828637242 0.9100799561 
11.80036831 -15.39036369 1.510091662 0.9251408577 
15.45909882 -15.39044189 1.698556066 0.9162005186 
18.489748 -15.3905201 1.873208165 0.9079924226 
22.3643322 -15.4709301 2.117468119 0.8966360688 
24.63927841 -15.47097874 2.265391588 0.8898279071 
27.26155472 -15.47104168 2.440733671 0.881824851 
29.55388451 -15.07500172 2.583309889 0.8753703833 
85.84706116 -34.55612564 7.20574379 0.6898475885 
89.27210999 -31.3969841 7.368578434 0.684083581 
88.02841949 -18.27476311 7.000519753 0.6971812248 
116.1919708 12.4562273 9.099179268 0.6257240176 
91.71607971 13.98304367 7.224025249 0.6891978979 
35.69842148 14.00184822 2.985842228 0.8574014902 
24.14930344 12.04857922 2.101439238 0.8973770738 
22.75011444 14.004035 2.080159426 0.8983615637 
43.37233353 32.3450737 4.212915421 0.804869175 
39.6629982 32.42152405 3.988888502 0.8142138124 
36.15957642 32.34522247 3.777653694 0.8231240511 
32.02396774 41.0055542 4.051245689 0.8116022348 
31.14259911 48.15839767 4.465626717 0.7944566607 
28.18659782 48.15846634 4.344946384 0.7994121909 
22.70357704 48.15857315 4.145704746 0.8076614738 
12.04925537 28.81706429 2.432106495 0.8822171092 
6.895163536 31.12020493 2.481951952 0.8799540401 
6.424760818 49.50992584 3.887435198 0.8184813261 
4.195937634 49.50996017 3.868936777 0.8192619681 
-0.1439477503 32.34593582 2.518657207 0.8782915473 
-1.584548354 32.34596252 2.521654844 0.8781559467 
-3.031459808 32.34598923 2.529675722 0.8777931929 
-7.469387054 32.34608078 2.584921122 0.8752977848 
-9.002253532 32.3461113 2.614371777 0.873970747 
-10.57359314 32.346138 2.649799824 0.8723766804 
-3.688107729 8.604541779 0.7289491296 0.9631367326 
-43.3100853 89.78846741 7.762270451 0.6703470349 
-38.57988358 71.64972687 6.336408138 0.7214514017 
-59.96824265 100.3988266 9.106192589 0.6255051494 
-59.24976349 89.85881805 8.380993843 0.649312973 
-78.18517303 89.78922272 9.270594597 0.6202223301 
-16.05239487 0.857976079 1.251711249 0.9375399947 
-16.06721306 0.1429955959 1.251132965 0.9375680685 
-64.1749115 -13.919631 5.113217831 0.7683854699 
-41.87317276 -17.28985596 3.527491331 0.8338032365 
-39.96184158 -18.62246323 3.432927847 0.8378757238 
-39.96189117 -20.83422089 3.50914669 0.8345914483 
-39.96194077 -23.15115356 3.596117973 0.8308600187 
-39.88167572 -25.53932762 3.687577486 0.8269537687 
-18.26929474 -12.88001633 1.740536571 0.9142208099 
-46.03973389 -42.68237305 4.888462543 0.7773351073 
-14.20944023 -15.74356174 1.651351452 0.9184316993 
-14.49374771 -19.25562668 1.876621246 0.9078328609 
-8.643468857 -15.38982677 1.374400735 0.9316318631 
-6.115476131 -15.38988972 1.289486766 0.9357169867 
-3.843620539 -15.38995361 1.23515296 0.9383401871 
-1.719172359 -15.39000225 1.205803394 0.9397603273 
-1.028781772 -15.39001179 1.201025486 0.9399917126 
0.3424731493 -15.39005089 1.19865036 0.9401067495 
1.02878654 -15.39007092 1.201030135 0.9399915338 
3.123635292 -15.39011955 1.22279191 0.9389380217 
4.57989502 -15.39015388 1.250298619 0.937608242 
11.68177509 -25.96772575 2.217167139 0.8920420408 
11.68191147 -20.79979706 1.857537389 0.9087256789 
11.68204308 -15.52015305 1.512564182 0.9250229597 
12.695158 -15.39038277 1.553471446 0.9230753779 
13.89070511 -15.39041233 1.614306092 0.9201863408 
15.18633556 -15.39043713 1.683570623 0.9169082046 
16.60108566 -15.39047527 1.762685657 0.9131777883 
18.15859604 -15.39050961 1.853461742 0.9089166522 
21.94430351 -15.47091961 2.090656042 0.8978757858 
24.0337429 -15.3906517 2.222223997 0.8918094039 
69.66716766 -21.74839973 5.682833672 0.7461599112 
116.3720016 11.42893314 9.104941368 0.6255379319 
81.60575867 23.10345459 6.604004383 0.7115713954 
79.55735779 26.39880562 6.526903152 0.7144042253 
35.97231293 13.74114513 2.998405695 0.8568467498 
77.58513641 33.66427231 6.58536911 0.7122548819 
24.14265251 11.77810287 2.091655016 0.8978295326 
23.91749191 13.01600266 2.120259523 0.8965072036 
22.95692062 13.85113049 2.08771348 0.8980119228 
84.83598328 56.48115158 7.935871601 0.6643768549 
44.18751907 32.34506607 4.263967991 0.8027547598 
33.73311615 32.40852356 3.642431021 0.8288792968 
31.83168602 33.42923355 3.594290018 0.8309381008 
32.38770676 40.7189827 4.051251888 0.8116019368 
31.77042198 43.81022263 4.213879108 0.8048294187 
23.22968864 48.15856171 4.163331032 0.806927979 
15.74255562 48.15871811 3.945163488 0.8160502911 
8.484442711 30.48547935 2.463982344 0.8807692528 
7.383129597 31.97260666 2.555073738 0.8766449094 
6.886449814 49.60440445 3.899539709 0.8179721832 
4.640097618 49.50994873 3.872009754 0.8191322684 
2.360483408 48.18256378 3.756254911 0.8240323663 
0.1439233422 32.34592819 2.518657207 0.8782916069 
-1.29609859 32.3459549 2.520658016 0.8782011271 
-4.197465897 32.34601212 2.53975749 0.8773372173 
-8.69282341 32.34610367 2.608012676 0.8742570877 
-10.25590324 32.34613037 2.642220974 0.8727175593 
-11.86369514 32.34616089 2.682710409 0.8708984852 
-5.675436974 13.57341385 1.145571709 0.9426814914 
-38.70262909 9.48314476 3.102747202 0.8522524834 
-16.08126831 -0.4294506609 1.252624631 0.9374960065 
-16.09355354 -1.147771001 1.2563169 0.9373176098 
-52.17457581 -13.2774725 4.192084312 0.8057337999 
-42.95275116 -17.28982544 3.60533309 0.8304656744 
-18.31792641 -12.67176247 1.734305859 0.9145119786 
-46.03972626 -41.92665863 4.848655701 0.7789313793 
-13.1797142 -15.69122314 1.595616579 0.9210731387 
-14.76401043 -19.25562286 1.889351964 0.9072375894 
-10.74772644 -15.38978195 1.461632252 0.9274538755 
-9.758981705 -15.38980198 1.418956399 0.9294955134 
-8.824542999 -15.38982677 1.381359339 0.9312978387 
-7.936637878 -15.38985062 1.348304272 0.9328853488 
-3.266457558 -15.38996315 1.225040674 0.9388292432 
-2.557013988 -15.38998222 1.214774251 0.9393259883 
0.891281724 -15.39006519 1.200361729 0.9400238395 
11.68183804 -23.67739487 2.055830479 0.8994884491 
11.68195534 -19.16832733 1.747888327 0.913874507 
11.68200397 -17.37848854 1.630496025 0.9194190502 
14.9183569 -15.3904314 1.668979883 0.9175977707 
19.52732086 -15.39055347 1.935996175 0.9050596952 
21.42298126 -15.39058781 2.053959131 0.8995752931 
26.16534805 -15.47101784 2.366872072 0.8851872683 
78.91757965 25.4091568 6.4556036 0.7170334458 
36.16021729 13.44541264 3.003969669 0.8566008806 
23.59327316 13.95019245 2.134207249 0.8958631158 
31.94227219 32.95308685 3.573518038 0.831827879 
31.83301926 35.90728378 3.736461163 0.8248730898 
31.77048492 47.26271439 4.434313297 0.7957395315 
29.34963989 48.15843582 4.391383648 0.7975016236 
26.54912376 48.27232361 4.289721012 0.8016902208 
23.76026535 48.15855408 4.181444645 0.8061752319 
21.1512413 48.1586113 4.095618725 0.809748292 
18.73502159 48.3983078 4.041051388 0.8120282292 
16.26067543 48.28445053 3.967161179 0.815125823 
8.757721901 30.41683006 2.464636087 0.8807395697 
7.592250824 31.59292221 2.530034781 0.8777768016 
7.351669788 49.70384979 3.912315607 0.817432642 
2.789035559 48.15898514 3.756207705 0.8240345716 
0.4324438274 32.39056015 2.522330999 0.8781253099 
-3.905056 32.3460083 2.536926031 0.8774651885 
-5.395932674 32.4765892 2.563472271 0.8762658238 
-6.87658453 32.39894867 2.578956127 0.8755668998 
-5.588383675 13.70666695 1.152576447 0.9423413277 
-68.7986145 89.72901917 8.804167747 0.6353088021 
-16.04730606 1.144470215 1.252705455 0.937492013 
-16.07756996 -0.2862182558 1.252087831 0.9375218749 
-16.09102249 -1.003757358 1.255372763 0.9373632669 
-88.59068298 -13.5065794 6.97787571 0.6979955435 
-54.01649475 -13.23547554 4.330443859 0.8000101447 
-43.46356201 -17.04750633 3.635324717 0.8291831017 
-39.96182632 -17.76377678 3.405221462 0.8390725851 
-47.284832 -35.26281357 4.592962742 0.7892617583 
-47.49593735 -38.82436752 4.776653767 0.7818265557 
-47.03287888 -42.07145309 4.913620949 0.7763285041 
-43.7567482 -42.79392624 4.765707493 0.7822675109 
-13.77667236 -16.10866356 1.650463939 0.9184736013 
-9.952126503 -15.38979721 1.427066445 0.9291071892 
-9.007492065 -15.38982105 1.388500452 0.9309552312 
-8.110852242 -15.38984585 1.354575276 0.9325839877 
-7.255319595 -15.38986492 1.324828267 0.9340144992 
-6.434934139 -15.38988495 1.298875809 0.9352642894 
-5.644582272 -15.38990402 1.276399612 0.936348021 
-2.697985888 -15.38997746 1.216623306 0.9392365813 
-1.997116685 -15.38999271 1.208396077 0.9396347404 
-1.304304123 -15.39001179 1.202647567 0.9399132133 
0.06849853694 -15.39004135 1.198364019 0.9401205778 
0.7539281845 -15.39006042 1.199790716 0.940051496 
1.442365646 -15.39008045 1.203606367 0.939866662 
2.13656497 -15.39008999 1.209848404 0.9395644069 
2.839401722 -15.39011478 1.218583226 0.9391416907 
4.283229828 -15.39014816 1.243905187 0.9379171133 
11.68195057 -19.55791283 1.773863077 0.9126522541 
11.6819849 -17.71704292 1.65243721 0.9183800817 
11.68202877 -16.10906982 1.549446583 0.9232667089 
13.40143299 -15.39040279 1.589032054 0.9213854671 
16.01954269 -15.39046574 1.729753852 0.9147287607 
17.51672554 -15.3904953 1.815619588 0.9106906056 
19.17379189 -15.3905344 1.914452314 0.9060649872 
21.02549934 -15.39058304 2.028903008 0.9007374048 
30.08403969 -14.67659855 2.606399536 0.874329567 
69.06877899 -22.91848755 5.666407108 0.7467918396 
49.59050751 -9.377634048 3.92982173 0.8166958094 
72.74494934 9.110896111 5.708573341 0.7451716065 
55.3327446 9.446628571 4.370850563 0.7983461618 
37.13114548 13.43155003 3.074575663 0.8534901142 
36.0144043 14.87073421 3.03393054 0.8552795649 
77.19398499 35.97285843 6.631355286 0.7105696201 
24.06029892 12.54387951 2.112787962 0.8968523741 
23.83538246 13.80852509 2.14490819 0.8953694105 
23.83119392 15.26092243 2.203498602 0.8926704526 
77.09320068 54.35141373 7.344755173 0.6849242449 
38.91775131 32.98516464 3.972373486 0.8149073124 
34.95618439 32.40709305 3.711617231 0.8259297013 
32.17821884 32.61070633 3.567310095 0.8320942521 
31.83267784 35.26948547 3.69942975 0.8264485598 
31.87713051 42.35023499 4.127361774 0.8084245324 
31.77046967 46.36602402 4.37653923 0.7981117964 
24.2955246 48.15854263 4.200057983 0.8054026961 
21.66449356 48.15860367 4.111857414 0.8090713024 
9.318705559 31.31427956 2.543974638 0.8771464825 
7.550617695 30.23273849 2.42639327 0.8824768066 
3.21928215 48.15898514 3.758292675 0.8239459991 
0.725266099 32.59148026 2.538375378 0.8773994446 
-2.162224054 32.34597015 2.524252653 0.8780382276 
-5.078898907 32.34602737 2.549497843 0.8768969774 
-6.612604618 32.58007812 2.588588238 0.8751325011 
-8.078422546 32.34609222 2.596001625 0.8747981191 
-50.37786865 89.6986084 8.010616302 0.6618241072 
-68.35993958 90.81930542 8.851098061 0.6337741613 
-68.47409821 21.37604141 5.585541248 0.7499108911 
-16.06924057 1.289860845 1.255263209 0.9373683929 
-16.05796051 0.5718945265 1.251154304 0.937566936 
-16.07399559 -0.1430468708 1.251660585 0.9375425577 
-16.08864403 -0.8599120975 1.254539967 0.9374034405 
-73.57683563 -13.91347408 5.830628395 0.7404998541 
-56.01161194 -13.19707203 4.480800152 0.7938362956 
-46.89892578 -13.27758503 3.795340538 0.8223748207 
-43.82587433 -14.54235077 3.595485687 0.83088696 
-39.96191025 -21.74749756 3.54258728 0.8331547976 
-47.49586868 -34.76678848 4.583228111 0.7896577716 
-44.54306412 -42.79390717 4.809670925 0.780497551 
-10.1474781 -15.38979721 1.435381293 0.9287090898 
-9.192336082 -15.38981628 1.395825267 0.9306039214 
-8.286672592 -15.38984585 1.361016989 0.9322747588 
-7.423425198 -15.38986492 1.330464959 0.9337433577 
-3.553849936 -15.38996315 1.229882956 0.9385951161 
-2.839377403 -15.38997269 1.218572497 0.9391422272 
-0.7539281845 -15.39003181 1.19978869 0.9400516152 
-0.06849853694 -15.39004135 1.198363423 0.9401205778 
1.304309011 -15.39007092 1.202649713 0.9399129748 
2.698014975 -15.39011478 1.216633439 0.9392360449 
3.409919262 -15.39012909 1.227421641 0.938714087 
4.136013031 -15.39014339 1.240879059 0.9380633235 
15.93530464 -43.44747925 3.603428841 0.8305469751 
11.68201923 -16.41447067 1.568759322 0.9223484397 
13.16240406 -15.3903923 1.576870561 0.9219629765 
14.39601326 -15.39042187 1.640927553 0.9189249277 
15.73679447 -15.39045143 1.713944793 0.9154741764 
30.34406853 -15.13931847 2.640500546 0.8727946877 
69.31498718 -23.68698883 5.70367527 0.7453591824 
49.5314064 -12.13649654 3.97087574 0.8149700165 
49.56914902 -9.831274033 3.934908867 0.8164818287 
72.72737122 8.452038765 5.701061726 0.7454599142 
79.93842316 24.17615891 6.502867222 0.7152891755 
36.61714935 12.87828827 3.022403479 0.8557875156 
24.13173485 12.30926991 2.109358072 0.8970108628 
39.30101776 32.71348953 3.981614828 0.8145191669 
35.58539581 32.406353 3.74765563 0.8243973851 
31.83234596 34.644207 3.663419008 0.8279836774 
31.77031898 37.82442474 3.84629631 0.820217967 
32.17064285 41.95781326 4.116870403 0.8088622689 
31.77045631 45.4924202 4.320596218 0.8004157543 
24.83560181 48.15852356 4.219163895 0.8046101332 
22.18188667 48.15858459 4.128547192 0.8083758354 
17.43624306 48.88095474 4.041033745 0.8120290637 
9.666250229 31.45542145 2.562327862 0.8763173223 
6.748762131 31.79658127 2.531009197 0.8777326941 
8.226037025 49.50988007 3.907961845 0.8176163435 
3.650046349 48.15897369 3.760677338 0.8238447905 
1.033249497 33.16077423 2.583331823 0.8753695488 
-0.4318408072 32.34593964 2.518854856 0.8782824874 
-6.38021946 32.93647766 2.612291813 0.8740643859 
-7.773266315 32.34608459 2.590348959 0.8750530481 
-9.313241005 32.34611511 2.620966196 0.873673737 
-10.89319229 32.34614563 2.657639027 0.8720244169 
-38.55432129 70.10049438 6.229492664 0.7254366279 
-52.51304245 54.17481232 5.874854565 0.7388141155 
-16.75447655 8.925497055 1.478171229 0.9266639948 
-16.07054329 -2.441406195e-06 1.251342297 0.9375578761 
-16.08642578 -0.7162890434 1.253818512 0.93743819 
-76.72488403 -13.80273628 6.070127964 0.7314180732 
-61.0345993 -13.80841541 4.872598648 0.7779709101 
-45.7346077 -14.72523117 3.741183996 0.8246727586 
-44.06172943 -16.3834343 3.660382509 0.8281131387 
-40.83908463 -17.28987503 3.453207254 0.8370009065 
-39.96185684 -19.05715942 3.447366238 0.8372527957 
-39.96190262 -21.28863907 3.525650024 0.8338823318 
-39.96194839 -23.62870789 3.614905834 0.8300562501 
-39.88169098 -26.04275513 3.708863497 0.8260472417 
-45.34392548 -42.79388428 4.854831219 0.7786834836 
-13.50949955 -16.67777634 1.671218038 0.9174920917 
-9.379152298 -15.38980675 1.403340578 0.9302437305 
-7.592976093 -15.38986015 1.33625412 0.9334648848 
-3.698415518 -15.38995361 1.232462287 0.938470304 
-2.981232882 -15.38997269 1.220624566 0.9390429258 
-0.2054663002 -15.39004135 1.198458433 0.9401159883 
0.4795287848 -15.39005566 1.19893539 0.9400929213 
1.166462421 -15.39007092 1.201790929 0.9399545789 
1.858024836 -15.39008999 1.207059145 0.9396995902 
3.266511202 -15.39012432 1.225054741 0.9388286471 
15.52669621 -43.52778244 3.598481894 0.8307585716 
11.6817112 -28.65192032 2.409293413 0.883254528 
11.68185806 -22.65211678 1.984552383 0.9027980566 
11.68192101 -20.3729763 1.828634739 0.9100800753 
11.68196964 -18.42229652 1.698554158 0.9162005186 
11.80037785 -15.39036369 1.510091424 0.9251408577 
14.14126205 -15.39041233 1.627444863 0.9195637107 
16.90035439 -15.39049053 1.779845953 0.9123707414 
18.48978806 -15.39051437 1.873209953 0.9079923034 
24.63929939 -15.47097874 2.265391588 0.8898278475 
27.26155472 -15.47104168 2.440733671 0.881824851 
29.55388832 -15.07501221 2.583311081 0.8753703833 
85.84713745 -34.55602646 7.205745697 0.6898474693 
89.27223206 -31.39690208 7.368585587 0.6840833426 
116.1920319 12.45629597 9.099181175 0.6257238388 
79.31895447 15.73168659 6.296500683 0.7229356766 
79.93924713 23.40202904 6.485741615 0.7159208655 
35.69839096 14.00188732 2.985840321 0.8574015498 
76.63853455 34.06725311 6.53050518 0.7142714262 
24.14930344 12.04860115 2.101439714 0.8973770142 
23.84610558 13.25360584 2.124306679 0.896320343 
43.37236404 32.3450737 4.212919712 0.8048690557 
36.15966797 32.34521484 3.777659178 0.8231238723 
31.83201408 34.03095245 3.628380537 0.829479754 
31.14259911 48.15839767 4.465632915 0.7944566607 
26.0286293 49.38773346 4.346981049 0.7993284464 
22.70352745 48.15857315 4.145702362 0.8076615334 
8.194794655 30.49284363 2.458581686 0.8810142279 
6.895163536 31.12020493 2.481951952 0.8799540401 
8.679479599 49.50986862 3.913896322 0.8173660636 
6.424785137 49.50992966 3.887434721 0.8184813261 
4.195986271 49.50996017 3.868936062 0.8192619681 
-1.584501863 32.34596252 2.521654844 0.8781559467 
-4.490585804 32.34601593 2.542795897 0.8771998882 
-7.469428539 32.34608078 2.584921122 0.8752977252 
-12.19138241 32.34617233 2.691603899 0.8704994917 
-3.688112736 8.604540825 0.7289494276 0.9631367326 
-38.57988358 71.64972687 6.336408138 0.7214514017 
-16.05239487 0.8580053449 1.251711607 0.9375399947 
-16.06721306 0.1430224627 1.251132965 0.9375680685 
-16.08435822 -0.57285887 1.253212094 0.9374675751 
-64.1749115 -13.91973877 5.113211632 0.7683854103 
-49.99320221 -13.19720936 4.026099205 0.8126546144 
-45.73460007 -14.27730179 3.73064208 0.8251208663 
-41.87310791 -17.28985023 3.52748704 0.8338034153 
-39.88167953 -25.53928375 3.687575579 0.8269538283 
-18.2692852 -12.87996769 1.740533233 0.9142209888 
-47.49590683 -36.7535553 4.676262856 0.7858809829 
-14.20943069 -15.74361992 1.651354194 0.9184315801 
-10.54518318 -15.38978767 1.452659369 0.927882731 
-9.568005562 -15.38980675 1.411049366 0.929874301 
-8.64345932 -15.38982677 1.374400735 0.9316318631 
-7.764030457 -15.38985538 1.342198014 0.9331789613 
-6.923239708 -15.38987541 1.314013243 0.9345352054 
-6.115476131 -15.38988972 1.289486766 0.9357169867 
-4.5798316 -15.38993359 1.250280261 0.9376091361 
-3.123615742 -15.38997269 1.222779632 0.9389386177 
-1.719201565 -15.39000225 1.205803037 0.9397603273 
-1.02880609 -15.39001179 1.201026082 0.9399917126 
2.416520834 -15.39010906 1.213039041 0.9394099712 
3.123649836 -15.39011955 1.22279191 0.9389380217 
13.86199951 -34.88435364 2.922881365 0.8601874113 
11.68184757 -23.1557579 2.019484758 0.9011744857 
11.6819067 -20.79983521 1.857539773 0.9087255597 
11.68196964 -18.79003525 1.722805858 0.9150564671 
11.68199444 -17.04887962 1.609261274 0.9204256535 
11.68204308 -15.52019215 1.512566924 0.9250228405 
16.60114479 -15.39047527 1.762690187 0.913177669 
19.8889122 -15.3905592 1.958184004 0.9040254354 
21.94436646 -15.47091484 2.09065938 0.897875607 
24.03375244 -15.3906517 2.222225189 0.8918093443 
69.9901123 -25.3177166 5.795397758 0.7418448329 
69.667099 -21.74847412 5.682830811 0.7461600304 
116.3717651 11.42905045 9.104919434 0.625538528 
46.01859283 8.702165604 3.646761894 0.8286944628 
35.97231293 13.74114513 2.998405695 0.8568467498 
77.58514404 33.66415787 6.585365295 0.7122550011 
22.95695496 13.85110569 2.087714672 0.8980118632 
40.29597473 32.34512711 4.023444176 0.8127654195 
33.73303986 32.40851593 3.642427206 0.8288795352 
31.83168602 33.42931747 3.594293833 0.830937922 
31.77029419 36.48563766 3.767075062 0.8235732317 
26.16327286 48.58986282 4.297071457 0.8013863564 
23.22968864 48.15856171 4.163331032 0.806927979 
20.64197922 48.15862274 4.079834938 0.8104071021 
8.484477043 30.48547554 2.463983059 0.8807691932 
9.134252548 49.50985718 3.920164824 0.8171020746 
6.886342525 49.60441208 3.899468184 0.8179722428 
4.639977932 49.50994873 3.872008562 0.8191322684 
0.1439111233 32.34592819 2.518657207 0.8782916069 
-2.741325617 32.3459816 2.52766633 0.8778840303 
-5.773547173 32.93372345 2.603508234 0.8744599819 
-8.69282341 32.34610367 2.608012676 0.8742570877 
-10.25586987 32.34613419 2.642216682 0.8727176189 
-11.86366081 32.3461647 2.682709217 0.8708984852 
-5.675412655 13.57341194 1.145570755 0.9426814914 
-42.91991043 91.04148102 7.837267399 0.6677619219 
-59.00971603 100.8219681 9.096346855 0.6258155107 
-59.00992203 91.25151062 8.46158886 0.6466223598 
-38.70264816 9.483071327 3.102747679 0.8522524834 
-16.04979134 1.001145005 1.252152562 0.9375186563 
-16.0812664 -0.4294702113 1.252622843 0.9374960065 
-16.09355354 -1.147771001 1.2563169 0.9373176098 
-88.34075165 -14.27401543 6.967913151 0.6983537078 
-66.86032867 -13.88023663 5.317123413 0.7603545189 
-52.17481232 -13.2774725 4.192101479 0.8057330251 
-44.01684952 -15.48066139 3.633187056 0.8292745352 
-42.95291901 -17.28983116 3.605345488 0.830465138 
-39.88151932 -18.15473366 3.41200614 0.8387792706 
-39.96197891 -25.09218407 3.674212456 0.8275234699 
-47.49588776 -36.08251953 4.644470692 0.7871695161 
-47.49594498 -39.53483582 4.81184721 0.7804097533 
-46.03972626 -41.92674637 4.848660946 0.7789312005 
-14.24583721 -15.50423527 1.639481902 0.9189936519 
-13.1797142 -15.69122314 1.595616579 0.9210731387 
-10.74772644 -15.38978195 1.461632252 0.9274538755 
-9.7590065 -15.38980198 1.418956995 0.9294954538 
-8.824572563 -15.38982105 1.381361246 0.9312978387 
-7.936667442 -15.38985062 1.348304272 0.9328852892 
-4.729279518 -15.38992405 1.25364852 0.9374464154 
-3.989421368 -15.38994312 1.237952709 0.9382048845 
-1.166428208 -15.39001179 1.201788425 0.9399548173 
-0.4795287848 -15.39003181 1.198933244 0.9400930405 
0.2054663002 -15.39005089 1.198460221 0.9401159883 
1.580646992 -15.39008045 1.204659224 0.9398157001 
2.276340246 -15.39009476 1.211394429 0.9394896626 
4.431164265 -15.39014816 1.247043014 0.9377654791 
5.182902813 -15.39016819 1.264490128 0.9369227886 
11.68175983 -26.59771156 2.261989832 0.8899840713 
11.68190193 -21.24024582 1.88751781 0.9073231816 
11.68199444 -17.37844849 1.630493283 0.9194191694 
13.6441431 -15.39040279 1.601504922 0.9207934737 
14.9183569 -15.3904314 1.668979883 0.9175977707 
19.52728271 -15.39054871 1.935993195 0.9050598145 
21.42293167 -15.39058781 2.053956509 0.8995754123 
26.16526985 -15.47101784 2.366866589 0.8851875067 
29.57254601 -15.75406933 2.609042406 0.8742104769 
88.81529999 -33.02388763 7.378222942 0.6837437749 
85.05999756 11.42297554 6.682686806 0.7086925507 
78.91728973 25.40922546 6.455582619 0.7170342207 
36.16017151 13.44548035 3.003968954 0.8566009402 
23.98887825 12.77948952 2.116425276 0.8966844678 
45.02271271 32.345047 4.31662178 0.8005800843 
41.03898239 32.34511566 4.068720818 0.8108714223 
34.33895493 32.40781403 3.676557541 0.8274231553 
31.94227219 32.95308685 3.573518038 0.831827879 
31.77041626 42.99959946 4.162938595 0.8069443703 
31.77048111 47.26262665 4.434307575 0.7957397699 
29.3497715 48.15844727 4.391388893 0.7975013852 
26.54901123 48.27235413 4.28971529 0.8016902804 
23.76013947 48.15855408 4.181440353 0.8061754107 
18.73500252 48.39833069 4.041051388 0.8120281696 
16.26061249 48.28442383 3.967157602 0.8151260018 
8.757687569 30.41683578 2.464636087 0.8807396293 
7.592231274 31.59300041 2.530040264 0.8777765036 
2.789035559 48.15898514 3.756207705 0.8240345716 
0.4324438274 32.39056015 2.522330999 0.8781253099 
-1.007853985 32.34594727 2.519858122 0.8782373071 
-2.451545238 32.34597778 2.525856733 0.8779656887 
-3.905014515 32.34600449 2.536925793 0.8774651885 
-5.395888329 32.4765625 2.563469172 0.8762658834 
-8.384980202 32.34609604 2.601893902 0.8745327592 
-9.940016747 32.34612656 2.634885311 0.8730472326 
-11.53821278 32.34615707 2.674091101 0.8712854385 
-5.588390827 13.70665741 1.15257585 0.9423413873 
-16.04730606 1.144470215 1.252705455 0.937492013 
-16.06092453 0.4289233387 1.251039267 0.9375725389 
-16.07757378 -0.2861865163 1.252087831 0.9375218749 
-16.0910244 -1.003715754 1.255372405 0.9373632669 
-54.01649475 -13.23556328 4.33044529 0.8000100255 
-39.9618721 -19.9378624 3.477434635 0.8359565139 
-39.96192169 -22.21071434 3.559969425 0.832408905 
-47.28478241 -32.09168625 4.449742794 0.7951073647 
-47.49593735 -38.82436752 4.776653767 0.7818265557 
-43.75694275 -42.79391479 4.765717506 0.7822670937 
-9.952077866 -15.38979721 1.4270643 0.9291072488 
-9.007448196 -15.38981628 1.388498664 0.9309553504 
-6.434934139 -15.38988495 1.298875809 0.9352642894 
-5.644582272 -15.38990402 1.276399612 0.936348021 
-4.879621506 -15.38991451 1.257136941 0.9372779727 
-4.13595438 -15.38994312 1.240864635 0.9380640984 
-3.4098804 -15.38996315 1.227407336 0.9387147427 
-1.997116685 -15.38999271 1.208396077 0.9396347404 
0.06846435368 -15.39004612 1.198364019 0.9401205778 
2.136604071 -15.39008999 1.209849119 0.9395644069 
2.839440823 -15.39011955 1.218583226 0.9391416907 
4.283259392 -15.39014816 1.243905783 0.9379171133 
11.6818285 -24.21815681 2.093672991 0.8977361917 
11.68188667 -21.695364 1.91864574 0.9058691263 
12.24140358 -15.39037323 1.531231761 0.9241337776 
19.17387962 -15.3905344 1.914455652 0.9060647488 
23.23782921 -15.4709444 2.173750162 0.8940396309 
28.28124237 -15.39075375 2.507100344 0.8788145185 
30.08403969 -14.67659855 2.606399536 0.874329567 
49.59050751 -9.377634048 3.92982173 0.8166958094 
55.33200073 9.446628571 4.370791435 0.7983484864 
79.62744141 24.85785866 6.495325089 0.7155676484 
36.0144043 14.87073421 3.03393054 0.8552795649 
77.19398499 35.97285843 6.631355286 0.7105696201 
24.06029892 12.54387951 2.112787962 0.8968523741 
23.83119392 15.26092243 2.203498602 0.8926704526 
77.09323883 54.35118866 7.34474659 0.6849245429 
41.79896545 32.34511566 4.115365505 0.8089250922 
38.91785431 32.98509598 3.972376108 0.8149071932 
32.17813492 32.61076355 3.567303896 0.8320943117 
31.83267784 35.26959991 3.699435949 0.8264482617 
33.10739899 40.13633347 4.051263809 0.8116011024 
31.87709236 42.3503685 4.127367973 0.8084242344 
31.77046967 46.36623764 4.376554012 0.7981112599 
24.2955246 48.15854263 4.200057983 0.8054026961 
17.00053024 49.03409958 4.041027546 0.8120293617 
9.318705559 31.31427956 2.543974638 0.8771464825 
6.66539526 32.84011459 2.60924983 0.8742013574 
3.219167471 48.15897751 3.758291483 0.8239460588 
-3.613349438 32.34600067 2.534298897 0.8775837421 
-5.078898907 32.34602737 2.549497843 0.8768969774 
-6.612604618 32.58007812 2.588588238 0.8751325011 
-68.35993958 90.81975555 8.851125717 0.6337732077 
-68.47409821 21.37604141 5.585541248 0.7499108911 
-16.06920433 1.289821744 1.255262613 0.9373685718 
-16.0739994 -0.1430834979 1.251660228 0.9375424981 
-73.57683563 -13.91347408 5.830628395 0.7404998541 
-56.01161194 -13.19707203 4.480800152 0.7938362956 
-43.43843842 -16.59315681 3.62072444 0.8298069239 
-39.88150406 -17.30460167 3.385129213 0.8399422169 
-39.96186066 -19.49551964 3.462194681 0.8366132379 
-39.96191025 -21.74739456 3.542584658 0.8331549764 
-47.28477478 -31.48058319 4.423204422 0.7961957455 
-47.49586868 -34.76693344 4.583228588 0.7896574736 
-47.4959259 -38.12445831 4.742350578 0.7832097411 
-47.49599457 -41.73100662 4.923019409 0.7759526372 
-44.54290009 -42.79390717 4.809659958 0.7804979086 
-39.88203812 -41.8837204 4.503304482 0.7929159403 
-13.3668232 -16.80529976 1.672006965 0.9174547791 
-10.1474781 -15.38979721 1.435381293 0.9287090898 
-6.5964818 -15.38988018 1.303781509 0.9350280166 
-5.800505161 -15.38989925 1.280632734 0.9361439347 
-2.839348078 -15.38997269 1.218572259 0.9391422868 
-0.753894031 -15.39003181 1.199788332 0.9400516152 
-0.06845947355 -15.39004135 1.198363185 0.9401205778 
1.304309011 -15.39007092 1.202649713 0.9399129748 
3.409919262 -15.39012909 1.227421641 0.938714087 
4.136013031 -15.39014339 1.240879059 0.9380633235 
15.93530464 -43.44747925 3.603428841 0.8305469751 
11.6817255 -27.9381752 2.357927084 0.8855955005 
11.68187237 -22.16576767 1.950971842 0.9043614864 
11.6819849 -18.06472778 1.675106645 0.9173080921 
11.68202877 -16.41438675 1.568755031 0.9223486781 
12.01941109 -15.39036369 1.52053082 0.9246434569 
13.16246319 -15.3903923 1.576873541 0.9219628572 
14.39601326 -15.39042187 1.640927553 0.9189249277 
18.82806778 -15.39052486 1.893530726 0.9070421457 
25.13324356 -15.47098827 2.298056126 0.8883314729 
27.83581161 -15.47105694 2.479721069 0.8800551295 
49.53142548 -12.13639832 3.970876455 0.8149700761 
116.5315475 18.82905006 9.191456795 0.6227557063 
79.71065521 16.547966 6.339026451 0.721353054 
79.93842316 24.17615891 6.502867222 0.7152891755 
36.61732101 12.87825394 3.022414446 0.8557869792 
35.71466827 14.37620831 2.997778893 0.8568741679 
22.50535393 14.13113022 2.069200277 0.8988690376 
24.74651527 17.11888885 2.343023062 0.8862760067 
39.30101776 32.71348953 3.981614828 0.8145191669 
35.58539581 32.406353 3.74765563 0.8243973851 
32.17064285 41.95781326 4.116870403 0.8088622689 
31.77045631 45.4924202 4.320596218 0.8004157543 
30.53827858 48.1584053 4.440251827 0.7954961061 
27.61421585 48.15847397 4.322604656 0.8003329635 
24.83574486 48.15852356 4.21916914 0.8046099544 
22.18200302 48.15859222 4.128551006 0.8083756566 
7.886266708 30.4227047 2.447173357 0.8815324306 
8.225954056 49.50987244 3.907960653 0.8176164031 
1.033249497 33.16077423 2.583331823 0.8753695488 
-0.4318408072 32.34593964 2.518854856 0.8782824874 
-3.322106838 32.34599686 2.531883955 0.8776931167 
-4.784279823 32.34602356 2.546038866 0.8770532012 
-6.38021946 32.93647766 2.612291813 0.8740643859 
-7.773193359 32.34608459 2.59034729 0.8750531077 
-10.89312363 32.34614563 2.657637835 0.8720245361 
-12.52131557 32.34617615 2.700774431 0.8700883985 
-52.51304245 54.17481232 5.874854565 0.7388141155 
-16.7544651 8.925542831 1.478172064 0.9266639352 
-16.05511665 0.71489501 1.251378894 0.937556088 
-16.08642578 -0.7162890434 1.253818512 0.93743819 
-48.54330826 -13.2775507 3.918690205 0.8171644211 
-40.83883286 -17.28987503 3.453189611 0.8370016813 
-39.96185303 -19.05725861 3.447369337 0.8372526169 
-39.96190262 -21.28874207 3.525654316 0.833882153 
-39.96194839 -23.62870789 3.614905834 0.8300562501 
-39.88169098 -26.04275513 3.708863497 0.8260472417 
-47.49584961 -34.12181854 4.553740025 0.7908583283 
-47.49591827 -37.43419647 4.708891869 0.7845611572 
-47.49597549 -40.98761749 4.884999752 0.7774739861 
-45.34392548 -42.79388428 4.854831219 0.7786834836 
-9.379196167 -15.38981152 1.403342366 0.9302436113 
-8.464152336 -15.38984108 1.367618561 0.9319574833 
-6.759181976 -15.38987541 1.308823943 0.9347851276 
-5.957414627 -15.38989449 1.28499341 0.9359336495 
-3.698415518 -15.38995361 1.232462287 0.938470304 
-2.981232882 -15.38997269 1.220624566 0.9390429258 
-1.580632329 -15.39000225 1.204653144 0.9398159981 
1.166433096 -15.39007092 1.201790571 0.9399545789 
1.857990623 -15.39008522 1.207058787 0.9396995902 
2.557023764 -15.39009953 1.214786172 0.9393255115 
3.266481876 -15.39012909 1.225054145 0.9388286471 
3.989543438 -15.39013863 1.237968564 0.9382040501 
15.52679443 -43.52778244 3.598485708 0.8307583928 
11.68170643 -28.65176392 2.409281731 0.8832550645 
11.68200874 -16.72759438 1.588685393 0.9214018583 
11.80037785 -15.39036369 1.510091424 0.9251408577 
14.14126205 -15.39041233 1.627444863 0.9195637107 
15.45907879 -15.39044666 1.698556066 0.9162005782 
16.90028 -15.39048576 1.779842019 0.9123709798 
18.48968887 -15.3905201 1.873205066 0.9079926014 
20.25878525 -15.39056396 1.981040478 0.9029614329 
22.36445999 -15.4709301 2.117479563 0.8966357112 
24.63941574 -15.47097874 2.265399694 0.8898274899 
116.1917648 12.45601273 9.099157333 0.6257246137 
37.24027634 12.7261982 3.064370155 0.853939116 
35.69839096 14.00188732 2.985840321 0.8574015498 
76.63853455 34.06725311 6.53050518 0.7142714262 
24.14930344 12.04860115 2.101439714 0.8973770142 
23.84610558 13.25360584 2.124306679 0.896320343 
76.82676697 52.14145279 7.229787827 0.6889935732 
39.66301727 32.42150497 3.988888502 0.8142138124 
33.13854599 32.40921021 3.609227896 0.8302987218 
31.83201408 34.03083038 3.628373384 0.829480052 
32.02392578 41.00569153 4.051245689 0.8116019368 
31.14247704 48.15839767 4.465621471 0.7944568992 
26.02863503 49.38798904 4.346998692 0.7993276715 
17.87055779 48.72385788 4.041039467 0.8120290041 
6.424785137 49.50992966 3.887434721 0.8184813261 
1.931862712 48.20133209 3.756230354 0.8240333796 
-4.490585804 32.34601593 2.542795897 0.8771998882 
-6.08706522 32.9926796 2.612345457 0.8740617633 
-9.002309799 32.34610748 2.614373207 0.873970747 
-3.688112736 8.604540825 0.7289494276 0.9631367326 
-59.96824265 100.3988266 9.106192589 0.6255051494 
-78.1849823 89.78922272 9.27058506 0.6202226877 
-16.06721687 0.14295654 1.251132607 0.9375680089 
-81.63309479 -13.93692589 6.44836998 0.7173010111 
-45.73460007 -14.27730179 3.73064208 0.8251208663 
-44.15196228 -15.97120857 3.655932426 0.8283033371 
-41.87310791 -17.28985023 3.52748704 0.8338034153 
-18.2692852 -12.87996769 1.740533233 0.9142209888 
-47.33091736 -40.11568832 4.831103802 0.7796360254 
-46.03974533 -42.68261719 4.888474464 0.7773345709 
-42.22624969 -42.79394531 4.681254864 0.7856792212 
-9.568005562 -15.38980675 1.411049366 0.929874301 
-7.764030457 -15.38985538 1.342198014 0.9331789613 
-6.115476131 -15.38988972 1.289486766 0.9357169867 
-5.335803032 -15.38990402 1.268324375 0.9367378354 
-4.5798316 -15.38993359 1.250280261 0.9376091361 
-3.843630314 -15.38994884 1.235153675 0.9383401871 
-2.416496515 -15.38998222 1.213029027 0.9394104481 
-1.719201565 -15.39000225 1.205803037 0.9397603273 
-0.3424340785 -15.39003181 1.198648453 0.9401068687 
0.3425073028 -15.39005089 1.198650599 0.9401067495 
1.02880609 -15.39007092 1.201030374 0.9399915338 
1.71921134 -15.39008045 1.205809474 0.9397600293 
4.579899788 -15.39015388 1.250298262 0.937608242 
13.86199951 -34.88435364 2.922881365 0.8601874113 
11.68177986 -25.96775627 2.217169285 0.8920419216 
11.68184757 -23.1557579 2.019484758 0.9011744857 
11.6819067 -20.79983521 1.857539773 0.9087255597 
11.68196964 -18.79003525 1.722805858 0.9150564671 
15.18639374 -15.39043713 1.683573723 0.9169080853 
19.88874626 -15.3905592 1.958174825 0.9040259123 
24.03353691 -15.3906517 2.222211123 0.8918099999 
26.64191628 -15.43444061 2.397459507 0.8837932348 
30.22849846 -15.75951862 2.654426098 0.8721686006 
69.9901123 -25.3177166 5.795397758 0.7418448329 
69.66733551 -21.74821472 5.682843685 0.7461596131 
116.3726273 11.42862034 9.10498333 0.6255364418 
85.59655762 12.27167702 6.733159065 0.7068519592 
81.60534668 23.10370827 6.603978634 0.7115723491 
23.91750145 13.01597881 2.120259523 0.8965072036 
84.83623505 56.4810524 7.935878754 0.6643764377 
44.18730545 32.34506607 4.263953209 0.8027552962 
33.7333374 32.40851593 3.642444372 0.8288788199 
32.38765717 40.71902084 4.051251888 0.8116019368 
23.22943497 48.15856171 4.163322449 0.8069283962 
18.30335617 48.56300735 4.041044712 0.8120288253 
15.74262428 48.15871811 3.945165873 0.8160502315 
7.383188248 31.9725132 2.555066824 0.8766451478 
9.134252548 49.50985718 3.920164824 0.8171020746 
6.886557579 49.60439301 3.899461508 0.8179722428 
-1.296005845 32.3459549 2.520657778 0.8782011867 
-2.741325617 32.3459816 2.52766633 0.8778840303 
-10.25602245 32.34613037 2.642220497 0.8727174401 
-11.86366081 32.3461647 2.682709217 0.8708984852 
-16.04979134 1.001145005 1.252152562 0.9375186563 
-16.06401062 0.286013186 1.251031876 0.9375728965 
-88.34106445 -14.27445984 6.967943192 0.6983526349 
-18.31790543 -12.67177486 1.734305859 0.9145120382 
-47.49594498 -39.53483582 4.81184721 0.7804097533 
-46.03972626 -41.92638397 4.848642349 0.7789319754 
-42.98475647 -42.79393387 4.722918034 0.7839940786 
-14.24581718 -15.50435257 1.639487743 0.9189933538 
-14.76387405 -19.25562286 1.889345527 0.9072378874 
-10.74772644 -15.38978195 1.461632252 0.9274538755 
-9.758908272 -15.38980198 1.418953419 0.9294956326 
-8.824572563 -15.38982105 1.381361246 0.9312978387 
-7.936579227 -15.38985062 1.34830153 0.932885468 
-4.729279518 -15.38992405 1.25364852 0.9374464154 
-3.989489555 -15.38994312 1.237953663 0.9382048249 
-1.857980967 -15.38999271 1.207048416 0.9396999478 
-0.4795287848 -15.39003181 1.198933244 0.9400930405 
0.2055346668 -15.39005089 1.198460817 0.9401159883 
1.580710411 -15.39008045 1.204660177 0.9398157001 
2.276340246 -15.39009476 1.211394429 0.9394896626 
3.698454618 -15.39013386 1.232476592 0.9384695888 
4.431237698 -15.39014816 1.247044444 0.9377654195 
5.182902813 -15.39016819 1.264490128 0.9369227886 
11.68183327 -23.67727661 2.055820942 0.8994888067 
11.68195534 -19.16828346 1.747885227 0.9138746262 
16.30755043 -15.3904705 1.745993733 0.9139635563 
19.52728271 -15.39054871 1.935993195 0.9050598145 
23.69211197 -15.47095871 2.203282833 0.8926802278 
88.81529999 -33.02388763 7.378222942 0.6837437749 
69.12425995 -22.25618362 5.65448761 0.7472505569 
79.39316559 14.28258514 6.281217098 0.7235053778 
36.35066223 15.38971424 3.073678017 0.8535298109 
23.59319115 13.95002651 2.134195566 0.8958636522 
22.52617836 19.43956184 2.316839457 0.8874723315 
34.33895493 32.40781403 3.676557541 0.8274231553 
31.94219971 32.95327377 3.573524714 0.8318275809 
31.77041626 42.99959946 4.162938595 0.8069443703 
29.3497715 48.15844727 4.391388893 0.7975013852 
21.15111542 48.1586113 4.095614433 0.8097484708 
18.73518753 48.39824295 4.041051388 0.8120282292 
8.757819176 30.41680336 2.464636087 0.8807395697 
