# .PCD v0.7 - Point Cloud Data file format
VERSION 0.7
FIELDS x y z intensities
SIZE 4 4 4 4
TYPE F F F F
COUNT 1 1 1 1
WIDTH 923
HEIGHT 1
VIEWPOINT 0 0 0 1 0 0 0
POINTS 923
DATA ascii
-3.798718214 -7.529804707 -2.002536774 0.9659212828 
-3.11425519 -7.837150574 -2.002414703 0.9659233093 
-2.405219555 -8.082414627 -2.00228858 0.9659254551 
-1.677238703 -8.263667107 -2.002159357 0.9659276009 
-1.307929635 -8.329821587 -2.00209403 0.9659287333 
-0.9360644221 -8.379487038 -2.002028227 0.9659298062 
-0.5623730421 -8.412550926 -2.001962185 0.9659308791 
0.187575683 -8.428684235 -2.001829863 0.9659330845 
1.676735759 -8.2612257 -2.001568079 0.9659374952 
2.40418458 -8.078996658 -2.001440763 0.9659395814 
2.761103392 -7.963798523 -2.001378536 0.9659406543 
3.796154737 -7.524767876 -2.001197815 0.9659436941 
4.449682713 -7.157182693 -2.001084566 0.9659456015 
5.067910194 -6.733017445 -2.000977516 0.9659473896 
5.918576717 -5.998105526 -2.000831127 0.9659498334 
6.663835526 -5.156650066 -2.000703573 0.9659519792 
7.095514774 -4.54380846 -2.000630617 0.9659532309 
7.290534496 -4.223603249 -2.000597715 0.9659536481 
7.471054554 -3.895053625 -2.000567436 0.9659542441 
7.787473202 -3.215537071 -2.000514984 0.9659551382 
7.92271471 -2.865905762 -2.000492811 0.9659554958 
8.042277336 -2.51061511 -2.000473499 0.9659558535 
8.145932198 -2.150363684 -2.00045681 0.9659560919 
8.233464241 -1.785864234 -2.00044322 0.9659563303 
8.359538078 -1.046965361 -2.000424385 0.9659566283 
8.397817612 -0.674067378 -2.000419617 0.9659566879 
8.412826538 0.449672848 -2.000422239 0.9659566879 
8.33963871 1.195627451 -2.00043869 0.9659563899 
8.27824688 1.565429688 -2.000451326 0.9659562111 
8.106489182 2.295036554 -2.000485182 0.965955615 
7.996452332 2.653398275 -2.000506163 0.9659552574 
7.72917223 3.353691339 -2.000556707 0.965954423 
7.572451115 3.694250345 -2.000586033 0.9659539461 
7.214382172 4.35281229 -2.000652313 0.9659528136 
6.799191952 4.977004051 -2.000728369 0.9659515619 
6.330202579 5.561855316 -2.000813961 0.9659501314 
5.811096191 6.102751255 -2.000907898 0.9659485221 
5.39981699 6.201259613 -1.952437878 0.9667595625 
4.570859432 6.303056717 -1.848727703 0.9684970975 
3.992795229 6.684745789 -1.848831415 0.968495369 
3.383051634 7.013581276 -1.848940492 0.9684935212 
2.74647212 7.286957741 -1.849054098 0.9684916139 
2.088083506 7.502695084 -1.849171042 0.9684896469 
1.752324224 7.588395596 -1.849230766 0.9684886336 
-0.6578393579 7.762061596 -1.849656463 0.9684815407 
-1.002512217 7.72536993 -1.849717021 0.9684804678 
-2.354792356 7.426774502 -1.849954009 0.9684764743 
-2.682902813 7.314894676 -1.850011349 0.9684755802 
-3.322624445 7.047922134 -1.850122929 0.9684736729 
-3.632963896 6.893346786 -1.850176811 0.9684727192 
-3.93612051 6.725102425 -1.850229502 0.9684718847 
-4.231528282 6.543512821 -1.850280762 0.9684710503 
-4.85260725 6.213556767 -1.871980071 0.9681072235 
-5.303598404 6.201303482 -1.937517166 0.967009306 
-6.030930042 5.898190975 -2.002994776 0.9659135938 
-6.287463188 5.624198914 -2.003038645 0.9659128785 
-6.531572342 5.339055061 -2.003080368 0.9659121633 
-6.980507851 4.737595081 -2.003156662 0.9659109116 
-7.549325943 3.76651597 -2.003252268 0.9659093022 
-7.854413986 3.080712795 -2.003302813 0.9659084678 
-8.097296715 2.370488167 -2.003342152 0.9659078121 
-8.276059151 1.641411066 -2.003370285 0.9659073353 
-8.340920448 1.271643043 -2.003379822 0.9659071565 
-8.420981407 0.5252783298 -2.003390551 0.9659069777 
-8.436019897 0.1501660049 -2.003391266 0.9659069777 
-8.43433857 -0.2252465785 -2.00338912 0.9659069777 
-8.380883217 -0.9739843607 -2.003376245 0.9659072161 
-8.329216003 -1.345827579 -2.003365278 0.9659073949 
-8.075780869 -2.442397356 -2.003315449 0.9659082294 
-7.82656002 -3.15041995 -2.003268003 0.9659090042 
-7.678566933 -3.495407581 -2.003240347 0.965909481 
-7.515341759 -3.833486319 -2.003209829 0.9659100175 
-6.937873363 -4.799408913 -2.003103495 0.9659118056 
-6.236952782 -5.679765701 -2.002975702 0.9659139514 
-4.516796589 -7.122910023 -2.00266552 0.965919137 
-4.195353985 -7.316574574 -2.002607822 0.9659200907 
-3.865617514 -7.495732307 -2.002548933 0.965921104 
-3.183908701 -7.809167385 -2.002427101 0.9659231305 
-2.477048397 -8.060742378 -2.002301455 0.9659252167 
-2.115954638 -8.162685394 -2.002237082 0.9659263492 
-1.381999493 -8.317907333 -2.002107143 0.9659284949 
-1.010588408 -8.370876312 -2.00204134 0.9659295678 
-0.262575686 -8.427008629 -2.001909256 0.9659318328 
0.1125415042 -8.430070877 -2.001842976 0.9659329057 
0.8612963557 -8.386154175 -2.00171113 0.965935111 
1.233449697 -8.339267731 -2.001645803 0.9659361839 
1.969628811 -8.196110725 -2.001516819 0.9659383297 
2.690112352 -7.988114834 -2.001390696 0.9659404755 
4.385864258 -7.19652319 -2.001095533 0.965945363 
4.701508522 -6.994115829 -2.001040936 0.9659463167 
5.007843971 -6.777878284 -2.000988007 0.9659472108 
5.304255486 -6.548229694 -2.000936747 0.9659480453 
6.379257679 -5.50511694 -2.000752211 0.9659511447 
6.617695332 -5.215783596 -2.000711679 0.96595186 
7.054819107 -4.606796741 -2.000637531 0.9659531116 
7.604863167 -3.626652718 -2.000545263 0.9659546018 
7.758576393 -3.284699678 -2.000519753 0.965955019 
8.126491547 -2.22275877 -2.000459909 0.9659560323 
8.291779518 -1.491662621 -2.000434399 0.9659565091 
8.349887848 -1.121328115 -2.000425816 0.9659566283 
8.391484261 -0.748789072 -2.000420332 0.9659566879 
8.424818993 -2.441406195e-06 -2.000417948 0.9659567475 
8.217308998 1.859067321 -2.000463486 0.9659560919 
8.12664032 2.222792864 -2.000481129 0.9659554362 
8.019723892 2.582145929 -2.000501871 0.9659553766 
7.897026062 2.936369658 -2.000525236 0.9659548998 
7.758686543 3.284785032 -2.000551224 0.9659545422 
7.054977894 4.606906414 -2.000681639 0.9659523368 
6.843193054 4.916274071 -2.000720501 0.9659516811 
6.128288269 5.783722878 -2.000850677 0.9659497142 
5.495263577 6.198600769 -1.966922998 0.9665170908 
5.031298637 6.211252213 -1.897967458 0.967671752 
4.626755238 6.262089729 -1.84871757 0.9684972763 
4.34376955 6.461884499 -1.848768592 0.9684963822 
3.445290565 6.983161449 -1.848929405 0.9684937 
3.131345034 7.129728794 -1.848985434 0.9684927464 
2.811174154 7.262185097 -1.849042416 0.9684917927 
2.15473628 7.483771801 -1.84915936 0.9684898257 
1.481149912 7.646162987 -1.849278808 0.9684878588 
0.4503320158 7.776031494 -1.849461198 0.9684848189 
0.1039819345 7.788629055 -1.849522352 0.9684837461 
-0.2426000983 7.785806656 -1.849583387 0.9684827328 
-0.5887133479 7.767559528 -1.849644423 0.9684817195 
-0.9336938262 7.73393774 -1.849704981 0.9684807062 
-1.27684319 7.684998512 -1.849765301 0.9684796929 
-1.617487788 7.620832443 -1.849825144 0.9684786797 
-3.259770393 7.077160358 -1.850111961 0.9684738517 
-4.173088074 6.580883503 -1.850270629 0.9684712291 
-4.461821079 6.388908386 -1.850320578 0.968470335 
-5.687922001 6.190351486 -1.996117473 0.9660286307 
-5.978161335 5.951613426 -2.002985716 0.9659137726 
-7.826682091 3.15046382 -2.003298283 0.9659085274 
-7.959165096 2.799230814 -2.003319979 0.9659081101 
-8.176589012 2.080783606 -2.003354788 0.9659075737 
-8.329269409 1.345839858 -2.003378153 0.9659071565 
-8.415973663 0.600214839 -2.003390074 0.9659069777 
-8.434352875 0.2252441347 -2.003391266 0.965906918 
-8.42096138 -0.5252758861 -2.003385305 0.9659070969 
-8.389233589 -0.8993481398 -2.003378153 0.9659071565 
-8.340871811 -1.271633267 -2.003367662 0.9659073949 
-8.194721222 -2.007936954 -2.003338337 0.9659078121 
-8.097208977 -2.370456457 -2.003319502 0.9659081697 
-7.983656883 -2.728271484 -2.003297806 0.9659085274 
-7.854296684 -3.080673695 -2.003273249 0.9659089446 
-7.709384441 -3.426960468 -2.003246069 0.9659093618 
-7.374052525 -4.098471642 -2.003183603 0.9659104347 
-7.184313774 -4.422370434 -2.003148794 0.9659110308 
-6.980351448 -4.737485409 -2.003111124 0.9659116268 
-6.762567997 -5.043198109 -2.003071308 0.9659123421 
-6.287294865 -5.624052525 -2.002984762 0.9659137726 
-6.030756474 -5.898024559 -2.002938271 0.9659145474 
-4.260304928 -7.278996468 -2.002619505 0.9659199119 
-3.932177544 -7.461086273 -2.002560854 0.9659208655 
-3.596281767 -7.628390789 -2.002500772 0.9659218788 
-3.253276348 -7.780576229 -2.002439499 0.9659228921 
-2.188547373 -8.14358139 -2.002250195 0.9659261107 
-1.085070729 -8.361603737 -2.002054453 0.965929389 
-0.7120190263 -8.40131855 -2.001988649 0.9659304619 
0.0374975577 -8.43079567 -2.001856327 0.9659326673 
0.4124828875 -8.420507431 -2.001790285 0.9659337997 
0.786657691 -8.393539429 -2.001724243 0.9659348726 
1.159213901 -8.349966049 -2.001658916 0.9659360051 
1.529453039 -8.289865494 -2.001593828 0.965937078 
2.260056019 -8.120602608 -2.001466036 0.9659392238 
2.618967295 -8.011781693 -2.001403093 0.965940237 
2.972670794 -7.887096882 -2.001341581 0.9659413099 
3.320471048 -7.746833324 -2.001280785 0.9659422636 
3.661674738 -7.591222763 -2.001221418 0.9659433365 
3.995622396 -7.420605183 -2.001163244 0.9659442902 
4.321638107 -7.235319614 -2.001106739 0.9659452438 
4.639079571 -7.035729885 -2.001051664 0.9659461379 
4.947340965 -6.822216511 -2.000998259 0.965947032 
6.79904747 -4.976855278 -2.000680685 0.9659523964 
7.013581276 -4.669399261 -2.000644445 0.9659529924 
7.870488167 -3.006472111 -2.000501394 0.9659553766 
7.996359825 -2.653359413 -2.00048089 0.9659556746 
8.278217316 -1.565417409 -2.000436306 0.9659563303 
8.339590073 -1.195615172 -2.000427246 0.9659565687 
8.38449192 -0.8234545588 -2.000421286 0.9659566879 
8.397836685 0.6741015315 -2.000426054 0.9659566283 
8.359581947 1.04700923 -2.000434637 0.9659564495 
8.304767609 1.417844176 -2.000446081 0.9659562707 
7.787592411 3.215588331 -2.00054574 0.9659546018 
7.636948109 3.558871984 -2.000573874 0.9659541845 
7.47119379 3.895129204 -2.000604868 0.9659536481 
7.290656567 4.223696232 -2.000638247 0.965953052 
7.095683575 4.54391098 -2.000674009 0.965952456 
6.428146839 5.448232174 -2.00079608 0.9659504294 
6.179599285 5.728920937 -2.000841379 0.965949595 
5.918723106 5.998308182 -2.000888586 0.9659488797 
5.121501446 6.208849907 -1.91108191 0.9674520493 
4.68926239 6.229943752 -1.851469994 0.9684510827 
4.111086369 6.612546444 -1.848810196 0.9684957266 
3.812975883 6.789072037 -1.848863602 0.9684948325 
3.507292509 6.952172756 -1.848918319 0.9684939384 
2.551000834 7.35781002 -1.849088907 0.9684910774 
1.549147964 7.632620811 -1.849266768 0.9684880376 
0.8646850586 7.740610123 -1.849387884 0.968486011 
0.173273921 7.787344933 -1.849510193 0.9684839845 
-0.51958251 7.772439003 -1.849632263 0.9684818983 
-1.549616694 7.634876728 -1.849813223 0.9684788585 
-1.887768507 7.55862999 -1.849872351 0.9684779048 
-2.222204447 7.467407227 -1.849930882 0.9684768915 
-2.877282619 7.240800858 -1.850045323 0.9684749842 
-3.509663105 6.95682621 -1.850155473 0.9684731364 
-5.924943924 6.00454092 -2.002976656 0.9659138918 
-6.186320782 5.735160828 -2.003021479 0.9659131765 
-7.104577541 4.549594402 -2.003177643 0.9659105539 
-7.300051212 4.229121208 -2.003210545 0.9659099579 
-7.481057167 3.900261164 -2.003240824 0.965909481 
-7.647253036 3.563664436 -2.003268719 0.9659090042 
-7.798307896 3.220000029 -2.003293514 0.965908587 
-7.933915615 2.869953632 -2.003315926 0.9659082294 
-8.053795815 2.514209032 -2.003335238 0.9659079313 
-8.432008743 0.300278306 -2.003391266 0.9659069777 
-8.437016487 -0.07510253787 -2.003390551 0.9659069777 
-8.425307274 -0.4503369033 -2.003386497 0.9659070373 
-8.396906853 -0.8246777058 -2.003379822 0.9659071565 
-8.351869583 -1.197382808 -2.003370047 0.9659073353 
-8.118010521 -2.298288584 -2.003323555 0.9659080505 
-8.007651329 -2.657106876 -2.003302336 0.9659084678 
-7.881430626 -3.01064682 -2.003278494 0.9659088254 
-7.582450867 -3.69911623 -2.003222466 0.9659097791 
-7.410263538 -4.032682896 -2.003190517 0.9659103751 
-7.223420143 -4.358254433 -2.003155947 0.9659109116 
-6.807197094 -4.982858658 -2.003079414 0.9659121633 
-5.250651836 -6.601315975 -2.002797365 0.9659169316 
-4.951655388 -6.828156471 -2.002743721 0.9659178853 
-4.642910004 -7.041474342 -2.002688169 0.9659187198 
-1.529846191 -8.292104721 -2.002133369 0.9659280181 
-0.7867456079 -8.394709587 -2.002001762 0.9659302235 
0.3375537097 -8.423898697 -2.001803398 0.9659335613 
1.084851027 -8.360012054 -2.001672029 0.9659357667 
2.547558546 -8.034813881 -2.00141573 0.9659400582 
2.902360678 -7.913305283 -2.001353741 0.9659410715 
3.251398802 -7.776130199 -2.001292944 0.9659420848 
3.593984365 -7.623559475 -2.001233101 0.9659430981 
3.929443359 -7.455922604 -2.001174927 0.9659441113 
4.576340199 -7.076747894 -2.001062632 0.9659459591 
5.186926365 -6.641662598 -2.000957012 0.9659476876 
5.477092266 -6.404191971 -2.000906944 0.9659485817 
6.024335861 -5.891765118 -2.000813007 0.9659501314 
6.523864746 -5.332785606 -2.000727654 0.9659516215 
7.53914547 -3.7614429 -2.000556231 0.9659544826 
7.972434044 -2.724438429 -2.000484705 0.965955615 
8.328622818 -1.269765615 -2.000428915 0.9659565687 
8.4084692 -0.5244945884 -2.000418425 0.9659567475 
8.42347908 -0.1499389559 -2.000417471 0.9659567475 
8.421818733 0.2249169946 -2.000419617 0.9659567475 
8.06439209 2.43896246 -2.000493288 0.9659554958 
7.948007584 2.795302629 -2.000515461 0.9659550786 
7.815893173 3.146135092 -2.000540495 0.9659546614 
7.505529404 3.828491211 -2.000598431 0.9659537673 
7.135797977 4.480586052 -2.000666857 0.9659525752 
6.709592342 5.09726572 -2.00074482 0.9659512639 
5.690422058 6.193078518 -1.996998072 0.966013968 
5.212995529 6.206381798 -1.924530149 0.9672268033 
4.769316196 6.220283031 -1.861142278 0.9682889581 
4.459394455 6.384692192 -1.849097967 0.9684897065 
3.56901598 6.920639515 -1.848907232 0.9684941173 
2.939977884 7.210900784 -1.849019527 0.9684922099 
1.954218745 7.538769245 -1.849194884 0.9684892893 
1.616977453 7.618488789 -1.849254727 0.968488276 
1.276528239 7.683127403 -1.849315166 0.9684872031 
0.9335131645 7.732554913 -1.849375844 0.9684862494 
0.5886449814 7.766690731 -1.84943676 0.9684851766 
-0.4503710866 7.776700497 -1.849619985 0.9684821367 
-2.155634642 7.486847878 -1.8499192 0.9684770703 
-2.48662591 7.383779049 -1.849977016 0.9684761167 
-2.812722206 7.266068935 -1.850033998 0.968475163 
-3.133256674 7.133966923 -1.850090027 0.9684742689 
-3.447607279 6.987734318 -1.850144625 0.9684733152 
-4.055258751 6.654037952 -1.850250244 0.9684715271 
-4.630859375 6.26761961 -1.850349784 0.9684698582 
-5.492951393 6.195964336 -1.966086984 0.9665310383 
-5.871230125 6.057013988 -2.002967596 0.9659140706 
-6.625661373 5.222004414 -2.003096342 0.965911746 
-7.063771725 4.612634182 -2.003170729 0.9659106731 
-7.262092113 4.293923378 -2.003204346 0.9659100771 
-7.446017742 3.96668458 -2.003235102 0.9659096003 
-7.615219593 3.631545305 -2.003263235 0.9659091234 
-7.769330978 3.28924799 -2.003288746 0.9659087062 
-8.031098366 2.585754395 -2.003331661 0.9659079909 
-8.229265213 1.861765146 -2.003363132 0.9659074545 
-8.362248421 1.122995615 -2.003382921 0.9659070969 
-8.429000854 0.3753222525 -2.003391266 0.9659069777 
-8.437353134 -2.441406195e-06 -2.003391027 0.9659069777 
-8.403925896 -0.7498998642 -2.003381252 0.9659070969 
-8.303923607 -1.493850112 -2.003360033 0.9659075141 
-8.229188919 -1.861743093 -2.003345251 0.9659077525 
-8.138158798 -2.225947142 -2.00332737 0.9659080505 
-7.615077972 -3.631520987 -2.003228426 0.9659097195 
-7.445881367 -3.966611147 -2.003196955 0.9659101963 
-7.261930943 -4.293830395 -2.003163099 0.9659107924 
-7.063618183 -4.612534046 -2.003126383 0.9659113884 
-6.851308346 -4.922089577 -2.003087521 0.965912044 
-6.134829044 -5.789812088 -2.002957106 0.9659142494 
-5.871061802 -6.056838036 -2.002909422 0.9659150243 
-5.012263298 -6.783847332 -2.00275445 0.9659177065 
-4.70542717 -6.999907017 -2.002699375 0.965918541 
-4.38926506 -7.202089787 -2.002642632 0.9659194946 
-3.731518507 -7.563273907 -2.002525091 0.9659214616 
-3.391281605 -7.721535683 -2.002464294 0.9659225345 
-1.970327139 -8.198949814 -2.002211332 0.9659267068 
-0.112556152 -8.430241585 -2.001882792 0.96593225 
2.115202665 -8.159646034 -2.001491308 0.9659387469 
2.475988626 -8.057221413 -2.001428127 0.9659398198 
2.831867695 -7.938857079 -2.001366138 0.9659408927 
3.526027679 -7.655285358 -2.001245022 0.9659429193 
3.862976074 -7.490632057 -2.001186371 0.9659438729 
4.513205528 -7.117240906 -2.001073599 0.9659457803 
5.701442719 -6.205085278 -2.000868559 0.9659492373 
5.97168684 -5.94519043 -2.000821829 0.9659499526 
6.476174355 -5.390664101 -2.00073576 0.9659514427 
7.135661602 -4.480456352 -2.000623941 0.9659532905 
7.815768719 -3.146081448 -2.000510454 0.9659551978 
7.947890282 -2.795263529 -2.000488758 0.965955615 
8.064293861 -2.438920736 -2.000469923 0.9659559131 
8.316999435 -1.34385252 -2.000430584 0.9659565687 
8.368522644 -0.9725512266 -2.000423193 0.9659566283 
8.403473854 -0.5993236899 -2.000418901 0.9659567475 
8.421818733 -0.224912107 -2.000417471 0.9659567475 
8.423485756 0.1499413997 -2.000418901 0.9659567475 
8.408495903 0.5245043635 -2.000423431 0.9659566879 
8.376879692 0.8980224133 -2.000430822 0.9659565091 
8.328674316 1.269814372 -2.000441074 0.9659563303 
8.263986588 1.639055133 -2.000454187 0.9659561515 
8.182966232 2.005065918 -2.000470161 0.9659558535 
7.972548485 2.724472523 -2.000510931 0.9659551382 
7.843554497 3.076459885 -2.00053525 0.9659547806 
7.69903326 3.422373056 -2.000562429 0.9659543633 
7.539281845 3.761516094 -2.000592232 0.9659538865 
7.175365925 4.416874886 -2.000659466 0.9659526944 
6.524086952 5.332917213 -2.000778675 0.9659506083 
6.024511814 5.891928673 -2.000869513 0.9659491777 
5.756594181 6.154240608 -2.000917912 0.9659484029 
4.854392052 6.215890884 -1.872678995 0.968095541 
4.514602184 6.343532562 -1.848737717 0.9684969187 
3.933146954 6.720056057 -1.848842144 0.9684951901 
3.630432129 6.888571739 -1.848896265 0.9684942961 
3.320505381 7.043457031 -1.848951697 0.9684933424 
3.003991604 7.184411526 -1.849008083 0.9684923887 
2.681516171 7.311157227 -1.849065661 0.9684914351 
2.353713274 7.42343998 -1.849123955 0.9684904218 
1.344855905 7.671409607 -1.849302888 0.9684874415 
0.3118652403 7.782919884 -1.849485755 0.9684844017 
-0.3811303675 7.780356407 -1.849607825 0.9684823155 
-1.071247578 7.716193676 -1.8497293 0.968480289 
-1.413474083 7.661150932 -1.849789262 0.9684792757 
-2.088920832 7.505685806 -1.849907637 0.9684773088 
-2.747919798 7.290773869 -1.850022674 0.9684753418 
-3.069611788 7.161538124 -1.850078821 0.9684743881 
-4.28959465 6.505644321 -1.850290775 0.9684708714 
-4.574870586 6.308557034 -1.850340128 0.968470037 
-6.083212852 5.844299316 -2.003003836 0.9659134746 
-6.578849792 5.280725002 -2.003088474 0.965912044 
-6.807380199 4.982946873 -2.003127337 0.9659113884 
-7.223574162 4.358344555 -2.00319767 0.9659101963 
-7.881540298 3.010685921 -2.003307343 0.9659084082 
-8.007748604 2.65714097 -2.003327847 0.9659080505 
-8.118087769 2.298308134 -2.00334549 0.9659077525 
-8.212353706 1.934936523 -2.00336051 0.9659075141 
-8.437016487 0.07506591827 -2.003391027 0.9659069777 
-8.431991577 -0.3003149331 -2.003388405 0.9659070373 
-8.410263062 -0.6751000881 -2.003382921 0.9659070969 
-8.371871948 -1.048547387 -2.003374338 0.9659072757 
-8.15764904 -2.153454542 -2.003331184 0.9659079909 
-7.798185825 -3.219951153 -2.003262758 0.9659091234 
-7.480917931 -3.900190353 -2.00320363 0.9659100771 
-6.671679497 -5.162714958 -2.003054857 0.9659126401 
-5.651642799 -6.26184082 -2.002869606 0.9659157395 
-5.367353439 -6.506889343 -2.002818346 0.965916574 
-5.072460651 -6.739023209 -2.002765417 0.9659174681 
-3.798718214 -7.529804707 -2.002536774 0.9659212828 
-3.459894896 -7.691088676 -2.002476454 0.965922296 
-3.11425519 -7.837150574 -2.002414703 0.9659233093 
-2.762463331 -7.967670918 -2.002351999 0.9659243822 
-2.043237209 -8.181142807 -2.002224445 0.965926528 
-1.307929635 -8.329821587 -2.00209403 0.9659287333 
0.9359057546 -8.378100395 -2.001698017 0.9659353495 
1.676735759 -8.2612257 -2.001568079 0.9659374952 
2.40418458 -8.078996658 -2.001440763 0.9659395814 
3.112529278 -7.832849026 -2.001317024 0.9659417272 
3.457770824 -7.686410904 -2.001256704 0.9659427404 
4.127009392 -7.348234653 -2.001140594 0.9659447074 
4.449682713 -7.157182693 -2.001084566 0.9659456015 
4.763520241 -6.951967716 -2.001030207 0.9659464955 
5.067910194 -6.733017445 -2.000977516 0.9659473896 
5.918576717 -5.998105526 -2.000831127 0.9659498334 
6.179372311 -5.728786469 -2.000786304 0.9659506083 
6.886491776 -4.855024338 -2.000665903 0.9659526348 
7.095498085 -4.543835163 -2.000630617 0.9659532309 
7.471074104 -3.895021915 -2.000567436 0.9659542441 
7.63682127 -3.558808565 -2.00053978 0.965954721 
7.92271471 -2.865905762 -2.000492811 0.9659554958 
8.145932198 -2.150363684 -2.00045681 0.9659560919 
8.304717064 -1.417834401 -2.000432491 0.9659565091 
8.419477463 -0.2998315394 -2.000417471 0.9659567475 
8.424479485 0.07495605201 -2.000418425 0.9659567475 
8.412826538 0.449672848 -2.000422239 0.9659566879 
8.384518623 0.823425293 -2.000428915 0.9659565687 
8.200478554 1.932143569 -2.000466824 0.9659559131 
7.870588303 3.006550312 -2.000530243 0.9659548998 
7.572438717 3.694284678 -2.000586033 0.9659539461 
7.013735294 4.669511795 -2.000689268 0.9659522176 
6.571225643 5.274614334 -2.000770092 0.9659508467 
6.076682091 5.838044167 -2.000859976 0.9659493566 
5.811096191 6.102751255 -2.000907898 0.9659485221 
5.399863243 6.201254845 -1.952444315 0.9667594433 
4.570890903 6.303039551 -1.848727703 0.9684970975 
4.286088943 6.500324726 -1.848778844 0.9684962034 
3.992758751 6.684758186 -1.848831415 0.968495369 
3.691586733 6.855942249 -1.848885298 0.9684944153 
3.067807436 7.157343388 -1.848996878 0.9684925675 
2.746440411 7.286967754 -1.849054098 0.9684916139 
2.088044405 7.502705097 -1.849171042 0.9684896469 
0.3811303675 7.779788494 -1.849473357 0.9684845805 
0.03465087712 7.789298058 -1.849534512 0.9684835672 
-0.3118627965 7.783388615 -1.849595547 0.9684824944 
-1.345214844 7.673377514 -1.849777341 0.9684794545 
-2.022016525 7.523935318 -1.849895835 0.9684774876 
-2.354816914 7.426757812 -1.849954009 0.9684765339 
-2.682902813 7.314894676 -1.850011349 0.9684755802 
-3.00574708 7.188515663 -1.850067735 0.9684746265 
-3.93612051 6.725102425 -1.850229502 0.9684718847 
-4.231528282 6.543512821 -1.850280762 0.9684710503 
-4.85260725 6.213556767 -1.871980071 0.9681072235 
-5.76245594 6.160492897 -2.002948761 0.9659143686 
-6.030908108 5.898215294 -2.002994776 0.9659135938 
-6.531584263 5.339030743 -2.003080368 0.9659121633 
-6.762734413 5.043324947 -2.003119707 0.9659115076 
-6.980534554 4.737560749 -2.003156662 0.965910852 
-7.374218464 4.098520279 -2.003223181 0.9659097791 
-7.854413986 3.080712795 -2.003302813 0.9659084678 
-7.983774185 2.728271484 -2.003324032 0.9659081101 
-8.276049614 1.641445279 -2.003370285 0.9659073353 
-8.340920448 1.271643043 -2.003379822 0.9659071565 
-8.420981407 0.5252783298 -2.003390551 0.9659069777 
-8.436015129 0.1502001882 -2.003391266 0.9659069777 
-8.41594696 -0.6002489924 -2.003384113 0.9659070969 
-8.380883217 -0.9739843607 -2.003376245 0.9659072161 
-8.329206467 -1.345861793 -2.003365278 0.9659073949 
-8.176501274 -2.080800772 -2.003334999 0.9659079313 
-8.075780869 -2.442397356 -2.003315449 0.9659082294 
-7.959037781 -2.799221039 -2.003293037 0.9659086466 
-7.678554535 -3.495434523 -2.003240347 0.965909481 
-7.515356064 -3.833456993 -2.003209829 0.9659100175 
-7.337248325 -4.163930416 -2.003176928 0.9659106135 
-6.483583927 -5.396823406 -2.003020525 0.9659131765 
-5.707162857 -6.211345196 -2.002879858 0.9659155607 
-5.42509985 -6.458884239 -2.002828836 0.9659163952 
-5.132250786 -6.693666935 -2.002775908 0.9659172893 
-4.516769886 -7.122927189 -2.00266552 0.965919137 
-4.195353985 -7.316574574 -2.002607822 0.9659200907 
-3.528249502 -7.660043716 -2.002488613 0.9659220576 
-2.833291054 -7.942817211 -2.002364874 0.9659241438 
-2.1159935 -8.162685394 -2.002237082 0.9659262896 
-1.382033706 -8.317905426 -2.002107143 0.9659284949 
-1.010588408 -8.370876312 -2.00204134 0.9659295678 
-0.262575686 -8.427008629 -2.001909256 0.9659318328 
0.1125805676 -8.430068016 -2.001842976 0.9659329057 
1.233449697 -8.339267731 -2.001645803 0.9659361839 
1.969628811 -8.196110725 -2.001516819 0.9659383297 
2.332231283 -8.100114822 -2.0014534 0.9659394026 
2.690112352 -7.988114834 -2.001390696 0.9659404755 
3.729081869 -7.558290958 -2.001209736 0.9659435153 
4.385864258 -7.19652319 -2.001095533 0.965945363 
4.701477051 -6.99413538 -2.001040936 0.9659463167 
5.007843971 -6.777878284 -2.000988007 0.9659472108 
5.304225922 -6.548254013 -2.000936747 0.9659480453 
5.590153694 -6.305634499 -2.000887632 0.9659488797 
5.864997387 -6.050563812 -2.000840187 0.9659497142 
6.128185749 -5.783564091 -2.000795126 0.9659504294 
6.379279613 -5.505090237 -2.000752211 0.9659511447 
6.843046665 -4.916118145 -2.000673294 0.9659525156 
7.054819107 -4.606796741 -2.000637531 0.9659531116 
7.252665997 -4.28831768 -2.000604153 0.9659536481 
8.019623756 -2.582106829 -2.000477076 0.9659557939 
8.291779518 -1.491662621 -2.000434399 0.9659565091 
8.34988308 -1.121367216 -2.000425816 0.9659566283 
8.391484261 -0.748789072 -2.000420332 0.9659566879 
8.416481972 -0.3747314513 -2.000417709 0.9659567475 
8.416491508 0.3748046756 -2.000421286 0.9659566879 
8.391513824 0.7487963438 -2.000427485 0.9659565687 
8.291835785 1.491679668 -2.000448465 0.9659562707 
8.12664032 2.222792864 -2.000481129 0.9659554362 
7.605004787 3.626691818 -2.000579834 0.9659540653 
7.054977894 4.606906414 -2.000681639 0.9659523368 
6.843214989 4.916244984 -2.000720501 0.9659516811 
6.617863655 5.215918064 -2.000761509 0.9659510255 
6.128288269 5.783722878 -2.000850677 0.9659497142 
5.865129471 6.05078125 -2.000898123 0.9659487009 
5.495263577 6.198600769 -1.966922998 0.9665170908 
5.03125 6.211254597 -1.897961259 0.9676718712 
4.626755238 6.262089729 -1.84871757 0.9684972763 
4.052119255 6.648900986 -1.848820806 0.9684955478 
3.445322275 6.983149052 -1.848929405 0.9684937 
2.485427141 7.380280495 -1.84910059 0.968490839 
2.154763222 7.483764648 -1.84915936 0.9684898257 
1.481188893 7.64615345 -1.849278808 0.9684878588 
1.139597178 7.704723835 -1.849339366 0.9684868455 
0.4503320158 7.776031494 -1.849461198 0.9684848189 
-0.588747561 7.767559528 -1.849644423 0.9684817195 
-0.9336938262 7.73393774 -1.849704981 0.9684807062 
-1.617487788 7.620832443 -1.849825144 0.9684786797 
-2.617697716 7.338427544 -1.849999905 0.968475759 
-2.941601515 7.214953423 -1.850056529 0.9684748054 
-3.259770393 7.077160358 -1.850111961 0.9684738517 
-3.571437836 6.92537117 -1.850166082 0.9684729576 
-3.876105785 6.759814262 -1.850219131 0.9684720635 
-4.76874733 6.219465256 -1.860903859 0.968292892 
-5.210907936 6.203876972 -1.923752904 0.9672397971 
-5.687968731 6.190349102 -1.996124983 0.9660285115 
-6.237148285 5.67989254 -2.0030303 0.9659129977 
-6.717570782 5.103271484 -2.003112078 0.9659116268 
-7.337402344 4.164016247 -2.003216743 0.9659098983 
-7.515500546 3.833525419 -2.003246784 0.9659093618 
-7.678674221 3.495495558 -2.003273964 0.9659089446 
-7.826682091 3.15046382 -2.003298283 0.9659085274 
-8.075873375 2.442426682 -2.003338814 0.9659078717 
-8.176609039 2.080751896 -2.003354788 0.9659075737 
-8.380922318 0.9739892483 -2.003385544 0.9659070969 
-8.415973663 0.6001781821 -2.003390074 0.9659069777 
-8.436008453 -0.1501977444 -2.003389835 0.9659069777 
-8.340871811 -1.271633267 -2.003367662 0.9659073949 
-8.194731712 -2.007900238 -2.003338337 0.9659078121 
-7.709399223 -3.42692852 -2.003246069 0.9659093618 
-7.374040127 -4.098503113 -2.003183603 0.9659104347 
-6.762567997 -5.043198109 -2.003071308 0.9659123421 
-5.762272835 -6.160302639 -2.002889633 0.9659153819 
-5.482375145 -6.410400391 -2.002839088 0.9659162164 
-5.191681862 -6.647727013 -2.002786875 0.9659171104 
-4.260304928 -7.278996468 -2.002619505 0.9659199119 
-3.253310442 -7.780563831 -2.002439499 0.9659228921 
-2.90385747 -7.917343616 -2.002377272 0.965923965 
-2.188547373 -8.14358139 -2.002250195 0.9659261107 
-1.824030757 -8.232622147 -2.002185583 0.9659271836 
-0.7120190263 -8.40131855 -2.001988649 0.9659304619 
0.4125195146 -8.420500755 -2.001790285 0.9659337997 
0.7866137624 -8.393545151 -2.001724243 0.9659348726 
1.529416442 -8.289870262 -2.001593828 0.965937078 
2.972631693 -7.887118816 -2.001341581 0.9659413099 
4.639079571 -7.035729885 -2.001051664 0.9659461379 
5.245780945 -6.59521246 -2.000946999 0.965947926 
5.533852577 -6.35516119 -2.000897169 0.9659487009 
7.214208603 -4.352748871 -2.00061059 0.9659535289 
7.729045391 -3.353637695 -2.000524521 0.9659549594 
7.870502949 -3.006438017 -2.000501394 0.9659553766 
8.106406212 -2.294975519 -2.000463247 0.9659559727 
8.200400352 -1.932119131 -2.000448227 0.9659562707 
8.278220177 -1.565378428 -2.000436306 0.9659563303 
8.339590073 -1.195615172 -2.000427246 0.9659565687 
8.384494781 -0.8234204054 -2.000421286 0.9659566879 
8.419485092 0.2998339832 -2.000420332 0.9659567475 
8.304767609 1.417844176 -2.000446081 0.9659562707 
8.23354435 1.785849571 -2.000460386 0.9659560323 
8.146018028 2.150390625 -2.000477552 0.9659557343 
8.04238987 2.510612726 -2.00049758 0.9659554362 
7.787582874 3.215615273 -2.00054574 0.9659546018 
7.290656567 4.223696232 -2.000638247 0.965953052 
7.095659256 4.543942928 -2.000674009 0.965952456 
6.66397953 5.156806469 -2.000753164 0.9659511447 
5.592094421 6.195878983 -1.981768727 0.9662686586 
5.121550083 6.208847523 -1.911088109 0.96745193 
4.401079178 6.422929764 -1.848758221 0.9684965611 
3.507292509 6.952172756 -1.848918319 0.9684939384 
2.875693321 7.236825943 -1.849030972 0.9684920311 
1.549147964 7.632620811 -1.849266768 0.9684880376 
0.1733032167 7.787344933 -1.849510193 0.9684839845 
-0.1733178645 7.78759861 -1.849571228 0.9684829712 
-0.5195507407 7.772442341 -1.849632263 0.9684818983 
-0.8648412824 7.741885662 -1.849692941 0.968480885 
-1.208376408 7.69601059 -1.849753261 0.9684798717 
-1.549616694 7.634876728 -1.849813223 0.9684788585 
-2.877282619 7.240800858 -1.850045323 0.9684749842 
-3.815793276 6.793998718 -1.85020864 0.9684722424 
-4.114321232 6.617731571 -1.850260377 0.9684713483 
-4.404777527 6.428322792 -1.850310802 0.9684705138 
-4.688679218 6.229143143 -1.851233125 0.9684550762 
-5.119533539 6.206384182 -1.910330415 0.9674646258 
-5.924943924 6.00454092 -2.002976656 0.9659138918 
-6.43545866 5.454416275 -2.003064156 0.9659124017 
-6.671835899 5.162873268 -2.003104448 0.965911746 
-6.895039082 4.861037254 -2.003142118 0.96591115 
-7.647253036 3.563664436 -2.003268719 0.9659090042 
-7.933915615 2.869953632 -2.003315926 0.9659082294 
-8.157741547 2.153481483 -2.003351927 0.9659076333 
-8.245517731 1.788437486 -2.003365517 0.9659073949 
-8.432008743 0.300278306 -2.003391266 0.9659069777 
-8.437011719 -0.07506835461 -2.003390551 0.9659069777 
-8.425307274 -0.4503369033 -2.003386497 0.9659070373 
-8.39690876 -0.8246411085 -2.003379822 0.9659071565 
-8.290275574 -1.567739248 -2.00335741 0.9659075737 
-8.212282181 -1.934916973 -2.003341913 0.9659077525 
-8.007651329 -2.657106876 -2.003302336 0.9659084678 
-7.739596844 -3.358207941 -2.003251791 0.9659093022 
-7.582431316 -3.69914794 -2.003222466 0.9659097791 
-7.410263538 -4.032682896 -2.003190517 0.9659103751 
-7.022267818 -4.675180435 -2.003118992 0.9659115076 
-6.578691483 -5.280590534 -2.00303793 0.9659128785 
-6.337111473 -5.567917347 -2.002993822 0.9659135938 
-6.083044529 -5.844138145 -2.002947807 0.9659143686 
-5.816884518 -6.108830452 -2.002899647 0.9659152031 
-5.250651836 -6.601315975 -2.002797365 0.9659169316 
-4.951618671 -6.82818079 -2.002743721 0.9659178853 
-4.324923992 -7.240847111 -2.002631187 0.965919733 
-3.66403079 -7.596137524 -2.002512932 0.9659217 
-2.620185375 -8.015471458 -2.002326965 0.9659247994 
-1.529846191 -8.292104721 -2.002133369 0.9659280181 
-0.4125585854 -8.421115875 -2.00193572 0.965931356 
-0.03750976548 -8.430849075 -2.00186944 0.9659324884 
0.3375146389 -8.423898697 -2.001803398 0.9659335613 
0.7119238377 -8.400268555 -2.001737356 0.9659346342 
1.08488524 -8.360009193 -2.001672029 0.9659357071 
1.455615163 -8.303210258 -2.001606941 0.9659368396 
1.823500991 -8.229958534 -2.00154233 0.9659379125 
2.187695265 -8.140441895 -2.001478672 0.965939045 
2.902360678 -7.913305283 -2.001353741 0.9659410715 
3.929470062 -7.455905437 -2.001174927 0.9659441113 
4.257089615 -7.273537636 -2.001117945 0.965945065 
4.576340199 -7.076747894 -2.001062632 0.9659459591 
5.186926365 -6.641662598 -2.000957012 0.9659476876 
5.477082253 -6.40420866 -2.000906944 0.9659485817 
5.756422997 -6.154059887 -2.000859022 0.9659493566 
6.024303913 -5.891791821 -2.000813007 0.965950191 
6.280322075 -5.617834568 -2.000769138 0.9659508467 
6.523896217 -5.332756042 -2.000727654 0.9659515619 
6.971774578 -4.731635571 -2.000651598 0.9659528732 
7.175212383 -4.416777134 -2.000617266 0.9659534097 
7.53914547 -3.7614429 -2.000556231 0.9659544826 
7.972448349 -2.724401712 -2.000484705 0.965955615 
8.085663795 -2.367077589 -2.000466347 0.9659559131 
8.182902336 -2.005007267 -2.000451088 0.9659562111 
8.328622818 -1.269765615 -2.000428915 0.9659565687 
8.423483849 -0.149975583 -2.000417471 0.9659567475 
8.421818733 0.2249169946 -2.000419617 0.9659567475 
8.317048073 1.343901396 -2.000443459 0.9659563303 
8.164818764 2.077824593 -2.000473976 0.9659557939 
8.06439209 2.43896246 -2.000493288 0.9659554958 
7.947985649 2.79534173 -2.000515461 0.9659551382 
7.815893173 3.146135092 -2.000540495 0.9659546614 
7.32791996 4.158647537 -2.000631332 0.9659531713 
7.135817528 4.480554104 -2.000666857 0.9659525752 
6.929553032 4.793662071 -2.000704527 0.9659519792 
6.709611893 5.097243309 -2.00074482 0.9659512639 
6.476342678 5.390808105 -2.000787258 0.9659505486 
5.690349102 6.193078518 -1.996991038 0.9660141468 
4.769277096 6.220285416 -1.861137748 0.9682890177 
4.459394455 6.384692192 -1.849097967 0.9684897065 
4.169736385 6.575668812 -1.848799706 0.9684959054 
3.873232365 6.754821777 -1.848852754 0.9684950113 
3.25772953 7.072763443 -1.848962784 0.9684931636 
2.616384268 7.334767818 -1.849077225 0.9684912562 
1.616977453 7.618488789 -1.849254727 0.968488276 
0.5886865258 7.766686916 -1.84943676 0.9684851766 
-0.4503710866 7.776700497 -1.849619985 0.9684821367 
-1.481616139 7.648316383 -1.849801183 0.9684790373 
-2.155666351 7.486838341 -1.8499192 0.9684770703 
-2.48662591 7.383779049 -1.849977016 0.9684761167 
-3.447607279 6.987734318 -1.850144625 0.9684733152 
-4.055258751 6.654037952 -1.850250244 0.9684715271 
-4.347336292 6.467257977 -1.85030067 0.9684706926 
-5.029316425 6.208837986 -1.897223592 0.9676841497 
-6.134997368 5.789980412 -2.003012657 0.9659132957 
-7.446017742 3.96668458 -2.003235102 0.9659096003 
-7.769318581 3.289277315 -2.003288746 0.9659087062 
-8.031084061 2.585793495 -2.003331661 0.9659079909 
-8.40394783 0.7499047518 -2.003388405 0.9659070373 
-8.106659889 0 -2.003332376 0.9671496153 
-8.034450531 -1.078981876 -2.003314734 0.9671499133 
-7.978459358 -1.435310006 -2.003303051 0.9671500921 
-7.819194317 -2.138715744 -2.00327158 0.967150569 
-7.597990513 -2.825156212 -2.00322938 0.9671512842 
-7.464709282 -3.160302639 -2.003204107 0.9671517015 
-7.316640377 -3.489181995 -2.003176451 0.9671521187 
-7.154079437 -3.811142445 -2.00314641 0.9671525955 
-6.977334023 -4.125544548 -2.003113747 0.9671531916 
-6.786801815 -4.431767464 -2.003078461 0.9671536684 
-6.582814693 -4.729189396 -2.003041267 0.9671543241 
-6.1361866 -5.295334339 -2.002959728 0.9671556354 
-5.89442873 -5.562934399 -2.002915859 0.9671563506 
-5.640995979 -5.819497108 -2.002870083 0.9671570659 
-4.815881252 -6.51804924 -2.002721071 0.9671595097 
-3.585344076 -7.266940594 -2.002500534 0.9671630859 
-2.925097704 -7.556406021 -2.002382755 0.9671649337 
-2.58598876 -7.678811073 -2.002322435 0.967165947 
-1.185402751 -8.014355659 -2.002074003 0.9671699405 
-0.8276977539 -8.058900833 -2.002010584 0.9671709538 
-0.4683740139 -8.087487221 -2.001947165 0.967171967 
-0.1081494093 -8.100063324 -2.001883507 0.9671729803 
0.2522778213 -8.096593857 -2.001820087 0.9671740532 
0.6121752858 -8.0770998 -2.001756668 0.9671750665 
1.32755363 -7.990221977 -2.001631021 0.967177093 
2.720964193 -7.628000259 -2.001386881 0.9671810269 
3.057497501 -7.499194145 -2.001328468 0.9671819806 
3.387968779 -7.355549335 -2.001270771 0.9671828747 
3.711711407 -7.1973629 -2.001214504 0.9671837687 
4.336486816 -6.838603497 -2.001106024 0.9671855569 
4.636269569 -6.638772011 -2.001054287 0.9671863914 
5.207722187 -6.200114727 -2.000955343 0.9671880007 
5.986217976 -5.451430321 -2.000821829 0.9671901464 
6.222670555 -5.179643631 -2.000781298 0.9671908021 
6.446804047 -4.897609711 -2.000743151 0.9671913981 
6.658168793 -4.605903149 -2.000707388 0.9671919942 
6.856349945 -4.305095196 -2.000674009 0.9671925306 
7.368031979 -3.354064941 -2.000588179 0.9671939015 
7.845173359 -1.996445298 -2.000510693 0.9671951532 
8.040986061 -0.9344848394 -2.000481129 0.9671956301 
8.092189789 -0.2161010653 -2.000475645 0.9671957493 
8.093806267 0.1440820247 -2.000477076 0.9671956897 
8.04901123 0.8628930449 -2.000488281 0.9671955109 
8.002699852 1.220097661 -2.000498295 0.9671953321 
7.862697601 1.926569819 -2.000526428 0.9671949148 
7.660500526 2.617829561 -2.00056529 0.9671942592 
7.536552429 2.956042528 -2.000588894 0.9671939015 
7.39769268 3.288410664 -2.000614882 0.9671934843 
7.07635498 3.933017492 -2.000674486 0.9671925306 
6.699010849 4.546555042 -2.000744104 0.9671913981 
6.49025631 4.840144157 -2.000782251 0.9671908021 
5.262834549 6.153669357 -2.001004934 0.9671871662 
4.843962193 6.202526569 -1.94482708 0.9680935144 
4.422123909 6.213559628 -1.884678602 0.9690648913 
2.886379242 6.903095722 -1.849027514 0.9696410894 
1.618737698 7.305971622 -1.849253058 0.9696374536 
1.292182565 7.370981216 -1.849310875 0.9696364999 
0.9630468488 7.421396255 -1.849369168 0.9696355462 
0.2996508777 7.478097916 -1.849486351 0.9696336389 
-0.3662158251 7.475610256 -1.849603653 0.9696317315 
-2.007082462 7.21165514 -1.849891782 0.9696270823 
-2.325961828 7.115441799 -1.849947453 0.9696262479 
-3.252614737 6.743144512 -1.8501091 0.9696235657 
-4.121525764 6.250734806 -1.850260019 0.9696211219 
-4.502885818 6.209294319 -1.89546442 0.9688906074 
-4.929697037 6.197785378 -1.957020402 0.9678966999 
-6.088947773 5.349848747 -2.003002405 0.9671549201 
-6.940465927 4.187546253 -2.003147125 0.9671525955 
-7.285405159 3.554211378 -2.003204823 0.9671516418 
-7.436388969 3.226650238 -2.003229856 0.9671512842 
-7.693901062 2.552993059 -2.003272057 0.967150569 
-7.79991436 2.208232403 -2.003288984 0.9671503305 
-7.890480995 1.859094143 -2.003303289 0.9671500921 
-8.024570465 1.150441885 -2.003323555 0.9671497345 
-8.067829132 0.7923437357 -2.003329515 0.9671496749 
-8.095099449 0.4326733351 -2.003332615 0.9671496153 
-8.106329918 0.0721411109 -2.003332853 0.9671496153 
-8.101511002 -0.2885302603 -2.003330231 0.9671496153 
-7.62285614 -2.757431507 -2.003234148 0.9671512246 
-7.492563248 -3.093752384 -2.003209591 0.9671515822 
-7.34742403 -3.423942804 -2.003182411 0.9671519995 
-6.825993538 -4.371205807 -2.003085852 0.9671536088 
-6.624667645 -4.670439243 -2.003048897 0.9671542048 
-4.873705864 -6.474960804 -2.002731562 0.9671593904 
-4.580747128 -6.685180664 -2.002678871 0.9671601653 
-3.968225002 -7.065465927 -2.00256896 0.9671619534 
-3.649892569 -7.234789848 -2.002512217 0.9671628475 
-3.324347973 -7.389775276 -2.002454042 0.9671638012 
-2.654238224 -7.655539513 -2.002334595 0.9671657085 
-2.31099844 -7.765798092 -2.00227356 0.9671667218 
-1.963198185 -7.860663891 -2.002211809 0.9671677351 
-1.611525893 -7.939970493 -2.002149343 0.9671686888 
-1.256694317 -8.003541946 -2.002086401 0.9671697617 
-0.8993920684 -8.051269531 -2.00202322 0.9671707749 
-0.1802246124 -8.098828316 -2.001896381 0.9671728015 
0.1802148372 -8.098571777 -2.001832724 0.9671738148 
0.8992358446 -8.04999733 -2.001706123 0.9671758413 
1.962509751 -7.857946396 -2.00151968 0.9671788812 
2.310043812 -7.762636662 -2.001458883 0.9671798348 
2.652983427 -7.651962757 -2.001398802 0.9671808481 
2.990658998 -7.526154518 -2.001339912 0.9671818018 
3.647521973 -7.230151176 -2.001225471 0.9671836495 
3.965429544 -7.060536861 -2.001170397 0.9671845436 
4.577035904 -6.679792404 -2.001064301 0.9671862125 
4.86952877 -6.469411373 -2.001013756 0.967187047 
5.152368069 -6.246242523 -2.000965118 0.9671878219 
5.424992561 -6.010722637 -2.00091815 0.9671885967 
5.937494755 -5.504514217 -2.000830173 0.9671900272 
6.176379204 -5.234836102 -2.000789404 0.9671906233 
6.402987957 -4.954806805 -2.00075078 0.9671912789 
6.616928577 -4.664995193 -2.000714302 0.967191875 
6.817790508 -4.365959167 -2.000680447 0.9671924114 
7.178625107 -3.74259758 -2.00061965 0.9671934247 
7.33791256 -3.419511557 -2.000593185 0.9671938419 
7.482675552 -3.089682579 -2.000569344 0.9671941996 
7.827109337 -2.066191435 -2.000513554 0.9671950936 
7.911222935 -1.715954542 -2.000500202 0.9671953321 
7.979670048 -1.362321734 -2.00048995 0.9671955705 
8.069137573 -0.6477001905 -2.000477552 0.9671956897 
8.089945793 -0.2881152332 -2.000475645 0.9671957493 
7.426642895 3.222436428 -2.000609398 0.9671935439 
7.276040077 3.549655676 -2.000637531 0.9671931267 
7.111056805 3.86986804 -2.000668049 0.9671925902 
6.931984901 4.18243885 -2.000701189 0.9671920538 
6.739177227 4.486742973 -2.000736713 0.9671915174 
6.533053875 4.782170296 -2.000774384 0.9671909213 
6.313984394 5.06814909 -2.000814438 0.9671902657 
6.082417011 5.344118595 -2.000856638 0.9671895504 
5.583605766 5.863835335 -2.000946999 0.9671881199 
5.317368031 6.106559753 -2.000995159 0.967187345 
4.931567192 6.200151443 -1.957767725 0.9678846598 
4.504433632 6.211462498 -1.896125913 0.9688799381 
3.836464643 6.423019886 -1.848857641 0.9696438313 
2.947678089 6.877094746 -1.849016666 0.9696412683 
1.35771966 7.359147549 -1.849299312 0.9696366787 
0.6983202696 7.451157093 -1.849415898 0.969634831 
0.366179198 7.475087643 -1.849474549 0.9696338773 
-0.963244617 7.422758579 -1.849708676 0.9696300626 
-1.292509794 7.372792721 -1.849766493 0.9696291685 
-1.619255304 7.308227539 -1.849823833 0.9696282148 
-1.942814946 7.229184628 -1.849880457 0.9696272612 
-2.577802658 7.028325081 -1.849991441 0.969625473 
-3.781911612 6.461594105 -1.850201011 0.9696220756 
-4.842158318 6.200200081 -1.944098115 0.9681052566 
-5.79458952 5.667060375 -2.002952099 0.9671557546 
-6.041071415 5.403813362 -2.002994299 0.9671550393 
-6.902907372 4.249140739 -2.003140688 0.9671527147 
-7.407355785 3.292695284 -2.003225088 0.9671513438 
-7.779936314 2.277556181 -2.003285885 0.9671503901 
-7.951691628 1.57709229 -2.003312826 0.9671499133 
-8.060451508 0.8641088605 -2.003328562 0.9671496749 
-8.090934753 0.5046972632 -2.003332138 0.9671496153 
-8.105368614 0.1442895532 -2.003332853 0.9671496153 
-8.00275898 -1.293078542 -2.003308058 0.9671500325 
-7.937263012 -1.647775888 -2.003294706 0.9671502113 
-7.856051922 -1.999216318 -2.003278732 0.9671504498 
-7.647111416 -2.689492226 -2.003238678 0.9671511054 
-7.519816875 -3.026957989 -2.003214598 0.9671515226 
-7.37762928 -3.358427763 -2.003187895 0.9671519399 
-7.049714088 -4.000734806 -2.003127098 0.9671528935 
-6.864655495 -4.310297966 -2.003093004 0.9671534896 
-6.665996075 -4.611313343 -2.003056526 0.9671540856 
-5.743742466 -5.718220234 -2.00288868 0.9671567678 
-4.931193829 -6.431376934 -2.002741814 0.9671590924 
-4.640078068 -6.64417696 -2.002689362 0.9671600461 
-4.339814186 -6.843830585 -2.002635717 0.9671608806 
-3.714159966 -7.202060223 -2.002523661 0.9671626687 
-3.059165001 -7.503237247 -2.002406836 0.9671645761 
-2.722280264 -7.631659985 -2.002346754 0.9671655297 
-2.033083439 -7.842929363 -2.002224207 0.9671674967 
-0.9710156322 -8.043003082 -2.002035856 0.9671705365 
-0.2522900403 -8.096955299 -2.001909018 0.9671726227 
0.4683300555 -8.086818695 -2.00178194 0.9671746492 
0.8275634646 -8.05772686 -2.00171876 0.9671756625 
1.540368676 -7.951791763 -2.00159359 0.9671776891 
1.892504811 -7.875151157 -2.001531839 0.9671787024 
2.584797382 -7.675314903 -2.001410723 0.9671806693 
3.256560087 -7.414770126 -2.001293659 0.9671825171 
3.583066225 -7.262358189 -2.001236916 0.9671834707 
4.21412611 -6.91478014 -2.001127243 0.9671851993 
4.517441273 -6.720293045 -2.001074553 0.9671860337 
5.096586704 -6.291884422 -2.000974655 0.9671877027 
6.358662128 -5.01161623 -2.00075841 0.9671911597 
6.575178146 -4.723703384 -2.000721455 0.9671917558 
6.778678894 -4.426469803 -2.000687122 0.9671923518 
6.968761921 -4.120485783 -2.000654936 0.9671928287 
7.307211876 -3.484687328 -2.000598431 0.9671937227 
7.454897404 -3.156144857 -2.000573874 0.96719414 
8.087059975 -0.3600952029 -2.000475883 0.9671957493 
8.095080376 0 -2.000476122 0.9671957493 
8.08708477 0.3601025343 -2.000479221 0.9671956301 
8.063080788 0.719497025 -2.000485182 0.9671955705 
7.895722389 1.786313415 -2.000519753 0.9671949744 
7.455002308 3.156203508 -2.000604153 0.9671936631 
6.968903542 4.120571136 -2.000694275 0.967192173 
6.778820515 4.426572323 -2.000729561 0.9671916366 
6.575329304 4.723820686 -2.000766754 0.9671910405 
6.129702091 5.289753437 -2.000848055 0.9671897292 
5.888454437 5.557312012 -2.000891924 0.967189014 
5.635576248 5.813884258 -2.0009377 0.9671881795 
5.020327091 6.197719574 -1.971029043 0.9676706791 
4.587756157 6.209306717 -1.907858491 0.968690455 
3.893449545 6.38858366 -1.848847628 0.9696440101 
3.605502844 6.555644512 -1.848899007 0.9696431756 
3.31040287 6.709731102 -1.848951817 0.9696423411 
3.008744955 6.850546837 -1.849005699 0.9696414471 
2.701108456 6.977817059 -1.849060655 0.969640553 
1.094965816 7.402990341 -1.849345803 0.9696359038 
0.7645922899 7.444606781 -1.849404216 0.9696350098 
0.09991455078 7.483571529 -1.849521637 0.9696331024 
-0.8971264362 7.430993557 -1.849697113 0.9696302414 
-1.22683835 7.383964539 -1.849755049 0.9696292877 
-2.198933125 7.155634403 -1.849925399 0.9696265459 
-2.515131712 7.05093956 -1.849980593 0.9696256518 
-2.82638669 6.932280064 -1.850034952 0.9696248174 
-3.132050753 6.799887657 -1.85008812 0.9696239233 
-3.724230766 6.494967937 -1.850190997 0.9696222544 
-4.009577751 6.323031902 -1.850240588 0.9696214795 
-5.483710766 5.9681077 -2.002898693 0.967156589 
-5.992709637 5.457336426 -2.002985954 0.9671552181 
-6.229750633 5.185446739 -2.003026485 0.9671543241 
-6.454301834 4.903290749 -2.003064632 0.9671539068 
-6.666149616 4.611413479 -2.003100634 0.9671533108 
-7.049853325 4.000808239 -2.003165483 0.9671522975 
-7.220947266 3.683295727 -2.003194094 0.9671518207 
-7.377738953 3.358481407 -2.003220081 0.9671514034 
-7.519931316 3.027009249 -2.003243685 0.9671509862 
-7.647209167 2.689509153 -2.003264427 0.9671507478 
-7.759355068 2.346694231 -2.003282547 0.9671503901 
-7.856122971 1.999228477 -2.003298044 0.9671501517 
-7.9373312 1.647792935 -2.00331068 0.9671499729 
-8.086112976 0.5766894221 -2.003331661 0.9671496153 
-8.103766441 0.2164184451 -2.003333092 0.9671496153 
-8.105368614 -0.1442944258 -2.003331661 0.9671496153 
-8.060417175 -0.8641186357 -2.003320217 0.9671497941 
-7.951625824 -1.577084899 -2.003297567 0.9671501517 
-7.779860497 -2.277534246 -2.00326395 0.9671506882 
-7.546476841 -2.959912062 -2.003219604 0.967151463 
-7.085063457 -3.937851429 -2.003133535 0.9671528339 
-6.902763367 -4.249054909 -2.003099918 0.9671533704 
-6.275439262 -5.129702091 -2.002985001 0.9671552181 
-6.040917873 -5.403659344 -2.002942562 0.9671559334 
-5.79442358 -5.666918755 -2.002897739 0.9671566486 
-4.988244534 -6.387270451 -2.002752066 0.9671589732 
-4.699059963 -6.602663517 -2.00270009 0.9671598077 
-4.400583267 -6.80497551 -2.002646685 0.9671607018 
-4.093400955 -6.993801117 -2.00259161 0.9671615958 
-3.778134584 -7.168759823 -2.002535105 0.9671624899 
-3.455400229 -7.329514027 -2.002477407 0.9671634436 
-3.125825167 -7.475761414 -2.002418518 0.9671643972 
-2.79010725 -7.60717535 -2.002358913 0.9671653509 
-2.448874474 -7.723527431 -2.002298117 0.9671663046 
-1.042568326 -8.034091949 -2.002048492 0.9671702981 
-0.6841308475 -8.072256088 -2.001985312 0.967171371 
-0.3243481517 -8.094445229 -2.001921654 0.9671723843 
