# .PCD v0.7 - Point Cloud Data file format
VERSION 0.7
FIELDS x y z intensities
SIZE 4 4 4 4
TYPE F F F F
COUNT 1 1 1 1
WIDTH 944
HEIGHT 1
VIEWPOINT 0 0 0 1 0 0 0
POINTS 944
DATA ascii
-4.797062874 11.19176483 1.73710525 0.9519914985 
-6.123603344 12.69512749 2.010776997 0.9446410537 
-57.68696976 -18.00855827 8.621330261 0.7833483815 
-44.14937592 -18.22972679 6.814160824 0.8244867325 
-27.59359741 -12.85877895 4.342961788 0.8842605948 
-23.5093689 -18.19213867 4.240741253 0.8868241906 
-25.23182487 -21.38541985 4.718545914 0.8749040365 
-16.15487671 -14.97688484 3.142694712 0.9148372412 
-15.28520966 -15.49071217 3.104620934 0.9158242941 
-14.65022945 -16.23200226 3.119359016 0.9154421091 
-14.28678703 -17.31998062 3.203015566 0.9132757187 
-10.59960938 -15.46921349 2.675208569 0.9270306826 
-7.80425787 -15.46957016 2.471829653 0.9323859215 
-6.959145546 -15.46967697 2.419934988 0.9337573647 
-6.147226334 -15.46978474 2.374781609 0.9349523187 
-5.35659647 -15.4498682 2.332793713 0.9360647202 
-3.139907122 -15.47017097 2.251979113 0.9382097721 
-1.728188396 -15.47035122 2.22073245 0.9390404224 
-1.034116149 -15.47043419 2.211941242 0.9392742515 
0.344291985 -15.47062016 2.207588911 0.9393900633 
2.429199219 -15.47088337 2.234122992 0.9386844039 
3.863881826 -15.47106934 2.274898529 0.9376009107 
8.310600281 -27.92674255 4.156701565 0.8889375329 
10.56192875 -23.47842216 3.672750711 0.9012058973 
10.56267548 -18.80704117 3.077211857 0.9165354967 
10.56296349 -16.99017525 2.85406971 0.9223463535 
10.56319809 -15.41609383 2.666018724 0.9272719622 
11.64583969 -15.47210884 2.762645721 0.9247376919 
12.76274872 -15.47224617 2.861320019 0.9221569896 
15.26743126 -15.47257328 3.10099721 0.9159182906 
18.25594139 -15.47294903 3.413999557 0.9078345895 
19.99550247 -15.47317791 3.606904268 0.9028880596 
24.1632328 -15.47370052 4.093370438 0.8905333877 
28.90693283 -15.07054615 4.650662899 0.8765876889 
34.63040543 13.22873974 5.28856945 0.8608924747 
23.04184914 13.90247726 3.839138031 0.8969688416 
33.66362381 32.34152603 6.659672737 0.8281021118 
31.01055145 32.56694412 6.415361404 0.8338519335 
30.65612793 38.54210281 7.025626183 0.8195634484 
30.74728394 42.39896774 7.471740723 0.8092734814 
28.80077553 48.21873856 8.012547493 0.7969722152 
18.15014648 48.15655518 7.341780663 0.8122575283 
13.40248489 48.15715408 7.131212234 0.8171162009 
7.345490456 31.80930328 4.657346249 0.8764218092 
8.884770393 48.15772247 6.986131668 0.8204805255 
4.513300896 48.15827179 6.900373459 0.8224759102 
2.359277248 48.15852737 6.878549099 0.8229845166 
0.2142504901 48.15878677 6.870409489 0.8231741786 
-1.296010733 32.34587479 4.618173599 0.8773946762 
-2.741333008 32.34605408 4.63104105 0.8770750165 
-5.670602798 32.34641266 4.684924126 0.8757376075 
-8.693019867 32.34679031 4.778338909 0.8734235764 
-4.407846451 13.90175152 2.080533028 0.9427766204 
-11.86404037 32.34718323 4.915251732 0.8700432181 
-4.74831295 11.35598087 1.755965948 0.9514830709 
-6.04020977 12.81245899 2.020763874 0.9443739057 
-51.9356842 88.73549652 14.66787052 0.6600555182 
-45.28599548 -18.22894478 6.964269638 0.8209888935 
-28.11345863 -12.79784393 4.406683922 0.8826660514 
-20.21694756 -12.69412804 3.405570507 0.9080514312 
-26.29750824 -18.19179153 4.561783314 0.8787971139 
-23.94670868 -18.19208527 4.290252686 0.885581553 
-25.69073105 -21.38452148 4.768591881 0.8736647367 
-15.10373497 -15.03669357 3.040454149 0.9174902439 
-11.84269047 -15.44568348 2.776632071 0.9243714809 
-10.74709892 -15.38888168 2.677748442 0.9269638658 
-8.870234489 -15.46943855 2.543935061 0.9304837584 
-4.010273457 -15.47006321 2.279907942 0.9374678135 
-3.283476591 -15.47015095 2.256137133 0.9380992651 
-1.867685556 -15.47033691 2.223027945 0.9389793873 
-1.172592759 -15.47041512 2.213342667 0.939236939 
0.89594239 -15.47068787 2.210747719 0.9393059611 
1.58898437 -15.4707756 2.218676567 0.9390951395 
3.717895508 -15.47104931 2.269938707 0.9377325773 
9.404838562 -27.92688942 4.20390749 0.8877497911 
10.5626173 -19.20534134 3.126876831 0.9152472019 
14.99805641 -15.47253895 3.074123383 0.916615665 
16.394701 -15.47271442 3.216000795 0.9129397869 
19.63207054 -15.47312927 3.566039324 0.9039337635 
21.49469757 -15.44201183 3.775722504 0.898581326 
30.01435471 -15.98944283 4.851546288 0.8716144562 
69.21988678 -22.28695679 10.37415028 0.7454088926 
34.62403107 12.87415028 5.269877434 0.8613483906 
23.11058617 15.09121513 3.937638998 0.8944699764 
22.89164543 16.44559097 4.021109104 0.8923579454 
38.10934067 32.88750458 7.181220531 0.8159595728 
30.65605354 37.84591293 6.948164463 0.8213634491 
31.01474571 41.97684479 7.445676327 0.8098709583 
27.29674339 49.63192749 8.080715179 0.7954348326 
18.64157104 48.15649796 7.366728306 0.8116824031 
13.86571789 48.15709305 7.149205685 0.8166999221 
6.280109882 32.41888428 4.710870743 0.8750942945 
2.789008617 48.15847397 6.881804466 0.8229084611 
-5.374416351 32.34637451 4.677808285 0.8759140968 
-8.385166168 32.34675598 4.767119408 0.873701036 
-4.38219738 14.26041794 2.128285885 0.9415023923 
-11.53856945 32.34714127 4.89945507 0.8704326749 
-51.03322983 89.00062561 14.63607407 0.6606504321 
-6.697089672 10.56110477 1.784041286 0.9507268071 
-8.272600174 11.84561157 2.061204672 0.9432928562 
-69.47084808 90.60491943 16.28793144 0.6304537654 
-41.09470749 -10.0691843 6.036005497 0.8428596258 
-61.51347351 -18.00808144 9.143846512 0.7718409896 
-44.81268311 -15.31370544 6.75596714 0.8258468509 
-46.47674179 -18.22943878 7.122160912 0.8173256516 
-41.01144028 -18.23011208 6.402689457 0.8341514468 
-36.54013824 -18.23066902 5.825600624 0.8478972316 
-29.6178894 -18.23153687 4.961639404 0.8689008951 
-24.39418983 -18.19202614 4.341247559 0.8843033314 
-26.15951157 -21.38360786 4.820098877 0.8723911643 
-14.0713377 -16.45325661 3.088562489 0.9162409902 
-10.00358391 -15.46929169 2.628090858 0.9282686114 
-9.054042816 -15.46941376 2.557075024 0.9301374555 
-7.292895317 -15.4696331 2.439849615 0.9332308769 
-6.468408108 -15.46974087 2.392074585 0.9344944954 
-4.904926777 -15.46994591 2.315217972 0.9365307689 
-3.427582979 -15.47013187 2.260494471 0.9379835129 
-0.6198583841 -15.47048759 2.208795786 0.939357996 
0.06881836057 -15.47058105 2.207058191 0.93940413 
2.147802591 -15.47084427 2.22824049 0.9388406873 
2.854282141 -15.4709425 2.244334936 0.9384128451 
7.772187233 -27.92667389 4.135439396 0.889473021 
9.129008293 -27.92684937 4.191511154 0.888061583 
9.840761185 -26.10983276 3.980613947 0.8933819532 
10.56254387 -19.61654663 3.178399086 0.9139126539 
10.56285095 -17.68417358 2.938608408 0.920140624 
10.56311512 -16.02015114 2.737532377 0.9253956676 
11.22015572 -15.47205067 2.726551533 0.925683558 
16.1051712 -15.47267532 3.186086416 0.9137136936 
21.13842773 -15.47332001 3.737196684 0.8995622993 
23.24180031 -15.47359371 3.983295202 0.8933141232 
34.59914398 14.28654289 5.340154171 0.8596355915 
34.88515472 32.34138107 6.786397934 0.825135231 
31.91293907 32.34174728 6.481900692 0.8322820663 
30.65566826 33.96557617 6.527274609 0.8312131166 
30.65598488 37.16420746 6.872857571 0.823117137 
30.80267906 40.92298126 7.307047367 0.8130565286 
30.69574165 44.79738617 7.747166157 0.8029848933 
29.97764015 48.21798706 8.099829674 0.7950044274 
27.87524796 49.63186264 8.120796204 0.7945322394 
14.33087826 48.15703583 7.167838573 0.8162689209 
7.972194672 31.92131042 4.693771839 0.875518024 
5.40345192 48.37071228 6.943499088 0.8214719296 
1.071772456 48.15867996 6.872027874 0.8231364489 
-8.078430176 32.34671402 4.756326675 0.8739683032 
-9.626004219 32.34690475 4.814616203 0.8725267053 
-11.21515846 32.34710312 4.884139061 0.8708102703 
-5.803525448 12.90066624 2.018068552 0.9444460273 
-6.426650047 12.73888493 2.035503626 0.9439797401 
-4.837453365 8.613060951 1.409275889 0.9608718157 
-41.12287903 -9.689077377 6.027246952 0.8430688381 
-44.1230011 -16.85486221 6.738233089 0.8262618184 
-41.92173386 -18.18984413 6.519279003 0.8314014673 
-33.50047684 -18.23103905 5.441049099 0.857182622 
-27.32444763 -18.19166946 4.683001518 0.8757852316 
-24.85246086 -18.19196701 4.393826962 0.8829874992 
-26.64086342 -21.38415909 4.873507023 0.8710724711 
-15.94237232 -15.31626415 3.153878689 0.914547503 
-15.06009197 -15.81595135 3.115587711 0.9155399799 
-14.31898403 -16.44404221 3.110646248 0.9156680107 
-12.24006844 -15.38869095 2.805119514 0.923625946 
-11.21785641 -15.46913528 2.726021767 0.9256974459 
-10.19988728 -15.46926212 2.643395901 0.9278662205 
-7.461831093 -15.46961403 2.450220823 0.9329567552 
-5.830561161 -15.46982861 2.358475685 0.9353840947 
-5.056972504 -15.46992683 2.321865559 0.9363545179 
-4.30542469 -15.47002411 2.290834427 0.9371778369 
-3.572407246 -15.47011185 2.265048265 0.9378625154 
-2.147739172 -15.47029781 2.228163242 0.9388427734 
-1.449863195 -15.47038555 2.216679811 0.9391481876 
-0.7579101324 -15.47047329 2.209667444 0.9393346906 
-0.0684716776 -15.3902483 2.195600748 0.9397091269 
2.698085785 -15.3906002 2.229109526 0.9388176203 
3.427900314 -15.47101498 2.260626078 0.9379799962 
4.1361866 -15.39079094 2.273561239 0.937636435 
9.840639114 -26.83044434 4.076963425 0.8909472823 
10.56164074 -25.25911522 3.905789614 0.8952771425 
10.56210899 -22.40430641 3.533570528 0.9047652483 
10.56280231 -18.04724121 2.983188391 0.9189795256 
11.01123524 -15.47203064 2.709157705 0.9261396527 
13.23239231 -15.47230434 2.904418945 0.9210320115 
14.47274876 -15.47247028 3.022437572 0.917958498 
15.82068348 -15.47264099 3.156941414 0.9144682288 
17.29750443 -15.47282696 3.31086421 0.910490334 
18.8309021 -15.39270496 3.469718456 0.9064030051 
20.64079094 -15.39294434 3.673288584 0.9011921883 
35.62976074 14.34203053 5.479293823 0.8562546372 
24.0337162 13.63930607 3.942304611 0.89435184 
22.9150238 14.38823986 3.860059023 0.8964375257 
42.57052994 32.34043503 7.62685585 0.8057256937 
35.51427078 32.34130478 6.852478504 0.8235923648 
30.65560913 33.36384583 6.463804722 0.832708776 
30.65626335 39.98308563 7.187657833 0.8158108592 
30.57555199 48.21759796 8.145138741 0.7939848304 
27.90950584 48.67345047 8.004289627 0.7971582413 
25.67379379 49.78413773 7.991017342 0.7974582314 
22.18081474 48.15604782 7.563676357 0.8071688414 
17.17798233 48.15667343 7.294039249 0.8133565784 
6.799338341 32.03528976 4.67196703 0.8760589361 
8.001513481 48.15782928 6.964392662 0.8209859729 
3.650185347 48.15836716 6.889990807 0.8227178454 
1.500566363 48.15863037 6.873651028 0.8230985403 
-1.873244643 32.34594727 4.62221241 0.877294302 
-9.313520432 32.34687042 4.802084923 0.8728363514 
-6.206352234 12.5792942 2.001099586 0.9448999763 
-54.07932663 88.73576355 14.82473564 0.6571296453 
-60.40766144 89.86488342 15.44740486 0.6456424594 
-29.58032227 9.524080276 4.433282852 0.8820014 
-65.83586121 -18.00753784 9.101279259 0.7592431307 
-44.52444077 -16.55547333 6.334198952 0.8255605102 
-38.14412689 -18.19031143 5.635041237 0.8432143927 
-34.22212982 -18.23095131 5.170449257 0.8551537991 
-25.32230949 -18.19191933 4.157606602 0.8817716241 
-10.39857388 -15.46924305 2.485450506 0.9275416136 
-9.384736061 -15.39895439 2.404639482 0.9298129678 
-8.508012772 -15.46948242 2.354157448 0.931234479 
-7.632328987 -15.469594 2.300174952 0.93275702 
-5.209780216 -15.46990681 2.176651716 0.9362503886 
-4.454179764 -15.46999931 2.146632433 0.9371013641 
-3.717695236 -15.47009277 2.12157321 0.9378123283 
-2.276332855 -15.38996506 2.074486256 0.9391496778 
-0.2054736316 -15.39022923 2.052375555 0.9397782683 
0.4795410037 -15.39031696 2.053200483 0.9397547841 
1.166474581 -15.3904047 2.0581038 0.9396153688 
2.557119131 -15.39059067 2.080372334 0.9389823079 
3.283662081 -15.4709959 2.108917952 0.9381715655 
9.840585709 -27.58723068 3.905611992 0.8885217309 
10.56160641 -25.90462303 3.730286121 0.8932487369 
10.56207943 -22.93108368 3.366480589 0.9031376243 
10.5624609 -20.48156166 3.072875977 0.9111981988 
10.56278801 -18.42125511 2.831524611 0.9178779125 
10.56306171 -16.6578064 2.63015914 0.9234886169 
10.74903297 -15.39167404 2.503333569 0.9270398021 
11.86306572 -15.47213364 2.599756479 0.9243385792 
15.54162121 -15.47260666 2.924287081 0.91530478 
20.36765671 -15.47322273 3.410740376 0.9019287229 
22.36802101 -15.47348118 3.626744986 0.8960520029 
27.12541008 -15.39377403 4.158866405 0.8817379475 
35.15102005 13.78715801 5.034821033 0.8586709499 
77.34540558 34.38136292 11.28658009 0.7106554508 
23.07641029 14.20489502 3.613345861 0.896415472 
39.56422806 32.34080124 6.813932896 0.8136613965 
36.15511703 32.34122086 6.468409061 0.8222141266 
30.65596581 35.84505463 6.289330482 0.82668221 
30.65630341 39.25430679 6.641419411 0.8179203868 
30.65666962 43.07586288 7.050047874 0.8078680038 
30.65708351 47.40764999 7.528130531 0.7962635756 
25.43873978 48.26858902 7.275476456 0.8023753166 
20.13554573 48.15630341 6.960074425 0.8100706339 
17.66252899 48.15661621 6.839674473 0.8130277395 
15.33436012 48.36319733 6.765335083 0.8148589134 
8.368251801 31.13830757 4.299427986 0.8779951334 
5.782990456 32.98762894 4.465781212 0.8735861778 
1.929728985 48.15858459 6.426805973 0.8232499957 
-1.584550738 32.34590912 4.318303585 0.8774937987 
-3.031467199 32.34608841 4.33205843 0.8771287203 
-3.543171406 12.73099327 1.762121439 0.9480696917 
-10.57390594 32.34702301 4.537885189 0.8716820478 
-5.05279541 13.40610218 1.910380363 0.9438254237 
-5.555112362 12.96033573 1.880244851 0.9446866512 
-6.044594765 12.53134727 1.855215549 0.9454023838 
-6.608022213 12.27227306 1.85858047 0.9453061223 
-6.959130764 11.65097237 1.80962503 0.9467077255 
-64.42347717 88.83748627 14.6329298 0.6422110796 
-18.01895523 8.790629387 2.673402548 0.9222809672 
-39.86632538 9.393012047 5.461528778 0.8476547599 
-44.21257782 -15.99312496 6.269341469 0.827182591 
-28.40752792 -18.19153786 4.498094559 0.8727321625 
-27.63582993 -21.38534546 4.659548759 0.8684784174 
-16.09983826 -14.92578602 2.927448034 0.9152172208 
-15.07633781 -15.27896404 2.862219095 0.9170258641 
-14.59433556 -16.16999435 2.904520273 0.9158525467 
-7.804267406 -15.46957493 2.310408831 0.9324682355 
-6.147231102 -15.46977997 2.219696045 0.9350315928 
-4.603652477 -15.46998024 2.152229071 0.936942637 
-3.139887571 -15.47017097 2.104911566 0.9382852316 
-1.028798819 -15.39012623 2.056759119 0.9396535754 
0.3424707055 -15.39029789 2.052710295 0.9397687316 
1.028798819 -15.3903904 2.05679369 0.9396525621 
1.719228506 -15.3904829 2.064990759 0.939419508 
2.416572094 -15.39057064 2.077383518 0.9390673041 
3.86387682 -15.47106934 2.126338959 0.9376770854 
13.17295837 -44.26613235 6.158430576 0.8299635053 
10.562397 -20.93675804 3.126939535 0.9097084999 
10.56271935 -18.80707932 2.876266479 0.9166359901 
10.56300735 -16.99020958 2.6676929 0.9224401712 
10.56324196 -15.41610813 2.491920233 0.9273601174 
12.76268482 -15.47225094 2.674456835 0.9222514033 
15.26735306 -15.47257328 2.898482561 0.9160199165 
16.68983841 -15.47274876 3.034725904 0.9122506976 
18.25586891 -15.47294903 3.191040516 0.9079454541 
21.94786644 -15.47342777 3.580811739 0.8972985744 
35.52113724 13.56879807 5.070336819 0.8577485681 
24.17685509 13.15716076 3.670300245 0.8948717117 
44.18092728 32.34023285 7.300929546 0.8017576933 
40.2906189 32.34070587 6.88918829 0.8118103743 
33.72787857 32.40350342 6.236671448 0.8280007243 
31.05488205 32.61344528 6.004981518 0.8338267803 
30.7183094 35.27743149 6.237463474 0.8279809356 
30.6562252 38.54214859 6.566829681 0.8197687268 
30.74728966 42.3993454 6.983837128 0.8094884753 
28.76311493 48.15522766 7.479431629 0.7974378467 
20.64088249 48.15623856 6.986337185 0.8094270825 
13.40264606 48.15715408 6.66551733 0.8173241615 
7.351918697 31.83746338 4.357048988 0.8764654398 
5.98338604 32.43112946 4.397471428 0.8753938079 
6.767114162 48.74471664 6.562147141 0.8198850155 
4.578020096 48.8476944 6.542090416 0.8203829527 
2.359140635 48.15852737 6.4293437 0.8231867552 
0.2142871022 48.15878677 6.421747684 0.8233761787 
-4.197492599 32.34623337 4.349339485 0.8766700625 
-5.670600414 32.34641266 4.378973961 0.8758841157 
-3.826845646 14.2397356 1.966155171 0.9422336221 
-10.25618172 32.34698486 4.524889469 0.8720247746 
-11.86407185 32.34718323 4.594261169 0.8701959252 
-5.455605507 13.04763603 1.885788679 0.9445280433 
-5.900068283 12.51513863 1.844968319 0.9456955791 
-63.63119888 89.40849304 14.63311481 0.6422072649 
-17.87331581 8.917360306 2.663460016 0.9225584269 
-69.93044281 -17.79598999 9.622004509 0.74737221 
-44.90797806 -15.79414558 6.347757339 0.825221777 
-35.74061584 -18.23076057 5.34998703 0.8505199552 
-32.05455017 -18.19106483 4.914602757 0.8618006706 
-28.9720211 -18.19146538 4.56166172 0.8710549474 
-26.29753876 -18.19179153 4.26388073 0.878940165 
-28.14980316 -21.3852787 4.713932514 0.8670502305 
-25.6907959 -21.38452148 4.457189083 0.8738133311 
-14.86314869 -14.79712868 2.796625853 0.9188479185 
-14.24899864 -15.50766563 2.808217764 0.9185256362 
-14.43089294 -17.18082047 2.991871357 0.9134346247 
-10.74709892 -15.38887691 2.502879381 0.9270524979 
-6.307201862 -15.46975994 2.22765851 0.9348062873 
-5.518232346 -15.46986771 2.190119982 0.9358688593 
-2.557016611 -15.38993645 2.080286026 0.9389848113 
-1.858007789 -15.39001465 2.067066669 0.939360559 
-1.166459918 -15.39010239 2.058062792 0.9396165609 
-0.4795410037 -15.39019966 2.053184509 0.9397552609 
0.205468744 -15.3902874 2.052381992 0.9397780299 
2.276401281 -15.39054203 2.074561834 0.9391474724 
2.981376886 -15.39063931 2.090399265 0.9386975169 
12.74523449 -44.26607513 6.142402649 0.8303662539 
9.404882431 -27.9268837 3.929376125 0.8878830075 
10.56190395 -24.04810905 3.502313852 0.8994326591 
10.56319809 -15.7141552 2.524800301 0.9264377356 
11.43157196 -15.47207928 2.565150738 0.9253072143 
13.71680164 -15.47237301 2.757171631 0.9199456573 
14.9979248 -15.47253895 2.873358011 0.9167166352 
23.6962986 -15.47365189 3.773768187 0.8920740485 
68.7430191 -22.13325119 9.6298666 0.7471942902 
35.34562302 14.96413517 5.118109703 0.8565093279 
22.46730995 13.2844429 3.48039484 0.9000295997 
22.1472702 14.46214771 3.527078152 0.8987588882 
41.03325653 32.34061432 6.966683388 0.8099087477 
38.10951233 32.88737106 6.712254524 0.8161687255 
31.4067421 32.40058899 6.017016411 0.8335230947 
30.71792412 34.64947128 6.174519062 0.829559505 
30.65616226 37.84579468 6.494408607 0.8215673566 
26.48486328 48.15550995 7.328333378 0.8010928035 
16.24575233 48.24012756 6.787493706 0.8143125772 
13.86554623 48.15708542 6.682324886 0.8169085979 
6.060183048 31.28432465 4.249119759 0.8793329 
5.012631893 48.80584717 6.542191505 0.8203802109 
2.836381674 48.97665787 6.54168129 0.8203929663 
-1.007897973 32.34584045 4.315212727 0.8775758147 
-3.905087709 32.34619522 4.344487667 0.876798749 
-3.729807138 14.38828564 1.982004523 0.9417818189 
-4.060451508 13.21330929 1.843230724 0.9457453489 
-5.801650047 12.59579659 1.849175811 0.9455752373 
-6.389750957 12.39027691 1.858930111 0.9452961087 
-31.45322037 9.5125494 4.381710529 0.8758116364 
-41.02627945 -12.01033688 5.700211525 0.8415532112 
-44.60858154 -15.2440815 6.286015034 0.8267652392 
-46.47700119 -18.22943878 6.657087803 0.8175327778 
-32.80181122 -18.23112679 5.004104614 0.8594697118 
-26.80423355 -18.19173241 4.319613457 0.8774589896 
-26.15972519 -21.38361359 4.505347729 0.8725407124 
-14.9820118 -16.01697731 2.924470186 0.9152997136 
-11.00925732 -15.46915531 2.531772614 0.9262422919 
-10.00353527 -15.46929169 2.456459522 0.928355813 
-9.054081917 -15.46940899 2.390092373 0.9302223325 
-8.110527039 -15.38921356 2.319600821 0.9322087765 
-6.468329906 -15.46974087 2.235855103 0.9345744252 
-4.905004978 -15.46994591 2.164027452 0.9366081357 
-3.427651405 -15.47013187 2.112876177 0.9380592108 
-2.697988272 -15.38991642 2.083445787 0.9388949871 
-1.304316401 -15.39009285 2.059530973 0.9395747781 
0.06848632544 -15.39026356 2.052219629 0.9397827387 
0.7539355159 -15.39035606 2.054669857 0.9397130013 
1.442392588 -15.3904438 2.061216116 0.9395269156 
2.839492083 -15.390625 2.086879969 0.9387974143 
3.572568178 -15.471035 2.117255449 0.9379348159 
9.840815544 -26.10966301 3.720644474 0.8935094476 
10.56180668 -24.64118576 3.57485652 0.8974602222 
10.5622406 -21.89711952 3.241779089 0.906552434 
10.56315422 -16.0202198 2.558769941 0.9254858494 
13.43867683 -15.43317795 2.728769541 0.9207367897 
14.73311996 -15.47250462 2.848892212 0.9173956513 
17.51903725 -15.39253902 3.109648466 0.9101846814 
21.13854027 -15.47332478 3.493153095 0.899682045 
23.24167442 -15.47358894 3.723152399 0.8934415579 
28.39655304 -15.45349121 4.310891151 0.8776904941 
79.32397461 24.76310921 11.08078003 0.715095222 
23.17798233 14.8426466 3.670042038 0.8948788047 
41.79287338 32.3405304 7.046503544 0.8079545498 
38.38219452 32.53126526 6.709033012 0.8162484765 
31.97566795 32.40542984 6.070524216 0.8321745396 
30.71754837 34.03398895 6.113314629 0.831097424 
30.80277824 40.92292023 6.829868793 0.8132686615 
30.65682983 44.74081039 7.232086658 0.8034296632 
19.13591194 48.15642548 6.909772873 0.8113049865 
16.69633293 48.1567421 6.79640007 0.8140931129 
7.782858849 31.16267204 4.282988071 0.8784321547 
6.36494875 31.36026764 4.266960144 0.8788582683 
5.4468503 48.76003647 6.542294025 0.8203777671 
3.272167921 48.95027161 6.541783333 0.8203903437 
-0.7201977372 32.36408997 4.316622734 0.8775384426 
-3.613295794 32.34615707 4.339992046 0.8769180775 
-5.078959942 32.34634018 4.366034508 0.8762272 
-6.604902267 32.54208755 4.427761555 0.8745917678 
-4.031747818 13.54815292 1.884860396 0.9445546269 
-5.255202293 13.2249651 1.897597194 0.9441906214 
-6.280810356 12.44981194 1.859402299 0.9452826381 
-7.05847168 11.35324574 1.782616138 0.947481811 
-9.013266563 11.97452736 1.998507142 0.9413115978 
-41.06866455 -11.6269722 5.691503048 0.8417751193 
-37.36879349 -18.23056602 5.544256687 0.8455343246 
-33.50029373 -18.23103905 5.08570385 0.8573497534 
-30.1503067 -18.19130325 4.695454121 0.8675351739 
-27.3243351 -18.19166374 4.377169132 0.8759320378 
-24.34024811 -21.38576126 4.320420265 0.8774375319 
-15.87345695 -15.25012207 2.935183048 0.9150031805 
-14.22785091 -16.33952522 2.889017344 0.9162823558 
-11.21796322 -15.46913528 2.548008442 0.9257873297 
-9.239872932 -15.46938419 2.402695417 0.929867506 
-7.461899281 -15.46961403 2.29021287 0.9330382943 
-6.630707741 -15.46972179 2.244296312 0.9343357682 
-5.056938171 -15.46992683 2.170236826 0.9364321828 
-3.572363138 -15.47011185 2.11713028 0.9379383922 
0.6167089939 -15.39033699 2.053854465 0.9397361875 
1.997187495 -15.39051247 2.069439411 0.9392930865 
2.69809556 -15.39060974 2.083540678 0.9388923049 
3.427831888 -15.47101498 2.112993956 0.9380557537 
4.136181355 -15.39078617 2.125084639 0.9377126098 
10.56216812 -22.40429115 3.302817822 0.9048793912 
10.56252861 -20.04178238 3.020878792 0.912633121 
10.56310081 -16.33461952 2.593867064 0.9245033264 
11.01128387 -15.47202587 2.532241583 0.9262291789 
12.08323669 -15.4721632 2.61772871 0.9238359928 
14.39761734 -15.39214325 2.810393095 0.9184651375 
15.82082462 -15.47264099 2.950789213 0.9145709276 
17.29751396 -15.47283173 3.094647169 0.91059798 
18.8307457 -15.39270496 3.243113279 0.9065157771 
23.1869812 14.55907726 3.650806904 0.8953999281 
23.14769554 16.01280785 3.753160954 0.8926305175 
38.85336304 32.34089279 6.74081707 0.8154637814 
35.51393509 32.34130859 6.404950619 0.8237947226 
32.5494957 32.40500259 6.124466419 0.8308170438 
30.65602875 36.49777603 6.35573101 0.8250226378 
30.65637207 39.98284531 6.718251705 0.8160206676 
27.61229515 48.1553688 7.401935101 0.7993103266 
25.05337334 48.58082581 7.288644314 0.8020557165 
22.18071747 48.15604401 7.069731236 0.8073869944 
19.63388634 48.15637207 6.934555054 0.8106965423 
17.17785645 48.15667725 6.817694664 0.8135685921 
14.79862785 48.15697098 6.717796326 0.816032052 
6.644037724 31.30327034 4.267080784 0.87885499 
8.054648399 48.47836685 6.55290699 0.8201141953 
5.986969948 49.59115982 6.660691261 0.81744349 
3.707707405 48.91995621 6.541885376 0.8203878999 
-0.434704572 32.55994415 4.342054844 0.8768632412 
-1.873247027 32.34594345 4.320361614 0.8774391413 
-3.73243165 12.96322632 1.798792243 0.9470181465 
-10.89350414 32.34706116 4.551307678 0.8713279366 
-6.166911602 12.49942112 1.858541369 0.9453072548 
-4.761215687 8.656956673 1.317335367 0.960915029 
-7.008944988 11.50064087 1.795891881 0.9471012354 
-60.40792847 89.86488342 14.4386301 0.6459982991 
-65.83577728 -18.00753403 9.101271629 0.7592433691 
-45.04485703 -14.5031395 6.310115337 0.8261625171 
-34.22218704 -18.23095131 5.170456409 0.8551536202 
-30.76585388 -18.19122124 4.765921116 0.8656872511 
-19.42303467 -12.68323421 3.093195677 0.9106370807 
-25.3222599 -18.19191933 4.157596111 0.8817718029 
-27.13294792 -21.38498497 4.60667038 0.8698693514 
-24.78152275 -21.38570786 4.364794254 0.8762601018 
-15.10669422 -15.5847311 2.894195557 0.9161387682 
-14.47701168 -16.32986832 2.909978628 0.9157012701 
-15.59650326 -19.25419807 3.304062366 0.9048452377 
-11.42936516 -15.46910572 2.564656258 0.9253210425 
-10.39855957 -15.46924305 2.485448599 0.9275416732 
-9.384740829 -15.39896965 2.40463686 0.9298129678 
-7.632328987 -15.469594 2.300174952 0.93275702 
-6.759013653 -15.38938904 2.241279125 0.9344210625 
-5.988388538 -15.46979904 2.211965799 0.9352504015 
-5.209794998 -15.46990681 2.176652908 0.9362503886 
-4.454160213 -15.46999931 2.146631479 0.9371013641 
-3.717680693 -15.47009277 2.121572971 0.9378123283 
-2.981220722 -15.38987732 2.090294838 0.9387004375 
-2.276328087 -15.38997078 2.07448554 0.9391496778 
-0.8912988305 -15.39014149 2.055620432 0.9396860003 
-0.2054785043 -15.39022923 2.052375555 0.9397782683 
0.4795312285 -15.39031696 2.053199768 0.9397547841 
1.85806632 -15.39050293 2.067131519 0.9393587112 
2.557128906 -15.39059067 2.080372334 0.9389823079 
3.283671856 -15.47100067 2.108916521 0.9381715059 
13.60297775 -44.26618195 6.175040722 0.8295465112 
9.84058094 -27.58724976 3.905615807 0.8885216713 
10.56305599 -16.65779686 2.630157471 0.9234886169 
10.74903297 -15.39167404 2.503334045 0.9270398021 
11.86306572 -15.47213364 2.599756479 0.9243385792 
14.14280701 -15.39210892 2.787290573 0.9191075563 
16.99073219 -15.47278786 3.064276695 0.9114353061 
18.58886719 -15.47300243 3.225045204 0.9070115685 
24.6437397 -15.47377396 3.880172729 0.8892061114 
36.53940964 12.48661137 5.148948193 0.8557103872 
35.15096664 13.78718758 5.034816265 0.8586710691 
77.34528351 34.38140869 11.28657722 0.7106556892 
23.97898865 13.32745552 3.658126116 0.8952015042 
23.07641029 14.20489502 3.613345861 0.896415472 
43.36600113 32.34033203 7.213529587 0.8038809299 
36.15513992 32.34122467 6.468411922 0.822214067 
33.13332367 32.40426636 6.17980957 0.8294266462 
28.18478012 48.15529633 7.440194607 0.7983854413 
25.43880272 48.26857376 7.275482178 0.802375257 
20.13548279 48.15630722 6.96007061 0.8100706935 
8.368242264 31.13830757 4.299426556 0.8779951334 
5.78299284 32.98759842 4.46577692 0.873586297 
6.435522079 49.59266663 6.668331623 0.8172547221 
4.143078327 48.88579559 6.541987896 0.8203852773 
1.929787517 48.15858459 6.426805973 0.8232499957 
-1.584499478 32.34591293 4.318304539 0.8774937987 
-4.490624905 32.3462677 4.354541302 0.876531899 
-5.967861176 32.34645081 4.385996819 0.8756979704 
-7.568564415 32.77529144 4.485394955 0.873067677 
-10.57394218 32.34702301 4.537886143 0.8716819882 
-5.555121899 12.96033192 1.880243897 0.9446866512 
-6.044604301 12.53134632 1.855215907 0.9454023838 
-6.608022213 12.27227306 1.85858047 0.9453061223 
-6.959130764 11.65097237 1.80962503 0.9467077255 
-60.12036514 91.17927551 14.56328106 0.6435661316 
-18.01898766 8.790620804 2.673406363 0.922280848 
-67.57522583 -17.83852577 9.319426537 0.754247427 
-47.15880203 -14.72189903 6.587629795 0.8192529678 
-44.21256256 -15.99312019 6.269339085 0.8271826506 
-31.08475494 -12.83522224 4.484410763 0.8730937243 
-39.12039566 -18.23034668 5.755074501 0.840157032 
-34.96844482 -18.23085976 5.25847578 0.8528785706 
-31.40038109 -18.19114304 4.838932991 0.8637763858 
-28.40759659 -18.19153214 4.498101711 0.8727319837 
-27.63587379 -21.38534546 4.659556389 0.8684782982 
-25.23181534 -21.38541412 4.410405159 0.8750514984 
-16.09986305 -14.92574692 2.927448034 0.9152172804 
-5.356562614 -15.44976044 2.180439234 0.9361431003 
-3.863642454 -15.47007275 2.12620306 0.9376809597 
-3.139902353 -15.47017097 2.104911804 0.9382852316 
-1.719213843 -15.39003372 2.0649333 0.9394212365 
-1.028818369 -15.39012623 2.056759119 0.9396535754 
0.3425000012 -15.39029789 2.052710772 0.9397687316 
1.719248056 -15.3904829 2.064990997 0.939419508 
2.416581869 -15.39057064 2.077383518 0.9390673041 
3.140053749 -15.47097111 2.105021238 0.9382821321 
3.863886595 -15.47106934 2.126339197 0.9376770854 
13.1729784 -44.26612854 6.158430576 0.8299635053 
9.682479858 -27.92692375 3.941349506 0.8875613213 
10.56149864 -26.57852936 3.813646793 0.8909982443 
10.56239223 -20.93678093 3.126942635 0.9097084403 
10.56272411 -18.80713272 2.876271963 0.9166358113 
10.56324196 -15.41615677 2.491928816 0.9273599386 
11.64583969 -15.47210884 2.582232714 0.9248289466 
13.90756321 -15.40903282 2.76783514 0.9196487665 
15.26741219 -15.47257328 2.898489237 0.9160197973 
16.68989754 -15.47274876 3.034731388 0.9122505784 
18.25592804 -15.4729538 3.191046715 0.9079453349 
21.94791985 -15.47342205 3.580817223 0.8972983956 
24.16344643 -15.47370529 3.826080799 0.8906629086 
26.71026802 -15.4740324 4.116165161 0.8828780651 
28.80251312 -15.01626396 4.331260204 0.8771497607 
24.17687988 13.15713882 3.670302153 0.8948716521 
44.18072128 32.34023285 7.300898075 0.8017582297 
40.29046249 32.3407135 6.889171124 0.8118107319 
33.72780991 32.40351105 6.236665726 0.8280009031 
31.05483818 32.6134758 6.00497961 0.8338268399 
30.71831512 35.27751923 6.237471581 0.8279806972 
25.92941856 48.15557861 7.292943954 0.8019514084 
20.64095116 48.15623856 6.986341 0.8094269633 
5.983403206 32.4315567 4.397529125 0.8753923178 
6.767018795 48.74489594 6.562168598 0.819884479 
2.359094143 48.15852356 6.429343224 0.8231867552 
0.214252919 48.15878677 6.421741962 0.8233761787 
-1.296137691 32.34587479 4.316587448 0.8775393963 
-2.741328001 32.34605026 4.328609943 0.8772200942 
-5.670600414 32.34641266 4.378973961 0.8758841157 
-7.297724247 32.93703842 4.498467922 0.8727225065 
-3.826845646 14.2397356 1.966155171 0.9422336221 
-10.25613976 32.34698486 4.524887562 0.8720248342 
-11.86404514 32.34718323 4.594261169 0.8701959252 
-6.498788834 12.33111763 1.858658195 0.9453039169 
-63.63137054 89.4083786 14.63311481 0.6422072053 
-9.436293602 12.08278751 2.044286251 0.9400083423 
-17.873312 8.917376518 2.663461208 0.9225583673 
-47.158741 -14.26247025 6.569626331 0.8196994662 
-44.90791702 -15.79405689 6.347747803 0.8252220154 
-32.05439758 -18.19106483 4.914583683 0.8618011475 
-26.2974987 -18.19179153 4.263877869 0.8789402843 
-10.74709892 -15.38887691 2.502879381 0.9270524979 
-8.870234489 -15.46943283 2.377803087 0.9305682778 
-7.125375748 -15.46965313 2.27108407 0.9335786104 
-4.010200024 -15.47005367 2.131017923 0.9375442863 
-3.283471584 -15.47015095 2.10880208 0.9381748438 
-1.857988238 -15.39002419 2.067066193 0.9393604994 
0.8912939429 -15.39037037 2.055650234 0.9396851063 
1.580683589 -15.39046383 2.063019753 0.939475596 
2.981362343 -15.39063931 2.090398312 0.9386975169 
3.717900276 -15.47105408 2.121701956 0.9378085732 
9.40484333 -27.9268837 3.929374218 0.8878830671 
10.56189919 -24.04797363 3.502296686 0.899433136 
10.56231403 -21.40817833 3.183186054 0.9081613421 
10.56295395 -17.33218193 2.706520319 0.9213568568 
10.56319809 -15.71410656 2.524796247 0.9264379144 
14.9979248 -15.47253895 2.873358011 0.9167166352 
16.39470673 -15.47271442 3.005982637 0.9130446315 
23.69622993 -15.47364712 3.773762226 0.8920742869 
26.17027855 -15.47396946 4.054021358 0.8845401406 
28.89432526 -15.39276314 4.365501404 0.8762413859 
79.76829529 25.68326569 11.17434025 0.7130733132 
24.3757019 12.98558521 3.682804585 0.8945332766 
22.46728897 13.28444767 3.480392933 0.9000296593 
22.14730453 14.46219254 3.52708602 0.8987587094 
41.03325653 32.34061432 6.966683388 0.8099087477 
34.26862717 32.34145737 6.28318119 0.8268360496 
30.65691376 45.6060791 7.327558994 0.8011116385 
29.34776878 48.15515518 7.519704819 0.7964666486 
26.48474503 48.15550995 7.328326225 0.8010929823 
21.15003395 48.15617752 7.013354301 0.8087655306 
16.24568748 48.24014664 6.78749752 0.8143125772 
13.86551285 48.15708923 6.682323933 0.8169085979 
7.633354187 31.76418686 4.356144905 0.8764894009 
0.6429589987 48.158741 6.422241688 0.8233636618 
-2.451542854 32.34601593 4.32551527 0.877302289 
-3.729829073 14.38824844 1.982000232 0.9417818785 
-11.53857136 32.34714127 4.579494953 0.8705849648 
-5.355661392 13.13582516 1.891571403 0.9443627596 
-5.801664829 12.59579277 1.849176168 0.9455752373 
-31.45322037 9.5125494 4.381710529 0.8758116364 
-41.02619934 -12.01041698 5.700206757 0.84155339 
-41.01096725 -18.23011589 5.984511375 0.8343436122 
-29.55266571 -18.19139099 4.627408981 0.8693234921 
-26.80423355 -18.19173241 4.319613457 0.8774589896 
-28.67599487 -21.38521004 4.769987106 0.865580678 
-23.90783119 -21.3858242 4.277266026 0.8785838485 
-13.98275375 -16.34953117 2.868674278 0.9168465734 
-10.00348568 -15.46929646 2.456456423 0.9283559322 
-7.292895317 -15.46963787 2.280515194 0.9333121777 
-6.468329906 -15.46974087 2.235855103 0.9345744252 
-4.905004978 -15.46994591 2.164027452 0.9366081357 
-2.697988272 -15.38991642 2.083445787 0.9388949871 
-1.997128844 -15.39000416 2.069370747 0.9392950535 
-1.304316401 -15.39009285 2.059530973 0.9395747781 
0.06845702976 -15.39026833 2.052219868 0.9397827387 
1.442426682 -15.3904438 2.06121707 0.9395269156 
12.31975079 -44.26601028 6.126942635 0.8307549357 
9.840815544 -26.10966301 3.720644474 0.8935094476 
10.56180668 -24.64118576 3.57485652 0.8974602222 
10.56259251 -19.61664581 2.970851898 0.9140159488 
10.56290054 -17.68441772 2.746730328 0.9202363491 
10.56315422 -16.0202198 2.558769941 0.9254858494 
13.43867683 -15.43325138 2.728776217 0.9207365513 
14.7330513 -15.47250462 2.848885536 0.9173958302 
17.51911545 -15.39253902 3.109656334 0.910184443 
23.24179077 -15.47358894 3.723169565 0.8934412003 
35.27038574 14.56350994 5.088244438 0.857283771 
22.75026894 13.17988777 3.505913019 0.8993347287 
38.3822937 32.53118896 6.70904398 0.8162484169 
34.88547134 32.34138489 6.343242168 0.8253344297 
29.93852997 48.1550827 7.560997009 0.7954721451 
27.04576683 48.15543747 7.364663601 0.8002126217 
21.66337395 48.15611267 7.041151047 0.8080855012 
14.33087826 48.15703201 6.699744225 0.8164778948 
7.782858849 31.16267204 4.282988071 0.8784321547 
7.622802734 48.54730988 6.552804947 0.8201169372 
5.446945667 48.76003647 6.542294025 0.8203777075 
-6.604902267 32.54208755 4.427761555 0.8745917678 
-8.078578949 32.34671402 4.44572258 0.8741166592 
-4.031747818 13.54815292 1.884860396 0.9445546269 
-11.21501637 32.34710312 4.565176487 0.8709623218 
-5.255202293 13.2249651 1.897597194 0.9441906214 
-4.837048054 8.612436295 1.317145228 0.9609230161 
-62.03124237 90.52919769 14.63349056 0.6422001719 
-41.06866455 -11.6269722 5.691503048 0.8417751193 
-45.18340683 -14.99281216 6.347959518 0.8252167702 
-33.50045776 -18.23104477 5.085723877 0.8573492169 
-30.15042877 -18.19130325 4.695466042 0.8675348163 
-27.32444763 -18.19166374 4.377180576 0.8759316802 
-29.2147007 -21.38514519 4.827754498 0.864068687 
-15.87342739 -15.25015545 2.935183764 0.9150031209 
-14.99432087 -15.74687481 2.899406672 0.9159943461 
-14.22785091 -16.33952522 2.889017344 0.9162823558 
-10.19988251 -15.46926689 2.47077322 0.9279538393 
-8.329585075 -15.46950626 2.342788219 0.9315549731 
-7.461899281 -15.46961403 2.29021287 0.9330382943 
-6.630707741 -15.46972179 2.244296312 0.9343357682 
-5.830634594 -15.46981907 2.204463005 0.9354628325 
-5.056977272 -15.46992683 2.170238733 0.9364321828 
-3.572329044 -15.47011185 2.117129087 0.9379384518 
-2.839340687 -15.38989735 2.086782694 0.9388002157 
-2.136523485 -15.38998508 2.071839333 0.9392247796 
-0.06847655773 -15.3902483 2.052217007 0.9397827983 
1.304335952 -15.39042473 2.059575081 0.9395735264 
1.997187495 -15.39051247 2.069439411 0.9392930865 
2.69809556 -15.39060974 2.083540678 0.9388923049 
8.865057945 -27.95969582 3.911168098 0.8883723617 
10.56170845 -25.25955963 3.650783539 0.8954004049 
10.56252861 -20.04188347 3.020891666 0.912632823 
10.56283665 -18.04714394 2.78836298 0.9190776944 
11.01133251 -15.47202587 2.532245159 0.9262290597 
12.08327579 -15.47215748 2.617733002 0.9238359332 
14.39761734 -15.39214325 2.810393095 0.9184651375 
15.82082462 -15.47264099 2.950789213 0.9145709276 
17.29751396 -15.47283173 3.094647169 0.91059798 
22.6807766 -15.39320278 3.655104399 0.8952834606 
28.99883652 -16.11747551 4.42393446 0.8746931553 
23.14779663 16.01294899 3.753182888 0.8926299214 
38.85336304 32.34089279 6.74081707 0.8154637814 
32.5494957 32.40500259 6.124466419 0.8308170438 
27.61243057 48.1553688 7.401945114 0.7993101478 
25.05344582 48.58070755 7.2886343 0.8020559549 
17.17775345 48.15667343 6.817689896 0.8135687113 
6.643979549 31.30329704 4.26708746 0.87885499 
5.986969948 49.59115982 6.660691261 0.81744349 
3.707707405 48.91995621 6.541885376 0.8203878999 
-0.434704572 32.55994415 4.342054844 0.8768632412 
-1.873247027 32.34594345 4.320361614 0.8774391413 
-7.815048695 32.52018356 4.459821701 0.8737436533 
-3.732382774 12.96315861 1.798779964 0.9470184445 
-5.154299259 13.31501198 1.903863311 0.9440116286 
-6.166940689 12.49940872 1.858541369 0.9453072548 
-4.7612257 8.656928062 1.317357659 0.9609150887 
-7.008957386 11.50060272 1.795888782 0.9471013546 
-8.569921494 11.59894657 1.923017383 0.9434645176 
-65.83634949 -18.00754356 9.101345062 0.7592417002 
-44.5243187 -16.55553627 6.334187031 0.8255608082 
-38.14395523 -18.19031143 5.635019779 0.8432149291 
-30.76585388 -18.19122124 4.765921116 0.8656872511 
-19.42303467 -12.68323421 3.093195677 0.9106370807 
-25.3222599 -18.19191933 4.157596111 0.8817718029 
-27.13294792 -21.38498497 4.60667038 0.8698693514 
-15.98677731 -15.08772945 2.931189537 0.9151136279 
-15.10669422 -15.5847311 2.894195557 0.9161387682 
-9.384736061 -15.39889622 2.404628038 0.9298132062 
-6.758979321 -15.38938904 2.241276741 0.9344211221 
-5.209760666 -15.46990681 2.176651478 0.9362504482 
-3.717680693 -15.47009277 2.121572971 0.9378123283 
-2.981220722 -15.38987732 2.090294838 0.9387004375 
-2.276328087 -15.38997078 2.07448554 0.9391496778 
-0.2054785043 -15.39022923 2.052375555 0.9397782683 
0.4795312285 -15.39031696 2.053199768 0.9397547841 
1.16645503 -15.3904047 2.058104277 0.9396154284 
3.283632755 -15.47100067 2.108916998 0.9381715655 
10.56207943 -22.93100548 3.366471529 0.9031378627 
10.56279278 -18.42123413 2.831521034 0.9178780317 
10.56305599 -16.65779686 2.630157471 0.9234886169 
12.99580574 -15.47227955 2.694345713 0.9216964245 
14.14280701 -15.39210892 2.787290573 0.9191075563 
20.36759758 -15.47322273 3.410734892 0.9019289017 
22.3681488 -15.47347641 3.626759052 0.8960516453 
28.28101921 -14.42567348 4.233364105 0.8797523975 
36.53931427 12.48665524 5.148934364 0.8557106853 
23.07641029 14.20489502 3.613345861 0.896415472 
30.65630341 39.25452042 6.641442776 0.8179198503 
30.65667343 43.07606506 7.050069332 0.8078674674 
30.65708923 47.40781021 7.528149128 0.7962631583 
25.43870544 48.26859665 7.275476456 0.8023753166 
22.70229912 48.15598679 7.099098206 0.8066697121 
20.13548279 48.15630722 6.96007061 0.8100706935 
15.3343401 48.36318588 6.765326977 0.814858973 
8.368242264 31.13830757 4.299426556 0.8779951334 
6.920234203 31.23335075 4.265777111 0.8788896799 
5.78299284 32.98759842 4.46577692 0.873586297 
1.929787517 48.15858459 6.426805973 0.8232499957 
-1.584499478 32.34591293 4.318304539 0.8774937987 
-3.031552553 32.34608841 4.332052708 0.8771286607 
-7.568564415 32.77529144 4.485394955 0.873067677 
-3.54319334 12.73101902 1.762125373 0.9480695724 
-5.555121899 12.96033192 1.880243897 0.9446866512 
-6.608022213 12.27227306 1.85858047 0.9453061223 
-6.959130764 11.65097237 1.80962503 0.9467077255 
-70.58148956 88.73780823 15.11917973 0.6328295469 
-18.01898766 8.790620804 2.673406363 0.922280848 
-47.15880203 -14.72189903 6.587629795 0.8192529678 
-44.21256256 -15.99312019 6.269339085 0.8271826506 
-34.96844482 -18.23085976 5.25847578 0.8528785706 
-28.40759659 -18.19153214 4.498101711 0.8727319837 
-25.80384254 -18.1918602 4.209913254 0.8803768754 
-27.63587379 -21.38534546 4.659556389 0.8684782982 
-25.23181534 -21.38541412 4.410405159 0.8750514984 
-14.59429169 -16.17002487 2.904519558 0.9158525467 
-14.26944351 -17.29895401 2.990208149 0.9134806395 
-11.64356422 -15.46908188 2.581728458 0.9248430729 
-8.688188553 -15.46946239 2.365825653 0.9309056997 
-7.80425787 -15.46957493 2.310408354 0.9324682355 
-6.959145546 -15.46968269 2.26190114 0.9338380098 
-6.147231102 -15.46977997 2.219696045 0.9350315928 
-5.356562614 -15.44976044 2.180439234 0.9361431003 
-3.863642454 -15.47007275 2.12620306 0.9376809597 
-2.416503906 -15.38994598 2.07730031 0.9390696883 
-1.719213843 -15.39003372 2.0649333 0.9394212365 
-0.3424511552 -15.39021492 2.052699089 0.9397690296 
0.3425000012 -15.39029789 2.052710772 0.9397687316 
1.719248056 -15.3904829 2.064990997 0.939419508 
2.416581869 -15.39057064 2.077383518 0.9390673041 
10.56198692 -23.47856903 3.432921648 0.9013235569 
10.56272411 -18.80713272 2.876271963 0.9166358113 
11.64583969 -15.47210884 2.582232714 0.9248289466 
12.76274395 -15.47225094 2.674461603 0.9222512245 
15.26741219 -15.47257328 2.898489237 0.9160197973 
21.94791985 -15.47342205 3.580817223 0.8972983956 
24.16322136 -15.47370529 3.826055765 0.8906636238 
24.17687988 13.15713882 3.670302153 0.8948716521 
23.13530159 13.95885754 3.602976084 0.896696806 
40.29079437 32.3407135 6.889206409 0.8118098974 
36.8089447 32.34114838 6.533639431 0.8205925822 
31.05483818 32.6134758 6.00497961 0.8338268399 
30.71831512 35.27722931 6.237442493 0.8279814124 
30.74736214 42.39908218 6.983808041 0.8094890118 
28.76286125 48.15522385 7.479414463 0.7974382639 
23.22814369 48.15591812 7.129272938 0.8059334159 
18.15016556 48.15655518 6.86233139 0.8124704957 
15.8388176 48.45297623 6.7973423 0.8140699267 
13.40248489 48.15714645 6.665512085 0.8173243403 
7.351982117 31.8374424 4.357048035 0.8764654398 
6.76718998 48.7445755 6.562125206 0.8198854327 
4.577914715 48.84770584 6.542090416 0.8203829527 
2.359301805 48.15852356 6.429345131 0.8231867552 
0.214252919 48.15878677 6.421741962 0.8233761787 
-1.295998454 32.34587479 4.316586018 0.8775393963 
-11.86404514 32.34718323 4.594261169 0.8701959252 
-5.455636978 13.04761219 1.885787487 0.9445281029 
-5.900053501 12.51515198 1.844969273 0.9456955791 
-59.59505844 92.15628815 14.63406372 0.6421890259 
-63.63102341 89.40863037 14.63311481 0.6422072053 
-9.436293602 12.08278751 2.044286251 0.9400083423 
-89.47914124 -14.45832443 12.0862608 0.6936637163 
-69.92947388 -17.79600143 9.621870041 0.7473750114 
-47.158741 -14.26247025 6.569626331 0.8196994662 
-44.90813828 -15.79435539 6.347789764 0.8252210021 
-35.74077606 -18.23076057 5.350006104 0.8505194783 
-25.69072723 -21.38452148 4.457183361 0.8738135695 
-14.24856377 -15.50733376 2.808146954 0.9185276628 
-14.43089294 -17.18082047 2.991871357 0.9134346247 
-8.870234489 -15.46943283 2.377803087 0.9305682778 
-7.977685452 -15.4695549 2.320913076 0.9321718216 
-7.125375748 -15.46965313 2.27108407 0.9335786104 
-4.010263443 -15.47005844 2.131019592 0.937544167 
-3.283471584 -15.47015095 2.10880208 0.9381748438 
-2.55706048 -15.38992596 2.080287695 0.9389848113 
-1.857988238 -15.39002419 2.067066193 0.9393604994 
-1.166508794 -15.39011192 2.058063269 0.9396165013 
0.2055371106 -15.3902874 2.052382231 0.9397780299 
0.8912939429 -15.39037037 2.055650234 0.9396851063 
1.580751896 -15.39046383 2.063020945 0.9394755363 
2.981430531 -15.39063931 2.090400457 0.9386974573 
3.717900276 -15.47105408 2.121701956 0.9378085732 
10.56138134 -27.28310013 3.901102781 0.888643086 
10.56189919 -24.04824638 3.502330303 0.8994322419 
10.56295395 -17.33218193 2.706520319 0.9213568568 
13.71680164 -15.47237301 2.757171631 0.9199456573 
23.69622993 -15.47364712 3.773762226 0.8920742869 
28.89432526 -15.39276314 4.365501404 0.8762413859 
79.76829529 25.68326569 11.17434025 0.7130733132 
35.34563828 14.9642334 5.118115902 0.8565091491 
22.4674015 13.28439903 3.480403423 0.9000293612 
22.14730453 14.46219254 3.52708602 0.8987587094 
38.10942459 32.88756943 6.71227026 0.8161684871 
34.26862717 32.34145737 6.28318119 0.8268360496 
31.40647316 32.40058899 6.016990185 0.8335237503 
30.65616226 37.84603119 6.494432926 0.8215667009 
31.01478386 41.97689438 6.959451199 0.8100860715 
29.34776878 48.15515518 7.519704819 0.7964666486 
26.48474503 48.15550995 7.328326225 0.8010929823 
23.759058 48.15584946 7.160303593 0.8051768541 
16.24568748 48.24014664 6.78749752 0.8143125772 
13.86571789 48.15709305 6.682330608 0.8169084191 
6.060334206 31.28436852 4.249129772 0.879332602 
5.012414455 48.80582809 6.542191029 0.8203803301 
2.836381674 48.97665787 6.54168129 0.8203929663 
0.6427636743 48.158741 6.42223978 0.8233636618 
-1.007846713 32.34584045 4.315212727 0.8775758147 
-6.990736961 32.93700027 4.48978281 0.8729518056 
-5.355615139 13.13586617 1.891574264 0.9443627 
-6.389711857 12.39029789 1.858930111 0.9452961087 
-6.608769417 10.42183304 1.645544291 0.9514203668 
-62.83376694 89.97222137 14.63330173 0.6422039866 
-44.6081543 -15.24382782 6.285948753 0.8267669082 
-46.47670364 -18.22943878 6.657050133 0.8175336719 
-36.54015732 -18.23066902 5.44516468 0.8480736017 
-32.80149841 -18.23112679 5.004067898 0.8594706655 
-29.55266571 -18.19139099 4.627408981 0.8693234921 
-26.80400276 -18.19173241 4.319587231 0.8774596453 
-26.15951157 -21.38361359 4.505325317 0.8725413084 
-15.00899887 -14.67879391 2.799385309 0.9187711477 
-14.98200607 -16.01689911 2.924462318 0.915299952 
-12.08084488 -15.46902752 2.617203236 0.9238507152 
-9.054042816 -15.46941376 2.390089273 0.9302223921 
-8.110570908 -15.38921356 2.319607735 0.9322087169 
-6.468408108 -15.46974087 2.235859871 0.934574306 
-4.157495022 -15.47003365 2.136029243 0.9374021292 
-3.427582979 -15.47013187 2.112874269 0.9380592704 
-1.997060537 -15.39000416 2.069369078 0.9392951131 
-1.304316401 -15.39009285 2.059530973 0.9395747781 
0.06845702976 -15.39026833 2.052219868 0.9397827387 
1.442353487 -15.3904438 2.061216116 0.9395269156 
2.136650324 -15.39053631 2.071916103 0.9392226934 
2.839462757 -15.39062023 2.086879015 0.9387974739 
12.31955051 -44.26602554 6.126933575 0.8307551146 
9.129003525 -27.92684937 3.917783737 0.8881945014 
9.840810776 -26.10999489 3.720685244 0.8935083747 
10.56180668 -24.64118576 3.57485652 0.8974602222 
10.5622406 -21.89687538 3.241749287 0.9065532684 
10.56289482 -17.68425179 2.746710062 0.9202368259 
10.56315422 -16.0202198 2.558769941 0.9254858494 
11.22015572 -15.47205067 2.54849577 0.9257736802 
12.30647469 -15.47218704 2.636158466 0.9233208895 
13.43867683 -15.43311977 2.728764057 0.9207369089 
14.7330513 -15.47250462 2.848885536 0.9173958302 
17.51895905 -15.39253902 3.10964036 0.9101849198 
19.27671432 -15.4730854 3.296068668 0.9050641656 
21.13844109 -15.47332478 3.493142128 0.899682343 
28.39655304 -15.45349121 4.310891151 0.8776904941 
23.17798233 14.84276867 3.670049906 0.8948785663 
41.79268646 32.3405304 7.046484947 0.8079550862 
38.3822937 32.53118896 6.70904398 0.8162484169 
30.71754837 34.03409576 6.113325119 0.8310971856 
30.80286026 40.92321014 6.829899311 0.8132677674 
29.93852997 48.1550827 7.560997009 0.7954721451 
27.04603958 48.15543747 7.364680767 0.8002121449 
24.91547394 49.3874321 7.376096725 0.7999357581 
19.13591194 48.15642548 6.909772873 0.8113049865 
7.622597694 48.54733658 6.552804947 0.8201169372 
5.446945667 48.76003647 6.542294025 0.8203777075 
-3.613366604 32.34615707 4.339992523 0.8769180179 
-5.078818321 32.34634018 4.3660326 0.8762272596 
-6.604902267 32.54208755 4.427761555 0.8745917678 
-4.031747818 13.54815292 1.884860396 0.9445546269 
-5.68100071 12.62830448 1.846454024 0.9456530809 
