# .PCD v0.7 - Point Cloud Data file format
VERSION 0.7
FIELDS x y z intensities
SIZE 4 4 4 4
TYPE F F F F
COUNT 1 1 1 1
WIDTH 944
HEIGHT 1
VIEWPOINT 0 0 0 1 0 0 0
POINTS 944
DATA ascii
11.86402035 -15.47336864 2.963747501 0.9241427779 
12.99692631 -15.47359848 3.071594238 0.9214936495 
14.21792221 -15.47384739 3.194152117 0.9184924364 
15.54310799 -15.47411633 3.333771229 0.9150854349 
16.99242973 -15.47440434 3.493375063 0.9112059474 
18.49436188 -15.39439392 3.657604218 0.9072315097 
22.37106133 -15.47549725 4.134748936 0.8957819343 
24.51938248 -15.39561939 4.400750637 0.8894618154 
21.94615364 13.50916004 3.917176962 0.9009847045 
20.50541687 13.91680145 3.766895771 0.9045960903 
36.24985886 32.42590332 7.392767906 0.8213714361 
30.24983597 32.3393631 6.730892181 0.8359703422 
28.37883949 33.18239975 6.636769772 0.8380673528 
28.37430382 36.33248138 7.007150173 0.8298457265 
28.37508965 39.87017059 7.43838501 0.820374608 
23.46901512 49.782341 8.36567688 0.800373435 
17.68511963 48.21826172 7.806642056 0.8123724461 
15.73658371 49.63188553 7.91422224 0.8100495338 
12.9896307 48.33454514 7.607575893 0.8166882992 
4.262013912 32.84346771 5.034092903 0.8745926619 
-0.2142553627 48.15855026 7.320216656 0.822959125 
-3.031550169 32.34598923 4.938169956 0.8768287301 
-10.57409191 32.3474884 5.172878742 0.8713676929 
-12.21480656 32.40828705 5.264365196 0.8692483902 
-7.389411449 13.72345066 2.369151354 0.9388854504 
-7.563713074 12.66317272 2.242029667 0.9420676827 
-7.877319336 11.94683933 2.175148964 0.9437463284 
-8.070063591 11.12829685 2.08947587 0.9459009767 
-20.18115616 8.756607056 3.343878746 0.9148393273 
-34.9640007 -18.22855949 5.993465424 0.8525413871 
-21.8117485 -12.63619137 3.831593037 0.9030396938 
-28.46743774 -18.22986221 5.138266087 0.8721709251 
-25.80153084 -18.19024467 4.798521042 0.8800939918 
-17.05961609 -14.45900822 3.399163246 0.9134939313 
-17.39447975 -16.12609863 3.605402708 0.9084929228 
-10.59930897 -15.46876907 2.850282907 0.9269380569 
-9.61722374 -15.46895981 2.768668413 0.928953886 
-7.80412817 -15.46933556 2.633632183 0.9322989583 
-6.959059715 -15.46951103 2.578350067 0.9336718321 
-6.14718008 -15.46966743 2.530251503 0.9348680377 
-3.139919281 -15.47028255 2.399442196 0.9381287098 
-2.429138184 -15.47042942 2.380331039 0.9386060834 
-0.3442358375 -15.47084904 2.352166414 0.9393100142 
1.03422606 -15.47113228 2.35687685 0.9391922951 
4.385016918 -27.92690277 4.296927452 0.8919233084 
5.668230057 -27.92716789 4.331510544 0.8911026716 
8.274420738 -23.8657074 3.839454889 0.9028505683 
8.274958611 -20.8243351 3.406069756 0.913326025 
8.690016747 -15.47272396 2.697412968 0.9307175279 
12.76383018 -15.47355461 3.048922777 0.9220499396 
13.89352226 -15.39347172 3.151916504 0.9195255637 
15.189641 -15.39373016 3.28720212 0.916220367 
16.6048069 -15.3940134 3.441721201 0.9124596715 
18.18571091 -15.41342735 3.623539448 0.908054471 
19.9978981 -15.47501469 3.843529463 0.9027527571 
24.16657448 -15.47585869 4.36199379 0.8903799057 
34.37567902 13.13142014 5.593394756 0.8616688251 
32.25291061 15.73486805 5.454777718 0.8648540378 
22.1752224 13.37958908 3.936657667 0.9005175829 
20.58958626 16.5268898 4.013140202 0.8986862302 
36.80548096 32.3380661 7.447101116 0.8201842308 
33.66067123 32.33869171 7.095092773 0.8279053569 
30.79372787 32.3392601 6.787622929 0.8347089291 
28.37493324 39.12763214 7.346702099 0.8223790526 
25.96254158 48.21712875 8.323974609 0.8012625575 
18.17327309 48.21791458 7.832456589 0.811814487 
13.50760937 48.53483963 7.65772438 0.8155990839 
11.12037373 48.15628433 7.512427807 0.8187593222 
8.884601593 48.15673065 7.443397522 0.8202651143 
4.517695427 32.54138947 4.993759155 0.8755321503 
0.2142553627 48.15846634 7.320204258 0.8229593635 
-2.757170439 32.53292465 4.962764263 0.8762548566 
-7.167087078 32.34680939 5.035992146 0.8745485544 
-8.713541985 32.42314911 5.103218079 0.8729850054 
-11.88628674 32.40784454 5.246901512 0.8696526289 
-13.55172062 32.41008759 5.339675903 0.8675076365 
-7.349694729 13.94552994 2.396107197 0.9382120967 
-7.821091175 12.09433937 2.189249516 0.9433921576 
-8.085307121 11.3607626 2.119524717 0.9451447129 
-51.74725342 -20.82983398 8.478953362 0.7979639173 
-40.01895523 -18.21747971 6.683541775 0.8370246887 
-35.73612595 -18.22840691 6.097761631 0.8501778245 
-17.30212212 -15.75628853 3.557027578 0.9096633792 
-16.69234085 -16.6182518 3.580259323 0.909101069 
-14.21244335 -15.46803188 3.192938805 0.9185221195 
-12.99245358 -15.46828079 3.070538282 0.9215195775 
-11.86018753 -15.4685154 2.962804556 0.9241659045 
-9.799875259 -15.45440388 2.781559944 0.9286352396 
-8.870036125 -15.46911144 2.710441828 0.9303948283 
-7.12528038 -15.46947193 2.588813305 0.9334118366 
-6.301281452 -15.4553709 2.536980867 0.9347005486 
-4.010275841 -15.47011185 2.429194689 0.9373860955 
-3.28348875 -15.47025394 2.403874159 0.938018024 
-1.867702603 -15.47054672 2.368613005 0.938898921 
-1.172614694 -15.4706831 2.358304977 0.9391565919 
-0.4820483327 -15.4708252 2.352721214 0.9392961264 
0.8959692121 -15.47110271 2.355562925 0.9392250776 
1.589045405 -15.47124958 2.364016294 0.9390137792 
5.409968376 -27.92710876 4.323863029 0.8912840486 
6.711315632 -27.92738152 4.365840435 0.890288651 
7.553234577 -26.23321152 4.149467468 0.8954310417 
8.2742939 -24.56982422 3.940726757 0.9004201293 
8.274870872 -21.37633705 3.484177113 0.9114291668 
8.275309563 -18.8419323 3.128042459 0.9201101661 
8.275680542 -16.77350616 2.843014956 0.9271173477 
11.43249226 -15.47328568 2.924287319 0.9251139164 
12.4941864 -15.42447758 3.01720643 0.9228286743 
16.39637375 -15.4742918 3.42692256 0.9128192067 
17.86513901 -15.41694832 3.586853504 0.9089415669 
19.63437271 -15.47494602 3.799970627 0.9037999511 
21.54107666 -15.47532654 4.031619072 0.8982442617 
23.69948006 -15.47575665 4.302366257 0.8917942047 
26.32539749 -15.56552696 4.648625851 0.8836125135 
78.21617889 25.18350601 12.48998737 0.7171595097 
32.27245712 13.66313934 5.326963902 0.8678013086 
20.99841499 13.71197033 3.812021494 0.9035102129 
20.78907013 14.93507004 3.89087081 0.9016157389 
20.57844925 16.21903801 3.982685566 0.8994150162 
28.81634903 32.50445557 6.602729797 0.8388271332 
29.85265732 44.41000366 8.133727074 0.8053303957 
28.43962669 46.6650238 8.306591034 0.8016332984 
24.48643303 49.63013077 8.412032127 0.7993865609 
18.66518211 48.21756363 7.859084129 0.8112392426 
13.89545155 48.26037598 7.63363266 0.8161220551 
2.794069767 48.2460289 7.345723152 0.8224004507 
0.6427538991 48.1583786 7.320767879 0.8229469657 
-2.491066933 32.86549759 5.009913445 0.8751557469 
-3.905036449 32.3461647 4.952347755 0.8764978051 
-8.385233879 32.34705353 5.079299927 0.8735409975 
-10.01173115 32.57995224 5.180731773 0.8711856604 
-11.56006336 32.40740204 5.229967594 0.8700446486 
-13.21369362 32.40962982 5.31999445 0.8679620624 
-14.92902088 32.41194153 5.424131393 0.8655596375 
-46.30821991 89.7963028 15.35722828 0.6644622684 
-7.443742275 12.98168755 2.274604797 0.9412512779 
-8.03367424 11.5034914 2.132733107 0.9448124766 
-8.966872215 11.69473076 2.239999056 0.9421186447 
-60.77834702 -17.79288101 9.626104355 0.7739665508 
-41.00519943 -18.22735786 6.820864201 0.8339706063 
-25.6056881 -12.77524376 4.349615574 0.8906733394 
-32.79761505 -18.22898483 5.703540325 0.8591461778 
-29.61478233 -18.22964287 5.2859478 0.8687490821 
-26.80150032 -18.19003868 4.923513889 0.8771708012 
-18.44144821 -15.07461357 3.620466948 0.9081286788 
-16.86795616 -16.49687004 3.586302519 0.9089548588 
-14.41576385 -15.41154766 3.207651854 0.9181624651 
-9.006837845 -15.38877392 2.710297823 0.930398345 
-8.152746201 -15.46925735 2.657910109 0.9316966534 
-6.468342304 -15.46960449 2.548672199 0.9344097376 
-5.67386961 -15.46977043 2.504589558 0.9355067611 
-4.904914379 -15.46992111 2.466805935 0.9364480972 
-4.157497406 -15.47007751 2.434901714 0.9372437 
-3.427595139 -15.47022438 2.408515453 0.9379022121 
-2.007502317 -15.47051716 2.37124896 0.9388329983 
-1.311144948 -15.47065353 2.359986305 0.9391145706 
-0.6198657155 -15.47079563 2.353465796 0.9392775893 
3.877058029 -27.92679596 4.285612583 0.8921920061 
6.449035645 -27.9273243 4.356693745 0.8905055523 
7.553073406 -27.13936043 4.281989574 0.8922780156 
8.274767876 -21.95487213 3.56632185 0.9094384909 
8.275612831 -17.15637589 2.89531827 0.9258276224 
10.14940166 -15.39270973 2.802535534 0.9281169176 
13.47402096 -15.47369576 3.118742228 0.920337975 
14.73443604 -15.47394466 3.247794151 0.9171818495 
16.10678482 -15.47422791 3.395036459 0.9135942459 
19.20787239 -15.41782665 3.743828058 0.9051516056 
21.14108086 -15.47525311 3.98238945 0.8994220495 
32.39961243 13.37831497 5.328093052 0.8677752018 
21.20103264 13.57675552 3.8267169 0.9031566978 
41.86439514 32.39600372 8.046188354 0.8072090149 
35.55096054 32.95863342 7.368746758 0.8218968511 
31.91028976 32.33904266 6.905727386 0.8320889473 
29.18815041 32.33957291 6.62171936 0.8384030461 
28.37387848 34.39759064 6.777730942 0.8349288106 
28.3746109 37.69715118 7.171790123 0.8262168169 
25.03785896 49.63002396 8.449443817 0.7985910773 
21.74135399 48.33001709 8.055306435 0.8070133328 
16.71766853 48.21894836 7.757333279 0.8134393692 
9.774093628 48.15655518 7.469086647 0.8197044134 
5.035895824 32.07300186 4.934855938 0.8769060373 
5.379626274 48.15742874 7.365506649 0.8219676614 
3.245610237 48.55435944 7.396774769 0.8212836981 
-3.613361835 32.34610367 4.947218418 0.8766174316 
-5.078820705 32.3463974 4.976923943 0.8759247065 
-6.565238953 32.34669113 5.016978741 0.8749912381 
-8.078497887 32.34699249 5.067790985 0.8738086224 
-9.801837921 32.9377594 5.223555565 0.870193243 
-12.87843704 32.40917587 5.300908089 0.8684033155 
-14.58069897 32.41146851 5.402129173 0.8660666943 
-7.98182106 11.64865685 2.146395922 0.9444689155 
-7.099157333 8.60628891 1.695791006 0.9558652043 
-20.26202011 8.366301537 3.332065344 0.9151269794 
-42.00773239 -18.22714806 6.960377693 0.8308793902 
-24.85034943 -18.1904335 4.681113243 0.8828487396 
-18.54171181 -14.88310051 3.613985538 0.9082853198 
-16.04621696 -15.41602993 3.382271767 0.9139047861 
-14.65222836 -15.38762188 3.229676485 0.9176242948 
-12.30348396 -15.46841717 3.004270554 0.9231464863 
-11.2174921 -15.46863747 2.904414654 0.9256034493 
-10.14665794 -15.38854504 2.801777363 0.9281356335 
-8.329425812 -15.46922302 2.670533895 0.931383729 
-5.030700684 -15.38958931 2.461041451 0.936591804 
-2.147761106 -15.47048759 2.374082327 0.9387622476 
-1.449880362 -15.47062969 2.361852646 0.939067781 
-0.7579223514 -15.47077084 2.354391813 0.9392543435 
-0.06882568449 -15.47090816 2.351617098 0.9393237829 
0.6198754907 -15.47104931 2.353499413 0.9392766356 
1.311174273 -15.47119141 2.360064745 0.9391125441 
6.857800007 -21.62859344 3.448864698 0.9122861624 
8.275539398 -17.55403328 2.949872017 0.9244841933 
9.056022644 -15.47280216 2.725097656 0.9300318956 
12.08425999 -15.47341728 2.984241486 0.9236388206 
14.47409916 -15.47389603 3.220629692 0.9178453088 
17.29935265 -15.47447205 3.528017521 0.9103661776 
18.93133926 -15.47480392 3.716616154 0.9058074355 
20.64333153 -15.3948288 3.914275408 0.9010542631 
26.4186058 -16.26221657 4.715465069 0.8820418715 
26.32125664 -14.62913513 4.577276707 0.8852923512 
32.48216629 13.07504368 5.322308064 0.8679087758 
32.39864731 14.74855423 5.410877705 0.8658651114 
32.48310852 32.33892822 6.967150211 0.830729723 
29.71441078 32.33946609 6.675568581 0.8372021914 
28.37374687 33.7806282 6.705634594 0.8365324736 
28.47795677 40.77786636 7.560181618 0.8177197576 
25.59425545 49.62991714 8.487851143 0.7977749109 
22.92995834 49.78245163 8.331083298 0.8011108041 
17.20007515 48.21860886 7.781608582 0.8129138947 
14.79806805 48.15554428 7.657496929 0.8156039119 
6.797331333 32.02583313 4.976393223 0.8759369254 
5.313835144 31.98184967 4.92791605 0.8770680428 
1.500544429 48.1582222 7.32364893 0.8228839636 
-0.6431762576 48.15863037 7.320810795 0.8229461312 
-2.491940975 43.02890396 6.551394939 0.8399740458 
-3.322253227 32.34605026 4.942495823 0.8767277002 
-4.784330845 32.34633636 4.970167637 0.8760822415 
-9.49728775 32.98510742 5.21745348 0.870334506 
-12.54554749 32.40872955 5.282369137 0.8688319325 
-16.03343964 32.49723434 5.508105755 0.8636271954 
-6.596423149 11.99385452 2.080612659 0.9461241364 
-7.929675102 11.79650688 2.160541058 0.9441133738 
-20.19882393 8.551540375 3.33406353 0.9150782824 
-43.04005814 -18.22168922 6.667711258 0.8279136419 
-38.2229538 -18.22790527 6.041201591 0.8427354693 
-23.85899162 -12.71027088 3.85658741 0.8965257406 
-17.45814133 -15.06585884 3.289755106 0.9110348225 
-17.1840744 -16.21768951 3.370845795 0.9089447856 
-16.06779099 -16.57625008 3.293400288 0.9109407067 
-13.71303463 -15.46813488 2.948997974 0.9198697805 
-12.46479225 -15.38807583 2.825120449 0.9231029153 
-11.42900085 -15.46860313 2.743753195 0.9252327085 
-10.34429455 -15.38849545 2.645232439 0.9278182387 
-9.427429199 -15.46900368 2.584342957 0.9294194579 
-6.794206619 -15.4695406 2.410357952 0.9340106249 
-5.988332272 -15.46970654 2.366490841 0.935171783 
-3.698400736 -15.38985348 2.258029699 0.9380490184 
-2.276355028 -15.39014149 2.219448566 0.9390745759 
-1.588908672 -15.4706049 2.218649864 0.9390957952 
-0.8959545493 -15.47074223 2.210756779 0.9393057227 
0.4820581079 -15.47102547 2.208168983 0.9393745661 
1.172590256 -15.47116184 2.21345067 0.9392341375 
1.85811758 -15.39098644 2.21162653 0.9392826557 
7.553478718 -24.58019447 3.668453217 0.9013155699 
8.27449894 -23.19684601 3.513503313 0.9052797556 
8.275769234 -16.04744148 2.575832367 0.9296435118 
9.808678627 -15.46815872 2.612959623 0.928666532 
14.21794605 -15.47384262 2.997868776 0.9185975194 
16.99245262 -15.47441387 3.27870965 0.9113199115 
20.26437759 -15.39475536 3.630537033 0.9022839665 
24.63715553 -15.46964359 4.150162697 0.8891022205 
26.55207634 -15.06841278 4.355390549 0.8839491606 
38.28905106 -11.57999992 5.706673622 0.8507581353 
34.49350357 13.52925301 5.285834312 0.8609592319 
21.6524334 13.32833958 3.627254009 0.9023678303 
39.56022263 32.3375206 7.289265633 0.8134666085 
36.24978256 32.42589951 6.938463211 0.8215891719 
28.43491936 33.24806213 6.241242409 0.8379742503 
28.37589455 43.88002396 7.454801083 0.809661746 
25.62928009 48.63010788 7.84209156 0.8008289337 
22.84408379 48.45663071 7.642510891 0.8053685427 
15.26849365 48.15545273 7.206920624 0.8153660297 
4.189484596 32.284729 4.644361973 0.8767440915 
-2.343225002 47.83300781 6.832051277 0.8240690231 
-4.490544319 32.34627914 4.658785343 0.876386106 
-5.967802525 32.34656906 4.692451 0.8755508661 
-7.469572544 32.34687042 4.736051083 0.8744702935 
-9.157995224 32.90571976 4.872756004 0.871091187 
-13.86518383 32.34814453 5.020841599 0.8674452305 
-7.134440899 13.24992275 2.146839619 0.9410077333 
-7.936027527 13.28648853 2.207831621 0.9393835664 
-7.552575588 11.45430851 1.957322359 0.94607234 
-20.27907753 8.799102783 3.153618813 0.9145543575 
-44.14209747 -18.22672844 6.813034058 0.8245129585 
-27.49089622 -12.81093025 4.326796055 0.8846654892 
-24.39438438 -12.71807575 3.924677134 0.8947985172 
-28.40471458 -18.1897316 4.811888218 0.8725939989 
-25.80147171 -18.19024467 4.50363493 0.8802454472 
-17.25431442 -15.99607372 3.35656786 0.9093124866 
-16.34694099 -16.56664085 3.320267916 0.9102478623 
-10.59932327 -15.46876431 2.675128222 0.9270327091 
-9.617243767 -15.46896458 2.598533154 0.9290459752 
-3.863654613 -15.47013664 2.274763823 0.9376045465 
-3.139904737 -15.47028255 2.251992464 0.9382093549 
-2.429113626 -15.47042942 2.234055996 0.9386861324 
-1.02880609 -15.39039993 2.200499535 0.939578712 
0.3424828947 -15.39067841 2.196181297 0.9396936297 
6.974836349 -27.92743683 4.106510639 0.890202105 
7.553332329 -25.3820591 3.777945995 0.8985248804 
8.274376869 -23.86557961 3.60349369 0.9029752612 
8.275359154 -18.39550209 2.877622843 0.9217312336 
8.275710106 -16.40408134 2.621151686 0.9284510612 
8.690036774 -15.47272873 2.531654358 0.9308074117 
9.61969471 -15.4729147 2.599194288 0.9290285707 
10.60231209 -15.47311974 2.675882578 0.9270129204 
13.89346409 -15.39347172 2.958222866 0.9196295738 
16.60490417 -15.3940134 3.230233192 0.912571907 
18.25788689 -15.47466278 3.414369345 0.9078251123 
19.99802399 -15.47502422 3.607347965 0.9028766751 
21.89332199 -15.4349556 3.821470976 0.8974177837 
24.16680336 -15.47586918 4.093969822 0.8905183673 
33.0084343 14.32241154 5.133168221 0.8646898866 
21.83212662 13.17247009 3.637571335 0.9021041989 
20.82390404 13.86390591 3.568909883 0.9038602114 
36.80562592 32.3380661 6.989490986 0.8204027414 
33.66043091 32.33869171 6.659062862 0.8281164169 
30.79380608 32.33925629 6.370515823 0.8349117637 
28.37408447 35.67294312 6.502626896 0.8317936659 
28.37483978 39.12786865 6.895257473 0.8225950599 
20.64009476 48.15437317 7.474167347 0.8092176914 
18.14970398 48.15487289 7.341540813 0.8122631907 
15.74144268 48.15535355 7.227583408 0.8148888946 
13.50767326 48.53454971 7.187097073 0.8158237338 
5.999994755 32.52112579 4.717774391 0.8749231696 
4.433903694 31.93822861 4.600013256 0.8778460622 
0.214289546 48.15846634 6.870368481 0.8231752515 
-2.757153273 32.53298187 4.657802582 0.8764104843 
-7.166943073 32.34680557 4.726516724 0.8747065067 
-8.713522911 32.42309189 4.789611816 0.8731448054 
-11.8642807 32.34774399 4.915338516 0.8700410724 
-13.52567577 32.34807587 5.001946449 0.8679094911 
-51.93809509 88.73912048 14.66849613 0.6600438952 
-7.499950886 11.597785 1.970354319 0.945723176 
-10.83398151 12.66782856 2.377978086 0.9348676801 
-28.04244614 -12.7654438 4.395549297 0.8829444647 
-35.73596954 -18.22840309 5.72302866 0.850364089 
-32.05091476 -18.18899345 5.257363796 0.8616534472 
-28.96903419 -18.18961906 4.879868507 0.8709155321 
-23.94459724 -18.1906147 4.289882183 0.8855907917 
-16.62785912 -16.55401421 3.347263098 0.9095520973 
-14.21258068 -15.46803188 2.996738195 0.9186269045 
-12.99245834 -15.46827602 2.881850004 0.921620965 
-10.80286884 -15.4687252 2.69164443 0.9265991449 
-9.809157372 -15.46892548 2.613085508 0.9286631346 
-8.870017052 -15.46912098 2.543878317 0.930485189 
-4.01023674 -15.47010708 2.279915094 0.9374676943 
-3.283503294 -15.47025871 2.25615263 0.9380987883 
-2.57038331 -15.47040462 2.237267494 0.9386007786 
-1.867712379 -15.47054672 2.22305727 0.9389785528 
-1.172565937 -15.47068787 2.21338129 0.9392359257 
0.2065454125 -15.47096634 2.207289457 0.9393980503 
0.8959692121 -15.47110271 2.210811377 0.9393043518 
4.130641937 -27.92685509 4.027396679 0.8921990395 
5.409870625 -27.92711449 4.058153152 0.8914221525 
7.284108639 -21.62943268 3.255937338 0.9119077921 
8.274821281 -21.37638664 3.27007246 0.9115428329 
8.27527523 -18.84173775 2.935790539 0.9202139974 
8.46558857 -15.39236259 2.506079435 0.9314819574 
9.429797173 -15.47288036 2.584991455 0.929402411 
12.4941473 -15.42433071 2.831776381 0.9229289889 
13.71802902 -15.47375011 2.950069904 0.9198418856 
14.99936199 -15.47400856 3.074406862 0.9166083932 
23.69953728 -15.47576141 4.037988186 0.8919315338 
38.15439606 -10.4360323 5.643054008 0.8522924781 
77.6028595 24.98585892 11.63052177 0.719350934 
20.19365501 13.18642521 3.440646887 0.9071497917 
21.49232101 15.44040012 3.775316 0.8985917568 
41.02897263 32.33721924 7.452646255 0.8097110987 
37.47284317 32.33794022 7.061264038 0.818736732 
34.26554489 32.33856964 6.721570492 0.8266516924 
28.37468529 38.40374374 6.811882019 0.8245397806 
28.47673035 42.36284637 7.282006264 0.8136336803 
28.4395237 46.66507339 7.796143532 0.8018719554 
23.75789261 48.15375519 7.660232544 0.8049644232 
21.14929962 48.15427017 7.503069401 0.8085555434 
18.64073372 48.15477371 7.366514206 0.8116886616 
16.21717072 48.15526199 7.24894619 0.8143960238 
13.89527512 48.26039886 7.164534092 0.8163453937 
11.572649 48.15618896 7.065569401 0.8186368942 
4.714418888 31.8736515 4.596573353 0.8779315948 
4.957648754 48.27061844 6.922521591 0.8219601512 
2.794069767 48.24605179 6.894320488 0.8226168156 
-3.905080557 32.34616089 4.648019314 0.8766533732 
-5.374309063 32.34645081 4.67781496 0.875913918 
-8.385170937 32.34704971 4.767163754 0.8737000823 
-11.53867435 32.34768295 4.899529934 0.8704307675 
-14.89969826 32.34835052 5.080818176 0.8659728765 
-7.051530838 13.67354488 2.19479084 0.9397306442 
-7.44699955 11.74379349 1.98382318 0.9453625083 
-43.39484406 -8.606703758 6.31130743 0.8363131881 
-61.37117386 -17.96626854 9.122682571 0.7723036408 
-46.46888733 -18.22626495 7.120951176 0.8173536658 
-28.81571198 -12.80910873 4.498706341 0.8803684711 
-26.80173492 -18.1900444 4.620981216 0.8773248792 
-24.39216423 -18.19052696 4.340912819 0.8843123317 
-18.42412758 -15.06034184 3.394780159 0.9083288312 
-14.41580296 -15.4116497 3.010552406 0.9182676077 
-13.22895718 -15.46822739 2.903659344 0.9210518599 
-12.01762867 -15.3881588 2.785416126 0.9241415262 
-9.006887436 -15.38876915 2.543744802 0.930488646 
-8.152702332 -15.46925735 2.494575977 0.9317854643 
-7.292834282 -15.46943855 2.439819336 0.9332315922 
-6.468268871 -15.46960449 2.392048597 0.934495151 
-4.904987812 -15.46992111 2.315220833 0.9365307689 
-2.712087393 -15.47037029 2.240664005 0.9385104775 
-2.007565975 -15.47051716 2.225533009 0.9389127493 
-0.619899869 -15.4708004 2.208838224 0.9393568039 
0.06885498017 -15.47093678 2.207108974 0.9394028187 
0.7578979135 -15.47107887 2.209754705 0.9393324256 
5.152409554 -27.92705917 4.051317692 0.891594708 
6.448976994 -27.92733383 4.088963985 0.8906445503 
8.274728775 -21.95447731 3.347109318 0.9095560908 
8.27557373 -17.15649414 2.717408419 0.9259232879 
8.288020134 -15.39232922 2.493964195 0.9318015575 
10.20237064 -15.473032 2.644045353 0.9278492928 
11.16266823 -15.39291477 2.712596178 0.9260494709 
13.47397232 -15.47369576 2.927083969 0.9204409122 
19.20783424 -15.41785622 3.513763428 0.9052730799 
26.74854279 -16.13885307 4.456724644 0.8814157844 
67.42056274 -22.37158585 10.13391781 0.7504980564 
34.49417114 12.47766113 5.233013153 0.8622483015 
33.16677094 13.69490719 5.119068623 0.8650352955 
21.25027084 13.60816383 3.599891901 0.90306741 
20.88919067 14.72708702 3.646206617 0.9018836617 
38.15393829 32.33780289 7.135087013 0.8170264363 
31.91013336 32.33903885 6.48134613 0.8322951794 
28.373806 34.39760971 6.36122036 0.8351317048 
28.37452316 37.69688797 6.731035709 0.8264300227 
28.75401497 41.96379471 7.257121563 0.8142074943 
28.37628174 45.64228058 7.667153358 0.8048067689 
19.13521194 48.15467834 7.392263412 0.8110970259 
16.69577408 48.15516663 7.271008015 0.8138872385 
4.980139256 31.71745491 4.580259323 0.8783373833 
5.379523754 48.15742874 6.91287756 0.8221846223 
3.245734692 48.55475616 6.942291737 0.8215000629 
1.071662545 48.15829468 6.871970177 0.8231377602 
-2.346110821 35.09684753 5.018098831 0.8675125837 
-5.078959942 32.34639359 4.671083927 0.8760808706 
-63.5912056 -18.0033493 9.428488731 0.7656433582 
-47.39265442 -15.72590828 7.123538494 0.817293644 
-41.91521454 -18.18701172 6.518267155 0.8314253092 
-37.36365891 -18.22807503 5.930799961 0.845374763 
-23.41976547 -12.74517536 3.803774834 0.8978677392 
-27.32172966 -18.18993568 4.68254137 0.8757966161 
-24.85046577 -18.19042969 4.393466473 0.8829964399 
-18.52426529 -14.869174 3.388714552 0.9084848762 
-17.67409325 -15.52877903 3.356356621 0.9093178511 
-16.97833252 -16.31159592 3.358828068 0.9092542529 
-14.65229702 -15.38761711 3.031215429 0.9177303314 
-13.46910381 -15.46817875 2.926036596 0.9204682708 
-12.23961163 -15.38811493 2.805013895 0.9236287475 
-5.830564022 -15.4697361 2.358464956 0.9353844523 
-4.305456638 -15.4700489 2.290837288 0.9371777177 
-1.449909687 -15.47063446 2.216714382 0.939147234 
-0.7578881383 -15.47077084 2.209708929 0.9393336177 
-0.06886474788 -15.47091293 2.207104206 0.9394028783 
0.6199438572 -15.47105408 2.20887661 0.9393557906 
1.311188936 -15.47119141 2.215036154 0.9391919374 
3.623986721 -27.92674255 4.01744175 0.8924506307 
4.895827293 -27.92701149 4.044830799 0.8917585611 
8.273982048 -26.095438 3.905427217 0.8952863812 
8.275104523 -19.79074097 3.060220242 0.9169766903 
8.275500298 -17.5538578 2.768570185 0.924582541 
8.275827408 -15.7028904 2.53225255 0.9307917356 
9.056066513 -15.47279739 2.557639599 0.9301226735 
11.01212597 -15.47319794 2.709370375 0.9261341691 
12.02147198 -15.39308548 2.786307096 0.9241182208 
13.23360062 -15.47364235 2.904675484 0.9210253358 
15.82238483 -15.4741745 3.157268047 0.914459765 
17.29935265 -15.47447205 3.311216354 0.9104812741 
22.80216408 -15.47558117 3.931402445 0.8946280479 
26.49663353 -16.31024933 4.438764095 0.8818643093 
26.02630615 -14.46536064 4.247858047 0.8866453171 
35.90737915 32.69958878 6.928366661 0.8218243122 
29.71465111 32.33947372 6.265363693 0.8374019265 
28.37366867 33.78050232 6.293542385 0.8367339969 
27.64703369 48.21592331 7.929055214 0.7988590002 
22.92983627 49.78245163 7.819120407 0.8013501167 
17.17730713 48.15507126 7.29378891 0.8133623004 
12.48325443 48.15600967 7.097015858 0.8179079294 
5.274765491 31.74710846 4.591139317 0.8780667782 
-0.6429662704 48.15862656 6.870931625 0.8231620193 
-2.594577551 44.80142593 6.402095318 0.8341655135 
-3.322106838 32.34604263 4.638769627 0.8768830299 
-4.784345627 32.34633636 4.664738178 0.8762382865 
-6.265969276 32.34662628 4.700362206 0.8753547072 
-7.773481369 32.34692764 4.745999813 0.8742238879 
-10.89366722 32.34755325 4.869367123 0.8711746335 
-14.20730972 32.34820938 5.040270805 0.8669677973 
-6.966032505 14.11911201 2.24605155 0.9383673072 
-7.160969257 13.02026176 2.11987114 0.9417268038 
-7.339975357 12.04380703 2.012109041 0.9446054101 
-7.604885101 11.31327152 1.94470787 0.946410358 
-51.74705124 -19.24106979 7.876057148 0.8000590205 
-43.04005814 -18.22167015 6.667713642 0.8279137015 
-23.85902023 -12.71027088 3.856590986 0.896525681 
-21.65624046 -12.80490208 3.58914113 0.9033424854 
-27.85581779 -18.18983841 4.746140003 0.8742203712 
-17.45814133 -15.06586838 3.289755106 0.9110347629 
-16.06780052 -16.57625008 3.293400764 0.9109407067 
-11.42897701 -15.4685936 2.743749142 0.9252327681 
-10.34427929 -15.38849545 2.645226955 0.9278182983 
-8.507839203 -15.46919441 2.518587589 0.9311519861 
-7.632218838 -15.46937466 2.460846424 0.9326760173 
-5.209773064 -15.46986294 2.328723669 0.9361727238 
-4.454152584 -15.47001457 2.296612501 0.9370244741 
-3.698386192 -15.38985348 2.258029461 0.938049078 
-2.996804237 -15.47031212 2.248026609 0.9383147955 
-2.276350021 -15.39015102 2.219450712 0.9390745163 
-1.588908672 -15.4706049 2.218649864 0.9390957952 
-0.8959545493 -15.47074223 2.210757494 0.9393057227 
4.64004612 -27.92695808 4.038685322 0.8919138312 
5.927482605 -27.92722511 4.072853088 0.8910509944 
7.553478718 -24.58019447 3.668453217 0.9013155699 
8.275422096 -17.96661186 2.821941137 0.9231860638 
8.275769234 -16.04741096 2.575828075 0.929643631 
8.872126579 -15.47276783 2.544482946 0.9304693341 
9.808673859 -15.46814919 2.612958431 0.928666532 
10.80596447 -15.4731493 2.69241786 0.926578939 
11.8024292 -15.39304161 2.767179251 0.924619019 
12.99691582 -15.47360325 2.882840395 0.9215950966 
14.21792698 -15.47384262 2.997866392 0.918597579 
16.99251175 -15.4744091 3.278714418 0.9113197923 
18.59096336 -15.47473145 3.45076108 0.9068898559 
20.2644062 -15.39475536 3.630541801 0.9022838473 
65.74184418 -23.12133217 9.941867828 0.754591167 
38.28904343 -11.57997513 5.706670284 0.8507581949 
34.49322128 13.52919388 5.285792351 0.8609602451 
33.06637955 32.33880615 6.598227501 0.8295446038 
28.43491936 33.24810028 6.241248131 0.8379741311 
28.37501144 39.86992645 6.981245518 0.8205940723 
25.62928009 48.62999725 7.842074871 0.8008292317 
17.66187668 48.15496826 7.317287922 0.8128210902 
10.66978741 48.15636444 7.036613464 0.819308579 
5.570302486 31.77435684 4.602065563 0.8777950406 
4.203203201 49.59512711 7.10062933 0.8178245425 
1.929763198 48.15813065 6.875764847 0.8230494261 
-3.031413555 32.34598541 4.634710789 0.8769839406 
-5.967875957 32.34656906 4.692454338 0.8755508065 
-9.158117294 32.90600204 4.872793674 0.8710901141 
-12.19200802 32.34781265 4.931641579 0.8696393967 
-13.86521339 32.34814453 5.020842552 0.8674451709 
-7.134440899 13.24992275 2.146839619 0.9410077333 
-8.899204254 11.18841362 2.03947711 0.9438735247 
-46.44774246 -16.80167007 7.046445847 0.8190802336 
-27.49089622 -12.81093025 4.326796055 0.8846654892 
-24.39438438 -12.71807575 3.924677134 0.8947985172 
-28.40476227 -18.18972588 4.811894417 0.8725938797 
-25.80154419 -18.19024849 4.503642559 0.8802452683 
-16.96698952 -14.38049793 3.172955751 0.9140535593 
-12.75940132 -15.46832466 2.860584974 0.9221762419 
-11.64316654 -15.4685545 2.762009859 0.9247543216 
-9.617218971 -15.46896458 2.598531961 0.9290460348 
-8.688014984 -15.46914959 2.53106904 0.9308229089 
-6.147184849 -15.4696722 2.37476182 0.9349527359 
-4.60365963 -15.46998501 2.302600145 0.9368655682 
-3.86365962 -15.47013664 2.27476263 0.9376045465 
-2.429128408 -15.47043419 2.234056234 0.9386861324 
-1.728195786 -15.47057629 2.220763206 0.939039588 
-1.028830528 -15.39039993 2.20050025 0.939578712 
4.385021687 -27.92689896 4.03287077 0.8920606971 
6.9748559 -27.92743683 4.106511116 0.890202105 
8.274376869 -23.86557961 3.60349369 0.9029752612 
8.274909019 -20.82423782 3.196744204 0.9134378433 
8.275353432 -18.39552689 2.877625942 0.921731174 
8.690016747 -15.47272873 2.53165555 0.9308074713 
10.60227776 -15.47311497 2.675879955 0.92701298 
11.64535332 -15.47146416 2.762532711 0.9247407317 
12.76371288 -15.47355461 2.861551762 0.9221509695 
13.89352226 -15.39347172 2.958227873 0.919629395 
15.18962574 -15.3937254 3.085198879 0.916328311 
16.6049633 -15.3940134 3.230238676 0.9125717282 
18.25795555 -15.47465801 3.414374828 0.9078249335 
19.99808311 -15.47502422 3.607354164 0.9028764963 
38.25266266 -10.0979414 5.644075394 0.8522678018 
33.00843048 14.3223629 5.133163929 0.8646900058 
30.79373169 32.3392601 6.370509624 0.8349118829 
28.59281349 32.83655548 6.21151638 0.8386800885 
28.37483978 39.12786865 6.895257473 0.8225950599 
23.26600266 48.23387527 7.639744759 0.8054318428 
15.74152565 48.15535355 7.227586746 0.814888835 
13.50771713 48.53445816 7.187093258 0.8158239722 
5.999867916 32.52082062 4.717725754 0.8749243021 
4.556025505 48.61413956 6.965696335 0.8209556937 
2.359069824 48.15804672 6.878480911 0.8229861856 
0.2142553627 48.15846634 6.870368481 0.8231752515 
-1.929782629 48.15887451 6.875864506 0.8230469227 
-2.757172823 32.53296661 4.657801628 0.8764105439 
-8.713522911 32.42309189 4.789611816 0.8731448054 
-10.27316093 32.40068436 4.849070549 0.8716756701 
-13.52562428 32.34807587 5.001943111 0.8679095507 
-7.093286037 13.45914745 2.170423269 0.9403794408 
-20.15042686 8.957233429 3.145885468 0.9147546887 
-46.04147339 -16.19273949 6.962666035 0.8210260272 
-45.2798996 -18.22649384 6.963329315 0.8210106492 
-35.73578262 -18.22840691 5.723004818 0.8503646255 
-26.29508972 -18.19014549 4.561364174 0.8788074851 
-17.35962677 -14.44985771 3.22220993 0.9127792716 
-17.16053009 -15.62749004 3.311136961 0.9104832411 
-10.80286884 -15.4687252 2.69164443 0.9265991449 
-9.809186935 -15.46892548 2.613087654 0.928663075 
-8.870040894 -15.46912098 2.543880463 0.9304851294 
-7.125275612 -15.46947193 2.429724932 0.9334984422 
-5.518161297 -15.46979904 2.343127966 0.9357908964 
-4.75387907 -15.46995544 2.308802128 0.9367010593 
-4.010202408 -15.47010708 2.279914618 0.9374677539 
-3.28348875 -15.47025394 2.256152391 0.9380988479 
-1.867697716 -15.47054672 2.223056555 0.9389786124 
-1.172546387 -15.47068787 2.21338129 0.9392359257 
0.2065454125 -15.47096634 2.207289457 0.9393980503 
1.588981867 -15.47124958 2.218741417 0.9390933514 
4.130641937 -27.92685509 4.027396679 0.8921990395 
6.711330414 -27.92738152 4.097556591 0.8904278874 
7.28406477 -21.6294384 3.255936146 0.9119077921 
8.274816513 -21.37649345 3.270087242 0.9115424752 
8.275631905 -16.77342224 2.668293953 0.9272121787 
8.465637207 -15.39236736 2.506082058 0.9314818382 
9.429826736 -15.47288036 2.584993124 0.9294023514 
10.40118408 -15.4730711 2.659764767 0.9274362326 
11.43249226 -15.47328568 2.744584084 0.9252108335 
16.39636421 -15.47428703 3.216329813 0.9129313231 
17.86508942 -15.41704559 3.366441488 0.9090582728 
19.63437271 -15.47494602 3.566456795 0.9039230347 
23.69948006 -15.47576141 4.037981987 0.8919317126 
38.15439606 -10.43597603 5.643050194 0.8522925377 
22.00806808 13.01292896 3.647452831 0.9018518329 
21.49255562 15.44060993 3.775361776 0.8985906243 
37.47284317 32.33794022 7.061264038 0.818736732 
31.34719467 32.33914566 6.425197124 0.8336196542 
28.85772705 32.55113602 6.205875874 0.8388141394 
28.37467957 38.40369034 6.811876774 0.8245398998 
26.51839066 48.21672821 7.850300789 0.8006427288 
23.75776482 48.153759 7.660224915 0.804964602 
18.6406517 48.15477371 7.366510391 0.8116887808 
16.21710205 48.15526199 7.248941898 0.814396143 
13.89524174 48.26041031 7.164534569 0.8163453937 
9.328557014 48.1566391 6.997744083 0.8202107549 
4.714418888 31.8736515 4.596573353 0.8779315948 
4.957648754 48.27061844 6.922521591 0.8219601512 
2.794069767 48.24605179 6.894320488 0.8226168156 
-2.490947247 32.86591339 4.702106953 0.8753114343 
-5.374279499 32.34645081 4.677814007 0.875913918 
-8.385246277 32.34704971 4.767166615 0.8736999631 
-10.01186275 32.57990265 4.862369061 0.8713474274 
-11.53874969 32.34768295 4.899529934 0.8704306483 
-14.89974785 32.34835052 5.080821514 0.8659727573 
-7.051540375 13.67350674 2.19478631 0.9397307634 
-7.44699955 11.74379349 1.98382318 0.9453625083 
-10.30377865 12.26724911 2.285476446 0.9373201132 
-61.37117386 -17.96642494 9.12268734 0.7723035216 
-47.09772491 -16.0948143 7.100465775 0.8178280592 
-28.81571198 -12.80910873 4.498706341 0.8803684711 
-32.79792786 -18.22898483 5.353084087 0.8593208194 
-29.61478233 -18.22964859 4.961120605 0.8689136505 
-26.80173492 -18.1900444 4.620981216 0.8773248792 
-24.39216423 -18.19052696 4.340912819 0.8843123317 
-18.42412758 -15.06034184 3.394780159 0.9083288312 
-17.55326462 -15.70160103 3.359814405 0.9092288613 
-16.80264854 -16.43285179 3.352872133 0.9094076157 
-13.22902584 -15.46822739 2.903662682 0.921051681 
-10.0032196 -15.46888638 2.628011942 0.928270638 
-6.468268871 -15.46960449 2.392048597 0.934495151 
-5.67386961 -15.46977043 2.350677013 0.935590744 
-4.904987812 -15.46992111 2.315220833 0.9365307689 
-4.157497406 -15.47007751 2.285273314 0.9373254776 
-1.31114006 -15.47065926 2.214958191 0.939193964 
-0.6199291945 -15.4708004 2.208838463 0.9393568039 
0.06883056462 -15.4709425 2.207108974 0.9394027591 
3.877058029 -27.9268055 4.022255898 0.8923289776 
5.152477741 -27.9270649 4.051323891 0.8915946484 
6.449045181 -27.92733383 4.088965893 0.8906444907 
8.274118423 -25.31162071 3.79899478 0.8979892731 
8.27557373 -17.15649414 2.717408419 0.9259232879 
8.288020134 -15.39232922 2.493964195 0.9318015575 
9.241926193 -15.47283649 2.571140289 0.9297670722 
10.20237064 -15.473032 2.644045353 0.9278492928 
11.16266823 -15.39291477 2.712596178 0.9260494709 
13.47390366 -15.47369576 2.927078485 0.9204410911 
17.61245346 -15.47453594 3.344645262 0.9096195698 
19.20783424 -15.41778755 3.513757944 0.9052731991 
21.14126205 -15.47524834 3.737687826 0.8995498419 
23.23604202 -15.46975517 3.982311964 0.8933390975 
26.74854279 -16.13878441 4.456721306 0.8814159036 
67.42056274 -22.37158585 10.13391781 0.7504980564 
78.46139526 24.49386597 11.72606373 0.7174071074 
34.49417114 12.47766113 5.233013153 0.8622483015 
21.25027084 13.60816383 3.599891901 0.90306741 
20.88918686 14.72700882 3.646199942 0.9018838406 
41.78858185 32.33707809 7.538043499 0.807755053 
38.15410614 32.33780289 7.135104656 0.8170260191 
35.55110168 32.95847702 6.915917873 0.8221138716 
28.37452316 37.69705963 6.731054306 0.8264296055 
28.37628174 45.64228058 7.667153358 0.8048067689 
27.0799427 48.21631622 7.889177799 0.7997618318 
25.03786278 49.63002014 7.930208683 0.7988328338 
21.70511436 48.2489357 7.547616005 0.807536006 
19.13521194 48.15467834 7.392263412 0.8110970259 
16.69577408 48.15516663 7.271008015 0.8138872385 
12.0269556 48.15610123 7.080979347 0.818279624 
5.379631042 48.15742874 6.912879467 0.8221845627 
1.071562529 48.15829086 6.871969223 0.8231377602 
-1.071782231 48.15871048 6.87203455 0.8231363893 
-3.613349438 32.34610367 4.643205643 0.8767728209 
-5.078959942 32.34639359 4.671083927 0.8760808706 
-6.565238953 32.34668732 4.708677292 0.8751485944 
-8.078630447 32.34699249 4.756374836 0.8739671707 
-9.793566704 32.90997314 4.898419857 0.8704580665 
-14.55210495 32.34828186 5.060268402 0.8664771318 
-47.60794449 -18.18588257 7.270411015 0.8139010072 
-37.36385345 -18.22807503 5.930823326 0.845374167 
-23.41986465 -12.74516582 3.803787231 0.8978674412 
-30.21379662 -18.2295208 5.034082413 0.8671199083 
-27.32183838 -18.18993568 4.682555676 0.8757963181 
-13.46910381 -15.46817875 2.926036596 0.9204682708 
-10.19961166 -15.46884727 2.643327475 0.9278680682 
-9.239660263 -15.46904278 2.57050848 0.9297837019 
-8.329421043 -15.46922779 2.506424189 0.9314728379 
-7.461794376 -15.46940422 2.450191021 0.93295753 
-5.830597878 -15.46974087 2.358466625 0.9353843927 
-5.03071022 -15.38958931 2.309805632 0.9366743565 
-4.305495739 -15.4700489 2.290838957 0.9371776581 
-3.57234621 -15.47019482 2.265060186 0.9378622174 
-2.85417223 -15.47034168 2.244249105 0.9384151697 
-2.147687912 -15.47048759 2.228190899 0.9388421178 
-0.7578490973 -15.47077084 2.209708452 0.9393336177 
-0.06882568449 -15.47091293 2.207104445 0.9394028783 
0.6199438572 -15.47105408 2.20887661 0.9393557906 
1.311188936 -15.47119141 2.215036154 0.9391919374 
3.623986721 -27.92674255 4.01744175 0.8924506307 
7.505363464 -27.92754745 4.125515461 0.8897230029 
8.273982048 -26.095438 3.905427217 0.8952863812 
8.27462101 -22.56067276 3.428160906 0.9074704647 
11.01217461 -15.47320271 2.709373713 0.9261340499 
12.02153015 -15.39308548 2.786312819 0.9241181016 
13.23365974 -15.47364712 2.904681444 0.921025157 
15.82238483 -15.4741745 3.157268047 0.914459765 
18.93117905 -15.47479439 3.488208532 0.9059285522 
22.80216408 -15.47558117 3.931402445 0.8946280479 
26.49663353 -16.31024933 4.438764095 0.8818643093 
26.02630615 -14.46536064 4.247858047 0.8866453171 
34.78622055 12.23425293 5.260582924 0.8615751863 
33.49177551 13.48144054 5.150506496 0.8642654419 
21.37547112 13.4216795 3.600729942 0.9030460119 
20.47790146 15.5570116 3.668794394 0.901306808 
29.71465111 32.33947372 6.265363693 0.8374019265 
28.37366867 33.78050232 6.293542385 0.8367339969 
12.48313236 48.15600586 7.097012997 0.8179080486 
3.759987593 49.60955048 7.097610474 0.81789428 
1.500539541 48.15821075 6.873594761 0.8230999112 
-2.594577551 44.80142593 6.402095318 0.8341655135 
-6.265969276 32.34662628 4.700362206 0.8753547072 
-7.77341032 32.34692764 4.745997429 0.8742239475 
-10.89357853 32.34755325 4.869364738 0.8711747527 
-12.52199554 32.34787369 4.948447704 0.8692255616 
-14.20739269 32.34820938 5.040275097 0.8669676781 
-6.966044903 14.11905766 2.246045589 0.938367486 
-7.604894638 11.31323814 1.944705129 0.9464104176 
-9.337692261 11.52758312 2.116367102 0.9418202043 
-65.04833984 -17.79201126 9.620676994 0.761487186 
-46.92445374 -15.10843182 7.032687664 0.8193995357 
-21.65624046 -12.80490208 3.58914113 0.9033424854 
-27.85581779 -18.18983841 4.746140003 0.8742203712 
-25.32005501 -18.19034195 4.447690487 0.8816413879 
-23.08018684 -18.19079018 4.192366123 0.8880400658 
-17.45814133 -15.06586838 3.289755106 0.9110347629 
-16.06780052 -16.57625008 3.293400764 0.9109407067 
-10.34432316 -15.38849545 2.64523077 0.9278181791 
-9.427457809 -15.46900368 2.584346056 0.9294193983 
-7.6321702 -15.46937466 2.460843086 0.9326760769 
-6.794172287 -15.4695406 2.410356045 0.9340106845 
-5.988307953 -15.46970654 2.36648941 0.9351718426 
-3.698386192 -15.38985348 2.258029461 0.938049078 
-2.276350021 -15.39015102 2.219450712 0.9390745163 
-1.588908672 -15.4706049 2.218649864 0.9390957952 
-0.2065502852 -15.47088337 2.207276821 0.9393983483 
1.1725806 -15.47116184 2.21345067 0.9392341375 
5.927414417 -27.92722511 4.072854519 0.891051054 
7.239562988 -27.92749023 4.115830421 0.8899671435 
7.553483486 -24.580019 3.66843009 0.9013161659 
8.274504662 -23.19670296 3.513484955 0.9052802324 
8.275016785 -20.29616165 3.126863956 0.9152475595 
8.275422096 -17.96651268 2.821928978 0.9231864214 
8.275769234 -16.04741096 2.575828075 0.929643631 
11.8024292 -15.39304161 2.767179251 0.924619019 
16.99243355 -15.4744091 3.278706551 0.9113199711 
24.63714981 -15.46955013 4.150155067 0.8891023993 
34.49322128 13.52919388 5.285792351 0.8609602451 
33.10716629 14.71676254 5.168690205 0.8638204336 
17.34033012 8.651469231 2.764575958 0.9246872067 
21.65241432 13.32835388 3.627254009 0.9023678899 
39.56026459 32.3375206 7.289268494 0.8134664893 
30.2498455 32.3393631 6.317270756 0.8361719251 
28.37422562 36.33236694 6.576524734 0.8300545812 
28.37501144 39.87008286 6.98126936 0.8205936551 
25.62928009 48.63026428 7.842104912 0.8008284569 
20.13471413 48.15447235 7.446075439 0.8098618388 
17.66187668 48.15496826 7.317287922 0.8128210902 
15.26846409 48.15545273 7.206921101 0.8153660297 
12.98965549 48.3345871 7.140089512 0.8169107437 
10.66978741 48.15636444 7.036613464 0.819308579 
5.570302486 31.77435684 4.602065563 0.8777950406 
4.189477444 32.28451157 4.644331455 0.8767448068 
4.203203201 49.59512711 7.10062933 0.8178245425 
1.929763198 48.15813065 6.875764847 0.8230494261 
-3.03153801 32.34598541 4.634711742 0.876983881 
-9.158117294 32.90600204 4.872793674 0.8710901141 
-12.19200802 32.34781265 4.931641579 0.8696393967 
-13.86521339 32.34814453 5.020842552 0.8674451709 
-15.60356617 32.34849167 5.123655796 0.8649228215 
-8.899204254 11.18841362 2.03947711 0.9438735247 
-20.27908707 8.799098015 3.153620005 0.9145543575 
-40.39955521 9.518641472 5.92122364 0.8456041217 
-46.44774246 -16.80167007 7.046445847 0.8190802336 
-27.49089622 -12.81093025 4.326796055 0.8846654892 
-21.81176949 -12.6362009 3.59613204 0.9031635523 
-28.40476227 -18.18972588 4.811894417 0.8725938797 
-25.80154419 -18.19024849 4.503642559 0.8802452683 
-23.50750732 -18.19070244 4.240404129 0.8868326545 
-16.96698952 -14.38049793 3.172955751 0.9140535593 
-17.25428391 -15.99613285 3.356570244 0.909312427 
-16.34686279 -16.56664467 3.320260525 0.9102481008 
-13.9607439 -15.46808052 2.972556114 0.9192563295 
-6.95906496 -15.4695015 2.419906616 0.93375808 
-6.147184849 -15.4696722 2.37476182 0.9349527359 
-5.363512993 -15.46983337 2.335809469 0.9359847903 
-3.86365962 -15.47013664 2.27476263 0.9376045465 
-1.728195786 -15.47057629 2.220763206 0.939039588 
4.385021687 -27.92689896 4.03287077 0.8920606971 
6.9748559 -27.92743683 4.106511116 0.890202105 
7.553337097 -25.38202667 3.777940512 0.89852494 
8.274376869 -23.86557961 3.60349369 0.9029752612 
8.275353432 -18.39552689 2.877625942 0.921731174 
8.275714874 -16.4040966 2.621153593 0.928450942 
9.619674683 -15.47291946 2.599194288 0.9290285707 
10.60227776 -15.47311497 2.675879955 0.92701298 
11.64535332 -15.47146416 2.762532711 0.9247407317 
27.67090034 -16.03056526 4.562134743 0.878788352 
38.25266266 -10.0979414 5.644075394 0.8522678018 
33.00843048 14.3223629 5.133163929 0.8646900058 
21.83205223 13.17252922 3.637567759 0.9021043181 
20.82389832 13.86382294 3.568902016 0.9038603902 
19.8902359 14.55963802 3.516520262 0.9052022696 
36.80546951 32.3380661 6.989473343 0.8204031587 
30.79373169 32.3392601 6.370509624 0.8349118829 
20.64014816 48.15437317 7.474170208 0.8092175722 
18.14951324 48.15487289 7.341523647 0.8122634292 
15.74152565 48.15535355 7.227586746 0.814888835 
13.50757027 48.534729 7.18711853 0.815823257 
5.999867916 32.52082062 4.717725754 0.8749243021 
4.556025505 48.61413956 6.965696335 0.8209556937 
-1.929572701 48.15887451 6.875864506 0.8230469823 
-4.197627068 32.34621811 4.653213024 0.8765243888 
-5.670615196 32.34651184 4.684931755 0.8757372499 
-8.713522911 32.42309189 4.789611816 0.8731448054 
-11.86423969 32.34774399 4.915336132 0.870041132 
-13.52578831 32.34807587 5.001953125 0.8679093122 
-15.25010109 32.34841537 5.101950645 0.8654549122 
-7.093305588 13.45904732 2.170411825 0.9403797388 
-51.93783951 88.73912048 14.6684761 0.6600442529 
-7.499960899 11.59775162 1.970351577 0.9457232356 
-10.83380318 12.66768932 2.377944946 0.9348685145 
-35.7361412 -18.22840309 5.723048687 0.8503635526 
-26.29508972 -18.19014549 4.561364174 0.8788074851 
-17.35962677 -14.44985771 3.22220993 0.9127792716 
-16.62783432 -16.55402756 3.347261906 0.9095521569 
-14.21244812 -15.46803188 2.996726036 0.9186272025 
-12.99245834 -15.46827602 2.881850004 0.921620965 
-9.809088707 -15.46892548 2.613080025 0.9286632538 
-7.977555752 -15.46930599 2.483027697 0.9320902228 
-7.125275612 -15.46947193 2.429724932 0.9334984422 
-6.301315784 -15.45544434 2.381092548 0.9347851872 
-4.75387907 -15.46995544 2.308802128 0.9367010593 
-4.010271072 -15.47010708 2.27991724 0.9374676943 
-1.867697716 -15.47054672 2.223056555 0.9389786124 
-1.172614694 -15.47068787 2.213381529 0.9392359257 
0.8959692121 -15.47110271 2.210811377 0.9393043518 
4.130641937 -27.92685509 4.027396679 0.8921990395 
5.409968376 -27.9271183 4.058155537 0.8914220929 
7.553190708 -26.23304558 3.894449472 0.8955647945 
7.28406477 -21.6294384 3.255936146 0.9119077921 
8.465549469 -15.39236259 2.506076336 0.931482017 
11.43249226 -15.47328568 2.744584084 0.9252108335 
12.49415779 -15.42443371 2.831787348 0.9229286313 
13.71802902 -15.47375011 2.950069904 0.9198418856 
16.39636421 -15.47428703 3.216329813 0.9129313231 
17.8650856 -15.41691399 3.366429329 0.9090585709 
21.5410862 -15.47533131 3.783871412 0.8983740211 
23.69948006 -15.47576141 4.037981987 0.8919317126 
26.11093521 -15.43873501 4.32741642 0.8846498132 
34.08546448 12.67387676 5.187907219 0.863350451 
22.00815201 13.01284599 3.647456646 0.9018517733 
20.19361115 13.18643284 3.440639496 0.9071499109 
21.4918232 15.43994617 3.775221586 0.8985942006 
37.47252655 32.33793259 7.061226845 0.8187375069 
31.34692574 32.33914948 6.425171852 0.8336202502 
28.37393761 35.02854538 6.430922508 0.8334846497 
28.47667122 42.36306381 7.282022953 0.8136332035 
28.4395237 46.66485596 7.796116829 0.8018725514 
26.51839066 48.21672821 7.850300789 0.8006427288 
21.14918137 48.15427017 7.503063202 0.8085556626 
16.21710205 48.15526199 7.248941898 0.814396143 
11.57258987 48.15618896 7.065567493 0.8186369538 
4.714418888 31.8736515 4.596573353 0.8779315948 
2.794069767 48.24605179 6.894320488 0.8226168156 
-1.500554204 48.15878677 6.873679161 0.8230980039 
-2.491066933 32.86563492 4.702066422 0.8753123879 
-3.905034065 32.34616089 4.648017883 0.8766533732 
-6.865451336 32.34674835 4.717388153 0.8749326468 
-8.385246277 32.34704971 4.767166615 0.8736999631 
-11.53874969 32.34768295 4.899529934 0.8704306483 
-13.1885643 32.34801102 4.983583927 0.8683609962 
-14.89974785 32.34835052 5.080821514 0.8659727573 
-7.051516056 13.67361259 2.194798231 0.9397304654 
-51.10856247 89.13195801 14.65765095 0.6602463722 
-61.37117386 -17.96642494 9.12268734 0.7723035216 
-47.09785843 -16.09463882 7.100477695 0.8178278208 
-32.79761887 -18.22898483 5.353046894 0.8593217731 
-24.39216423 -18.19052696 4.340912819 0.8843123317 
-17.55326462 -15.70160103 3.359814405 0.9092288613 
-13.228899 -15.46822262 2.903654337 0.9210520387 
-12.0176878 -15.38816357 2.785421371 0.924141407 
-9.006842613 -15.38877392 2.543746233 0.9304887056 
-7.292795181 -15.46943855 2.439819336 0.9332316518 
-6.468347073 -15.46960449 2.392053366 0.9344950318 
-4.904919147 -15.46992111 2.31521821 0.9365308881 
-4.157497406 -15.47007751 2.285273314 0.9373254776 
-0.6198657155 -15.4708004 2.208838224 0.9393568039 
0.06883056462 -15.4709425 2.207108974 0.9394027591 
0.7579321265 -15.47107887 2.209754944 0.9393324256 
1.449934006 -15.47122002 2.216800213 0.9391450286 
6.449045181 -27.92733383 4.088965893 0.8906444907 
8.274118423 -25.31162071 3.79899478 0.8979892731 
8.27557373 -17.15629768 2.717384338 0.9259240031 
10.20237064 -15.473032 2.644045353 0.9278492928 
17.61228752 -15.47453117 3.344628811 0.9096200466 
19.20783424 -15.41778755 3.513757944 0.9052731991 
