# .PCD v0.7 - Point Cloud Data file format
VERSION 0.7
FIELDS x y z intensities
SIZE 4 4 4 4
TYPE F F F F
COUNT 1 1 1 1
WIDTH 923
HEIGHT 1
VIEWPOINT 0 0 0 1 0 0 0
POINTS 923
DATA ascii
-8.508620262 29.55135918 -1.829559922 0.8840646148 
-5.557284832 16.5018692 -1.035926461 0.9326053262 
-7.251623154 16.51112175 -1.072885036 0.9302879572 
-13.62049294 27.60658455 -1.831457973 0.883951664 
-14.83990669 26.98245621 -1.832067847 0.8839151859 
-10.06169701 16.50969505 -1.150260925 0.9254518151 
-8.046538353 11.97036076 -0.8581178188 0.9438425899 
-12.19743347 16.50860977 -1.221153259 0.9210429192 
-11.5926857 11.95942497 -0.9908957481 0.9354371428 
-12.67241669 11.95975304 -1.036678433 0.9325591326 
-13.60004044 11.73632812 -1.06874907 0.9305469394 
-27.33293152 19.63624954 -2.002288342 0.8738393188 
-28.97005844 17.1292572 -2.002294064 0.8738390803 
-27.63333511 14.72100067 -1.862759709 0.8820901513 
-30.37791443 14.48664188 -2.002296448 0.8738388419 
-31.54524803 11.72935772 -2.002295494 0.8738388419 
-32.46278381 8.879211426 -2.002290964 0.8738392591 
-32.82540131 7.426486492 -2.002282619 0.8738399148 
-33.12321854 5.958776951 -2.002276659 0.8738401532 
-15.58516788 -2.441406195e-06 -1.070295691 0.9394248128 
-29.03940773 -2.591267109 -2.002178669 0.8896796107 
-28.43577576 -6.433269024 -2.00214982 0.8896809816 
-28.12124443 -7.691777229 -2.002138853 0.8896816969 
-27.32601166 -10.1606226 -2.002115488 0.8896828294 
-26.84687614 -11.3660593 -2.002105474 0.8896833062 
-26.31453514 -12.54898643 -2.00209856 0.8896839023 
-22.59847069 -14.7567749 -1.853505015 0.8974357247 
-21.1529789 -16.67183876 -1.849617362 0.8976395726 
-19.58722687 -18.48569489 -1.849595189 0.8976408243 
-13.00517559 -16.05518723 -1.418917775 0.9204972386 
-11.86265564 -16.05554008 -1.37090838 0.9230810404 
-8.830834389 -16.05646133 -1.258431077 0.9291628003 
-7.922001839 -16.05673981 -1.229588032 0.9307287931 
-7.05221653 -16.05700493 -1.204366565 0.9321002364 
-5.407670975 -16.05751228 -1.163588762 0.9343219995 
-4.623398304 -16.0577507 -1.147549033 0.9351972342 
-2.276352406 -15.39017773 -1.068406105 0.9395285845 
-1.602636695 -15.60416222 -1.077239752 0.9390441775 
-0.948515594 -16.37828255 -1.126650572 0.9363391995 
-0.2186620981 -16.3785038 -1.124880552 0.9364359379 
4.416708946 -26.58285332 -1.850581884 0.8975890279 
5.595126629 -26.36137962 -1.850674391 0.8975841999 
7.685629845 -25.01019669 -1.796821594 0.9004106522 
7.68751955 -18.85527611 -1.398357153 0.9216030836 
7.688173771 -16.69160843 -1.262034059 0.9289674759 
8.856752396 -15.44598866 -1.222749949 0.9311004877 
10.00323677 -15.77498722 -1.282783151 0.9278427362 
10.69500923 -15.31431389 -1.282777429 0.9278430939 
15.63783169 -15.56837082 -1.515379786 0.9153282046 
17.09613228 -15.56881046 -1.587943792 0.9114584923 
22.15346146 -15.32504559 -1.849919558 0.8976239562 
23.98558044 -12.23469257 -1.849101782 0.8976665139 
27.49369049 -9.669518471 -2.00147438 0.8897163272 
27.89659691 -8.436928749 -2.001476288 0.8897163272 
28.77151299 -4.648881912 -2.001486063 0.8897157311 
28.94987679 -3.364409208 -2.001490831 0.8897155523 
29.07093239 -2.073276281 -2.001496315 0.8897153735 
29.13453102 -0.7780370712 -2.001502752 0.8897148371 
29.14035606 0.5187353492 -2.001509428 0.8897146583 
29.08856773 1.814511657 -2.001517057 0.8897141814 
28.97920799 3.106703997 -2.001525164 0.889713645 
28.81244659 4.392753601 -2.001533985 0.8897131681 
28.58864212 5.67010498 -2.001543283 0.8897127509 
26.15314865 6.408205509 -1.849175811 0.8976626992 
25.84231949 7.565288067 -1.849185586 0.897662282 
25.47583389 8.705854416 -1.848865151 0.8976789117 
25.04905701 9.824885368 -1.847812653 0.8977341652 
16.92107964 10.41594219 -1.364551067 0.9234238267 
14.9094286 11.11879158 -1.277262092 0.9281417727 
19.55438995 17.49166298 -1.801744342 0.9001520872 
10.57135201 10.33872986 -1.015453815 0.9424375296 
8.907217026 10.4149189 -0.9411333799 0.9465358257 
8.382646561 10.73366928 -0.9352802634 0.9468593001 
5.056970119 10.72679138 -0.8144094944 0.9535647631 
3.404499531 10.73748398 -0.7735627294 0.9558414221 
2.890200138 10.7544117 -0.764752686 0.9563331604 
2.365290403 10.67537212 -0.750900805 0.9571070075 
1.475832462 11.37292099 -0.7875742316 0.9550599456 
1.417001963 16.71985054 -1.152339101 0.934935987 
1.050603032 26.21892548 -1.802007675 0.9001380801 
-0.1167700142 26.23988152 -1.802021503 0.9001374841 
-2.489640951 26.56484032 -1.832312465 0.8985469341 
-3.669191837 26.42986679 -1.832453609 0.8985393643 
-8.295507431 25.37716293 -1.833502293 0.8984843493 
-9.418119431 24.9882412 -1.833882809 0.8984643221 
-11.60746574 24.06403351 -1.834781766 0.8984172344 
-6.438727856 11.95786762 -0.9326745868 0.9470034242 
-7.884892464 11.95830154 -0.9837310314 0.9441876411 
-9.511977196 11.95879459 -1.04936409 0.9405734539 
-10.41353035 11.9590683 -1.088998079 0.9383995533 
-13.60247135 11.95137215 -1.243481398 0.9299741387 
-21.7837162 15.94556522 -1.853934407 0.8974131942 
-23.08841324 13.9304781 -1.851822138 0.8975237608 
-21.90042877 11.91830921 -1.71227479 0.9048658609 
-26.20367622 12.78359127 -2.002238512 0.8896765113 
-20.74573708 9.001587868 -1.553027749 0.9133182168 
-27.23617172 10.40402603 -2.002238035 0.8896765113 
-27.67202377 9.182155609 -2.002236605 0.8896765113 
-28.05304909 7.942106724 -2.002232313 0.8896766305 
-28.37847328 6.686315536 -2.002225161 0.8896770477 
-28.64770508 5.417302132 -2.002221107 0.8896774054 
-28.86020851 4.137551308 -2.002216101 0.8896778822 
-29.01569176 2.849641085 -2.002210379 0.8896778822 
-15.57916451 0.832687974 -1.071411014 0.9393636584 
-15.58917236 -0.5551928878 -1.071249962 0.9393724799 
-15.61282635 -1.253229976 -1.075644493 0.9391314983 
-28.49190521 -6.179953575 -2.002152205 0.889680922 
-27.82956696 -8.68774128 -2.002130032 0.8896821141 
-26.94695473 -11.12667942 -2.002107143 0.8896833062 
-23.88309669 -12.45151615 -1.849669814 0.897636652 
-22.72617531 -14.55334187 -1.853282094 0.8974473476 
-19.75102425 -18.31071472 -1.849597454 0.8976404667 
-15.18216801 -15.38622284 -1.484430552 0.9169833064 
-14.10411549 -15.62686729 -1.445624828 0.9190631509 
-13.24347115 -16.05511856 -1.429273367 0.9199410081 
-11.00156212 -16.0558033 -1.33662951 0.9249303341 
-9.982275009 -16.05611038 -1.298366666 0.9269988537 
-9.017841339 -16.05639839 -1.264666677 0.9288246036 
-6.380644321 -16.05720901 -1.186587334 0.9330683947 
-5.567241192 -16.05746269 -1.167131305 0.9341288805 
-4.778540134 -16.0576973 -1.150541306 0.9350340366 
-4.010448933 -16.05793571 -1.136637211 0.9357933998 
-3.1235888 -15.38991451 -1.078437448 0.9389784336 
-0.3644677699 -16.37845993 -1.125055552 0.9364263415 
1.028862238 -15.39118862 -1.059334755 0.9400262237 
2.991440296 -26.77912331 -1.850473881 0.8975946903 
5.360243797 -26.40987396 -1.850655794 0.8975851536 
7.685385704 -25.82574463 -1.850425363 0.8975971341 
7.686503887 -22.16995239 -1.611414194 0.9102103114 
7.687367916 -19.34562683 -1.429595113 0.9199239612 
7.688056469 -17.08996391 -1.28692627 0.9276182652 
7.765771389 -15.39328289 -1.18402648 0.9332078099 
8.678515434 -15.45221901 -1.217079639 0.9314087629 
10.55831528 -15.40890312 -1.282778621 0.9278429747 
11.29514122 -15.00614452 -1.289839268 0.9274604917 
12.8412838 -15.56753159 -1.385870337 0.9222753048 
14.05090332 -15.56790257 -1.440173864 0.9193558693 
20.12042427 -15.56972885 -1.747145176 0.9030259848 
22.68156624 -14.52474785 -1.849648118 0.8976380229 
24.88759804 -10.27636242 -1.849101782 0.8976664543 
26.80989647 -9.697990417 -1.957901239 0.8919825554 
27.82041359 -8.684860229 -2.001475811 0.8897163272 
28.17921257 -7.43873024 -2.001478195 0.8897163272 
28.48239708 -6.177856445 -2.001481533 0.8897156715 
29.12644386 -1.037314415 -2.001501322 0.8897148967 
29.14379311 0.2593945265 -2.001507998 0.8897147179 
29.10352898 1.555559039 -2.001515388 0.8897143006 
29.00559425 2.848652363 -2.001523495 0.8897140622 
28.85038567 4.136149883 -2.001532078 0.8897132277 
25.55522919 8.479753494 -1.849078059 0.8976678252 
25.13832474 9.602658272 -1.848021626 0.8977233171 
19.85754395 10.80656242 -1.552558661 0.9133433104 
17.2234478 10.39182854 -1.381419301 0.9225147367 
19.70929718 17.31693077 -1.8017416 0.9001520872 
9.010194778 10.34746075 -0.9422467351 0.9464743137 
8.510219574 10.6993475 -0.938852191 0.9466618299 
7.667905331 10.5737524 -0.8969825506 0.9489788413 
6.986064434 10.59513855 -0.8715441227 0.9503892064 
6.301391602 10.54979706 -0.8438971639 0.9519245028 
5.73231411 10.64594936 -0.8303475976 0.952677846 
4.541181564 10.59481907 -0.7916092277 0.9548349977 
3.016962767 10.84022427 -0.7727349401 0.9558876157 
2.47508049 10.71830559 -0.7554417253 0.9568533897 
1.454848647 15.523139 -1.070709467 0.9394022226 
1.283881783 26.20849037 -1.802004814 0.9001382589 
0.1167675778 26.23988724 -1.802018642 0.9001374245 
-1.050612807 26.21932793 -1.802032232 0.9001366496 
-2.253112793 26.58565331 -1.832290053 0.8985479474 
-4.607919693 26.28464317 -1.832601786 0.8985316157 
-8.069043159 25.44897652 -1.83343184 0.8984881639 
-6.302072525 11.95782566 -0.9282598495 0.9472475648 
-6.99890852 11.95803547 -0.9514937997 0.9459617138 
-9.339379311 11.95874405 -1.042025805 0.9409766197 
-21.63694382 16.13581657 -1.853591323 0.8974311352 
-22.33343887 15.1574707 -1.853602529 0.8974305391 
-21.85115242 13.45067978 -1.762118816 0.9022366405 
-23.55565071 13.09212494 -1.85072732 0.8975812197 
-27.98127365 8.191452026 -2.002233744 0.8896765709 
-28.59840775 5.672045708 -2.002221823 0.8896772265 
-28.82229996 4.394252777 -2.002217054 0.8896776438 
-15.57815838 0.9717358351 -1.071892977 0.9393371344 
-15.58316326 0.2774047852 -1.070329309 0.9394230247 
-15.58816624 -0.4162768424 -1.070883274 0.9393925667 
-15.59319019 -1.112082481 -1.07356739 0.9392454028 
-28.25378418 -7.190080643 -2.002143383 0.8896813393 
-27.90582466 -8.439728737 -2.002132177 0.8896819353 
-27.50257301 -9.672663689 -2.002120495 0.8896827102 
-23.99297333 -12.23849583 -1.849671006 0.8976365924 
-22.31286812 -12.6626482 -1.761869788 0.9022498131 
-20.70035553 -17.23059273 -1.849611163 0.8976396322 
-19.08671761 -19.00194931 -1.849587917 0.8976410627 
-14.13770485 -15.38654518 -1.434975386 0.9196346998 
-13.48530769 -16.05504608 -1.439894319 0.9193707108 
-10.18145943 -16.05604744 -1.305636883 0.926605463 
-6.546674728 -16.05715942 -1.190842032 0.9328366518 
-5.727802753 -16.05740929 -1.170786619 0.9339295626 
-3.266440392 -15.38987541 -1.0804317 0.9388692975 
-2.557036161 -15.39008999 -1.071390152 0.9393649101 
-1.883579016 -15.60187721 -1.079223752 0.9389352798 
0.2186620981 -16.37863922 -1.124888539 0.9364354014 
0.8913476467 -15.39113998 -1.058743715 0.9400587082 
2.752963781 -26.80444527 -1.850456238 0.8975955844 
6.296713829 -26.20325851 -1.850731015 0.8975820541 
7.456850529 -25.89875221 -1.850827098 0.8975760341 
7.686303616 -22.82370377 -1.653893232 0.9079557061 
7.687924862 -17.50442505 -1.312932611 0.9262109399 
7.688515663 -15.58348846 -1.193347335 0.9327001572 
9.401434898 -15.4263401 -1.240626812 0.9301291704 
11.09999466 -15.02331734 -1.282774329 0.9278432131 
12.61009216 -15.56745815 -1.37581861 0.9228166938 
16.49634743 -15.56863022 -1.557729602 0.9130678177 
21.67299843 -15.57019234 -1.83264935 0.8985292912 
23.76401711 -12.65967274 -1.849102259 0.8976665139 
24.30360794 -11.58998489 -1.849101663 0.8976666927 
24.79512596 -10.49740219 -1.849101663 0.8976666331 
28.42616081 -6.431076527 -2.001480818 0.8897161484 
28.68421364 -5.160236835 -2.001484394 0.8897157311 
29.02937508 -2.59035635 -2.001494169 0.8897155523 
29.14496994 7.324218586e-06 -2.001506567 0.8897146583 
29.11626434 1.296484351 -2.00151372 0.8897141814 
29.0298481 2.59042716 -2.001521826 0.8897138834 
27.43567276 6.206987381 -1.93173945 0.8933461308 
25.6312294 8.252511978 -1.849191666 0.8976619244 
25.22563934 9.379631042 -1.848231316 0.8977123499 
24.76950073 10.48656464 -1.847190499 0.8977667689 
19.96352005 10.63505554 -1.553380132 0.9132993817 
16.31933022 10.65651131 -1.338497758 0.9248295426 
20.60526848 16.24017334 -1.801725388 0.9001529217 
19.08061409 18.00756645 -1.801752567 0.9001514316 
9.953627586 10.26863289 -0.9821067452 0.9442740083 
9.156215668 10.32810783 -0.9478657842 0.9461637735 
8.603085518 10.6207056 -0.9386330247 0.9466739893 
7.809633732 10.5699482 -0.9025217891 0.9486720562 
4.19553709 10.83836746 -0.7981349826 0.9544711709 
3.111054659 10.80512047 -0.7721760273 0.9559188485 
2.042231321 10.54256821 -0.7374609709 0.9578583241 
1.388566852 13.51990604 -0.9333513379 0.9469659328 
-2.016406298 26.60434532 -1.832269549 0.8985490799 
-4.373693943 26.32403755 -1.832561851 0.8985337615 
-5.541044712 26.10653305 -1.832781076 0.8985222578 
-6.697856426 25.83798218 -1.833048224 0.8985081911 
-7.84194088 25.51885986 -1.833363175 0.898491621 
-5.55361557 13.62141609 -1.0102005 0.9427267313 
-5.507688046 11.95758438 -0.9040957689 0.9485846758 
-6.856735706 11.95799446 -0.9466281533 0.9462321997 
-9.558462143 13.6868515 -1.146454334 0.9352570772 
-9.169184685 11.95868969 -1.034874797 0.9413698316 
-10.04483604 11.95895576 -1.072536707 0.939301908 
-13.65220642 14.8581562 -1.385699749 0.9222843647 
-19.85194016 18.07916641 -1.843906403 0.8979369402 
-20.72096825 17.24771309 -1.851454854 0.8975431919 
-23.99477959 12.23937607 -1.849810481 0.8976293802 
-26.53560257 12.07950211 -2.00223875 0.8896765113 
-27.04667091 10.88715649 -2.002238274 0.8896765113 
-28.5467968 5.926332951 -2.002222776 0.8896772265 
-15.57715797 1.11093986 -1.072462559 0.9393059611 
-15.59218216 -0.9726342559 -1.07285893 0.939284265 
-28.98863411 -3.10773921 -2.002175331 0.8896797895 
-28.31666374 -6.938334942 -2.002145529 0.8896813393 
-27.9798851 -8.191052437 -2.002134562 0.8896817565 
-27.14075661 -10.64530468 -2.00211072 0.8896832466 
-24.1009655 -12.02451897 -1.849672556 0.8976364732 
-23.54210472 -13.0846405 -1.849665761 0.8976368904 
-22.9366703 -14.11887932 -1.84965694 0.897637248 
-20.85291862 -17.04568481 -1.849613309 0.897639513 
-14.39225578 -15.38646698 -1.446856976 0.9189970493 
-13.73076153 -16.0549736 -1.450788975 0.9187861085 
-11.42667007 -16.05566597 -1.353340387 0.9240284562 
-10.38293457 -16.05598831 -1.313097 0.9262020588 
-5.889384747 -16.05735588 -1.174557447 0.9337239861 
-3.557909966 -16.05807304 -1.129517198 0.9361823797 
-2.024453163 -15.60059738 -1.080340743 0.9388741851 
-1.322617173 -15.60608578 -1.075575113 0.939135313 
-0.6562694907 -16.37837029 -1.125671268 0.9363925457 
0.07289550453 -16.37859535 -1.124796033 0.9364404678 
2.514902353 -26.82810783 -1.850438595 0.8975946307 
4.889238358 -26.50057793 -1.85061872 0.8975870609 
6.063554764 -26.2581749 -1.850712061 0.8975821733 
7.686088562 -23.51273537 -1.698802352 0.9055783153 
7.687797546 -17.9359684 -1.340115905 0.9247421026 
7.68840313 -15.93920612 -1.215298176 0.9315055609 
10.28240204 -15.59441662 -1.282780766 0.9278428555 
10.96584892 -15.12151051 -1.282775283 0.9278432131 
12.24481392 -15.39465046 -1.350859642 0.9241623282 
13.55587387 -15.56775093 -1.417613029 0.9205675721 
16.20490265 -15.56854248 -1.543228745 0.9138410687 
21.27071762 -15.5700798 -1.8102777 0.8997035623 
23.65044785 -12.8706274 -1.849102378 0.8976664543 
24.19950104 -11.80581474 -1.849101663 0.8976666927 
25.43112755 -9.714489937 -1.86954236 0.8965958357 
27.66143036 -9.178654671 -2.001475096 0.8897163272 
28.04234886 -7.939089298 -2.001477242 0.8897163272 
28.36772919 -6.683805943 -2.001480103 0.8897163868 
28.84972572 -4.136074066 -2.00148797 0.8897156119 
29.00517464 -2.848586321 -2.001492977 0.8897155523 
29.10331917 -1.555517554 -2.001498938 0.8897150755 
29.12654686 1.037316918 -2.001512289 0.8897145391 
29.05168915 2.331935883 -2.001519918 0.8897141218 
28.9193306 3.62198472 -2.001528502 0.8897135854 
28.48322678 6.178024769 -2.001547098 0.8897126317 
26.03502464 6.872722149 -1.849179626 0.8976624012 
25.70366669 8.024093628 -1.849189758 0.8976619244 
25.31098175 9.155800819 -1.848441839 0.897701323 
23.7796917 11.0814867 -1.801660776 0.9001561999 
16.4228363 10.51680374 -1.339257479 0.9247885346 
19.24007225 17.83702278 -1.801749825 0.9001516104 
10.0155611 10.15018749 -0.9792665839 0.9444307089 
9.208266258 10.20241928 -0.9438171387 0.9463875294 
8.749585152 10.60713577 -0.9442790747 0.946361959 
7.187304497 10.48919201 -0.8732159138 0.9502964616 
4.810133934 10.69258022 -0.8051823974 0.9540785551 
4.227907658 10.63972759 -0.7862470746 0.9551338553 
3.728940248 10.75525761 -0.7817389369 0.9553852081 
2.155422211 10.61978245 -0.7441731095 0.9574829936 
1.6806494 10.70369244 -0.7440722585 0.957488656 
0.583784163 26.23360062 -1.802013159 0.9001376629 
-0.5837792754 26.23378754 -1.802026987 0.9001369476 
-1.779528737 26.62092209 -1.832251072 0.8985502124 
-4.139206409 26.36135864 -1.832523704 0.8985357285 
-6.467460632 25.89579201 -1.832990885 0.8985110521 
-7.614240646 25.58664894 -1.833296418 0.8984953165 
-5.541191101 15.98231316 -1.161667705 0.9344268441 
-5.553505898 13.97567272 -1.032760859 0.9414855838 
-5.553998947 12.34615803 -0.9297057986 0.9471676946 
-12.03523922 23.85624123 -1.83498323 0.8984066844 
-12.42597961 16.50849342 -1.418971777 0.9204944372 
-9.864621162 11.95890236 -1.064616799 0.9397363663 
-13.6382494 15.11068726 -1.397845268 0.9216288924 
-12.90057087 11.9598217 -1.208084106 0.9318980575 
-21.33828735 16.5121212 -1.852893591 0.897467792 
-22.71894646 14.54867649 -1.852691889 0.8974782825 
-23.32568359 13.51324463 -1.85126555 0.8975529671 
-23.8867836 12.4534235 -1.84995544 0.8976216912 
-26.94871521 11.12741184 -2.002238512 0.8896765113 
-27.41702652 9.917634964 -2.002237558 0.8896765113 
-27.83105659 8.688215256 -2.002235651 0.8896765113 
-28.18988228 7.441501141 -2.00222826 0.8896769881 
-28.49293137 6.180141449 -2.00222373 0.8896772265 
-28.73953629 4.906527996 -2.002218962 0.8896775842 
-28.92928123 3.623217583 -2.002213955 0.8896778226 
-15.58116627 0.5549096465 -1.070700169 0.9394026399 
-15.58616924 -0.1387060583 -1.070405841 0.9394187331 
-15.59117889 -0.8333227634 -1.07223773 0.9393183589 
-28.85954857 -4.137492657 -2.002167702 0.8896802068 
-28.64701653 -5.416960239 -2.002157688 0.8896800876 
-28.05167007 -7.941735744 -2.002136707 0.8896817565 
-27.23450851 -10.40338326 -2.002113104 0.889682889 
-26.74463272 -11.60450172 -2.002104044 0.8896834254 
-26.2018261 -12.78272152 -2.002098322 0.8896837831 
-23.65764618 -12.87462616 -1.849667311 0.8976368308 
-22.46896935 -14.95913792 -1.853731394 0.897423923 
-21.79513168 -15.95395184 -1.854909062 0.8973622322 
-17.84451103 -15.6785078 -1.631270766 0.9091556668 
-19.42195702 -18.65928841 -1.849592686 0.8976407051 
-13.97998524 -16.0548954 -1.461966634 0.9181867242 
-11.64325142 -16.05560303 -1.362014771 0.9235606194 
-9.590385437 -16.05622673 -1.284365654 0.927756846 
-8.645653725 -16.05651665 -1.252355933 0.929492414 
-6.882446289 -16.05705833 -1.199729085 0.9323526621 
-6.052016258 -16.05730629 -1.178444982 0.9335119724 
-5.249023438 -16.05755997 -1.160158992 0.9345090389 
-3.708120108 -16.05802917 -1.13179028 0.936058104 
-2.165605307 -15.59923077 -1.081537604 0.9388085604 
-0.8023437262 -16.37832642 -1.126115799 0.9363683462 
-0.07290039212 -16.37854767 -1.124794841 0.9364406466 
0.6563085914 -16.37877083 -1.125700951 0.9363910556 
1.304414034 -15.39127159 -1.06077075 0.9399474263 
3.467661142 -26.72214127 -1.850509644 0.8975929022 
5.829555511 -26.31079292 -1.850693345 0.8975833058 
6.994560242 -26.02679825 -1.850788355 0.8975781798 
7.68586874 -24.24056435 -1.746377468 0.9030665755 
7.686874866 -20.95820045 -1.533040404 0.9143846631 
9.036621094 -15.4396019 -1.228561282 0.9307845831 
10.14323235 -15.68532944 -1.282781959 0.9278427362 
13.31401825 -15.5676775 -1.406758666 0.9211512208 
15.91880798 -15.56845379 -1.529117823 0.9145942926 
20.87816811 -15.56995773 -1.788591266 0.9008434415 
27.97060013 -8.18832016 -2.001476765 0.8897162676 
28.58777809 -5.66994381 -2.001482964 0.88971591 
28.97866058 -3.106652737 -2.001492023 0.8897156119 
29.0882473 -1.814445734 -2.001497507 0.8897153139 
29.07132721 2.07332015 -2.001518488 0.889713943 
28.53702545 5.924304008 -2.001545191 0.8897128105 
26.09511566 6.640695572 -1.849177718 0.8976626396 
25.39438438 8.931237221 -1.848653197 0.897690177 
24.95781708 10.04632568 -1.847604275 0.8977450132 
23.87728882 10.86939144 -1.801658392 0.900156498 
16.70373917 8.520343781 -1.287731647 0.9275748134 
18.81300163 10.67645264 -1.485516906 0.9169253111 
16.67588425 10.4707737 -1.352241755 0.9240878224 
20.89100456 15.87078381 -1.801720142 0.9001532197 
8.826699257 10.5086937 -0.9424711466 0.9464618564 
8.179125786 10.66744804 -0.9231311679 0.9475312233 
7.352406979 10.52799034 -0.88185817 0.949817121 
6.811720848 10.74198246 -0.873510778 0.9502801299 
3.305952072 10.75802326 -0.7728922367 0.9558787942 
2.805261135 10.82166767 -0.7677295804 0.956166923 
2.261337757 10.65422821 -0.7479680181 0.9572708607 
1.390556574 11.51820374 -0.7967466712 0.9545486569 
-0.3502905071 26.237854 -1.802024245 0.9001373053 
-1.517114282 26.19647408 -1.802037597 0.9001366496 
-5.075219631 26.19967461 -1.832687497 0.898527205 
-7.385971546 25.65247917 -1.833231449 0.8984987736 
-5.54104948 16.45355034 -1.192286372 0.9327578545 
-5.553393364 14.34609604 -1.056447387 0.9401848912 
-5.553911209 12.64554691 -0.9484906793 0.9461294413 
-5.899645805 11.95770359 -0.9157113433 0.9479427338 
-8.038510323 11.95834827 -0.9895166755 0.9438652992 
-12.66001606 11.94804573 -1.195463896 0.9325847626 
-13.60003662 11.73642445 -1.233664632 0.9305074811 
-21.18638611 16.69818115 -1.852539301 0.8974864483 
-21.92874908 15.75397682 -1.854273915 0.897395432 
-23.20796394 13.72233868 -1.851541519 0.8975384831 
-23.77826309 12.66723251 -1.850207925 0.897608459 
-26.3164196 12.54986095 -2.002238512 0.8896765113 
-20.81776619 8.813532829 -1.55248642 0.9133470654 
-27.32767487 10.16122437 -2.002237558 0.8896765709 
-28.43680573 6.433446884 -2.002224445 0.8896772265 
-15.58016586 0.6937499642 -1.071014047 0.9393854737 
-15.58516788 -2.441406195e-06 -1.070295691 0.9394248128 
-15.59017277 -0.6941967607 -1.071700096 0.939347744 
-28.89528084 -3.880456448 -2.002169609 0.889680028 
-28.69389343 -5.162014008 -2.002159834 0.889680624 
-28.43576622 -6.433293343 -2.00214982 0.8896809816 
-28.12123489 -7.69178915 -2.002138853 0.8896817565 
-27.32601166 -10.1606226 -2.002115488 0.8896828294 
-26.84687996 -11.36605167 -2.002105474 0.8896833062 
-21.93339348 -15.75732613 -1.854667306 0.8973748088 
-21.15297318 -16.6718483 -1.849617362 0.8976395726 
-20.39029312 -17.5962429 -1.849606752 0.8976400495 
-19.58722687 -18.48569489 -1.849595189 0.8976408243 
-14.10419846 -15.9093523 -1.460082412 0.9182873964 
-9.785258293 -16.05616379 -1.291275144 0.927382648 
-8.83082962 -16.05646133 -1.258431077 0.9291628003 
-7.922001839 -16.05673981 -1.229588032 0.9307287931 
-7.052221298 -16.05700493 -1.204366684 0.9321002364 
-3.858950138 -16.05798149 -1.134164691 0.9359284639 
-2.981235266 -15.38996315 -1.07653904 0.9390825033 
-2.276352406 -15.39017773 -1.068406224 0.9395285845 
-1.602631807 -15.60416222 -1.077239752 0.9390441775 
3.229599476 -26.75165749 -1.850491643 0.8975939751 
4.416728497 -26.58284378 -1.850581884 0.8975890279 
7.685629845 -25.01019669 -1.796821594 0.9004106522 
7.686704159 -21.5489769 -1.571187258 0.9123504162 
7.688178539 -16.69163322 -1.262036443 0.9289674163 
7.938466549 -15.39333725 -1.189421177 0.9329140186 
10.00324726 -15.77498245 -1.282783151 0.9278427362 
10.69501972 -15.31430912 -1.28277719 0.9278430939 
11.8035593 -15.39451885 -1.332197666 0.9251696467 
17.09618187 -15.56881046 -1.587946534 0.9114583731 
18.70457458 -15.56929874 -1.671288252 0.9070341587 
22.15347672 -15.32503605 -1.849919558 0.8976238966 
23.41920853 -13.29048061 -1.849230289 0.8976597786 
23.98558998 -12.23470402 -1.849101782 0.8976664543 
27.49371529 -9.669496536 -2.00147438 0.8897162676 
27.89660645 -8.436919212 -2.001476288 0.8897163272 
28.77151299 -4.648881912 -2.001486063 0.8897157311 
29.07092667 -2.073291063 -2.001496315 0.8897153735 
29.13452148 -0.7780663967 -2.001502752 0.8897148967 
29.14034653 0.5187695026 -2.001509428 0.8897146583 
29.08856773 1.814528823 -2.001517057 0.8897141814 
26.15314865 6.408205509 -1.849175811 0.8976626992 
25.47582054 8.705851555 -1.848865151 0.8976789713 
25.04903793 9.824929237 -1.847812653 0.8977341652 
23.97302246 10.65645504 -1.801656127 0.9001566768 
16.92107964 10.41594219 -1.364551067 0.9234238267 
14.9094286 11.11878681 -1.277261853 0.9281417727 
19.55441856 17.491642 -1.801744342 0.9001520872 
10.57132339 10.33873558 -1.015452981 0.9424376488 
9.759609222 10.43383026 -0.9811377525 0.9443276525 
8.382646561 10.73366928 -0.9352801442 0.9468593001 
7.489574909 10.52364445 -0.8870420456 0.9495297074 
6.930468559 10.71715832 -0.8764728904 0.9501157999 
6.188754559 10.57385254 -0.8413820267 0.9520643353 
5.056950569 10.7267971 -0.8144086003 0.9535648227 
4.471008301 10.69292927 -0.7959336638 0.9545938969 
3.958481312 10.79274368 -0.7894601226 0.9549546838 
2.890200138 10.75441837 -0.7647531629 0.9563331008 
2.365290403 10.67537212 -0.750900805 0.9571070075 
1.864865661 10.63760757 -0.7416673303 0.9576230049 
1.41701901 16.71982956 -1.152337432 0.9349360466 
1.050622582 26.21892548 -1.802007675 0.9001380801 
-0.1167333946 26.23988533 -1.802021503 0.9001374841 
-1.283872008 26.20894241 -1.802034974 0.9001366496 
-2.489606857 26.56483841 -1.832312465 0.8985469341 
-4.84181118 26.2432003 -1.832643747 0.8985293508 
-6.005182743 26.00518799 -1.832882166 0.8985170126 
-9.418156624 24.98822212 -1.833883047 0.8984643221 
-9.828046799 13.55251408 -1.149672627 0.9350813627 
-10.41351318 11.9590683 -1.088998437 0.9383995533 
-11.37667465 11.94765472 -1.132966876 0.9359938502 
-12.43629265 11.94797611 -1.184334755 0.9331909418 
-21.03293419 16.88275146 -1.852181554 0.8975051641 
-21.7837429 15.9455328 -1.853934646 0.8974131942 
-23.08843613 13.930439 -1.851822138 0.8975237608 
-21.9004612 11.91829395 -1.71227622 0.9048658013 
-26.20369148 12.78355408 -2.002238512 0.8896765113 
-27.23617172 10.40401554 -2.002238035 0.8896765113 
-28.05304909 7.942106724 -2.002232313 0.8896766305 
-28.37846565 6.686323166 -2.002225161 0.8896770477 
-28.64764404 5.417319298 -2.002221107 0.8896775842 
-28.8602047 4.137585163 -2.002216101 0.8896778226 
-29.01568985 2.84968257 -2.002210379 0.8896778822 
-15.58917236 -0.5552221537 -1.0712502 0.9393724799 
-15.61287785 -1.253264189 -1.075648069 0.9391313195 
-28.92866707 -3.62322998 -2.002171516 0.889680028 
-28.73875237 -4.906466961 -2.002161741 0.8896803856 
-28.18862724 -7.441239834 -2.002141237 0.8896815181 
-27.82955933 -8.687758446 -2.002130032 0.8896821141 
-22.30987167 -12.92476749 -1.770758629 0.9017875791 
-22.72618103 -14.5533123 -1.853282094 0.8974474072 
-14.10411549 -15.62693596 -1.445628285 0.9190629721 
-13.24342728 -16.05511856 -1.42927146 0.9199411273 
-11.00154305 -16.0558033 -1.336628675 0.9249303341 
-9.017831802 -16.05640793 -1.264666438 0.9288246036 
-8.100439072 -16.05668259 -1.235052705 0.9304317832 
-7.223325253 -16.05695534 -1.209136009 0.9318407178 
-5.567250729 -16.05746269 -1.167131424 0.9341288805 
-3.123608351 -15.38991451 -1.078438997 0.9389784336 
-1.743007779 -15.60306358 -1.078192353 0.9389919639 
-1.043364286 -15.60764885 -1.07423532 0.9392089248 
1.028891563 -15.39118862 -1.059335351 0.9400262237 
4.179946423 -26.62084579 -1.850563645 0.8975899816 
6.530102253 -26.14660263 -1.850750089 0.897580266 
7.685380459 -25.82570457 -1.850422502 0.8975972533 
7.686503887 -22.16995239 -1.611414194 0.9102103114 
7.688051701 -17.09000206 -1.286928058 0.9276181459 
10.55829048 -15.40892315 -1.282778621 0.9278429747 
11.29510212 -15.00614452 -1.289837599 0.9274606109 
12.8412447 -15.56753159 -1.385867834 0.9222753644 
14.05096149 -15.56790257 -1.440176487 0.9193556905 
15.36189461 -15.56828785 -1.502001405 0.9160431623 
22.68157196 -14.52474785 -1.849648118 0.8976380229 
24.88759804 -10.27636242 -1.849101782 0.8976664543 
26.80984879 -9.697993279 -1.957897544 0.8919827342 
27.82041359 -8.684892654 -2.001475811 0.8897162676 
28.1791935 -7.438742638 -2.001478195 0.8897163272 
29.12639999 -1.03724122 -2.001501322 0.8897150755 
29.14379311 0.2594238222 -2.001507998 0.8897147179 
29.0055809 2.848686457 -2.001523495 0.8897140622 
28.85038948 4.136184216 -2.001532078 0.8897132277 
28.63788605 5.415468693 -2.001541376 0.8897130489 
26.40308952 6.220903397 -1.862861633 0.8969458342 
25.9086132 7.335011959 -1.849183559 0.897662282 
25.13832474 9.602658272 -1.848021626 0.8977233171 
22.36995125 10.91325378 -1.709304333 0.9050232768 
19.85757828 10.80656433 -1.552560806 0.9133432508 
15.55049324 10.35301208 -1.282943368 0.9278339744 
14.46457958 10.5880537 -1.231033683 0.9306502938 
20.45994568 16.42297173 -1.80172801 0.9001527429 
11.02339363 10.59057808 -1.049780369 0.9405506253 
8.510210037 10.69936752 -0.9388532639 0.9466618299 
7.667905331 10.5737524 -0.8969825506 0.9489788413 
6.986064434 10.59513855 -0.8715441227 0.9503892064 
5.73231411 10.64594936 -0.8303475976 0.952677846 
5.202573299 10.78571224 -0.8223656416 0.9531219006 
4.541196346 10.5948 -0.7916086912 0.9548350573 
4.128998756 10.95505619 -0.803991735 0.9541449547 
3.509951115 10.73737049 -0.7757764459 0.9557179809 
3.016972542 10.84022045 -0.7727349401 0.9558876157 
2.475102425 10.71831322 -0.7554422021 0.9568533301 
1.949672818 10.56770229 -0.7379747629 0.957829535 
1.454816818 15.52319527 -1.070712924 0.9394020438 
1.283852458 26.20854187 -1.802004814 0.9001380801 
-2.253137112 26.58565331 -1.832290053 0.8985479474 
-4.607919693 26.28464317 -1.832601786 0.8985316157 
-5.773310184 26.05691338 -1.832830429 0.8985195756 
-6.927746296 25.77819824 -1.833107352 0.8985050321 
-8.069032669 25.44903564 -1.83343184 0.8984879255 
-5.553149223 15.14062214 -1.10750401 0.9373866916 
-5.559579849 13.2963829 -0.9897211194 0.9438543916 
-6.998874187 11.95803833 -0.9514926076 0.9459617734 
-9.339418411 11.95874405 -1.042029142 0.9409765005 
-10.22781181 11.95901203 -1.080665112 0.9388563037 
-13.63216686 14.57381153 -1.370442748 0.9231061935 
-13.37038803 11.95996475 -1.231952906 0.9306006432 
-20.8777504 17.06598473 -1.851819873 0.8975241184 
-21.63694382 16.13581657 -1.853591323 0.8974311352 
-27.14249039 10.64603519 -2.002238035 0.8896765113 
-27.58919334 9.428097725 -2.002236843 0.8896765113 
-27.98125458 8.191515923 -2.002233744 0.8896765709 
-28.3178463 6.938551903 -2.002225876 0.8896770477 
-28.59841728 5.671984673 -2.002221823 0.8896772265 
-28.82230949 4.394201756 -2.002217054 0.8896776438 
-15.57816124 0.9717260599 -1.071893096 0.9393371344 
-15.58316326 0.2773852348 -1.070329189 0.9394230247 
-15.58816624 -0.4162963629 -1.070883036 0.9393925667 
-15.59319019 -1.112082481 -1.07356739 0.9392454028 
-28.78128624 -4.650454044 -2.002163887 0.8896804452 
-28.54563904 -5.926257133 -2.002154112 0.8896813393 
-28.25379562 -7.190048695 -2.002143383 0.8896813393 
-27.9058857 -8.439723969 -2.002132177 0.8896817565 
-26.53383636 -12.07864761 -2.002100945 0.8896835446 
-23.9929409 -12.23854923 -1.849671006 0.8976365924 
-21.44645882 -16.29282379 -1.84962368 0.8976390362 
-14.13770485 -15.38654518 -1.434975386 0.9196346998 
-13.48530769 -16.05504608 -1.439894319 0.9193707108 
-12.31027317 -16.05540276 -1.389389634 0.9220857024 
-11.21281242 -16.05573463 -1.344881773 0.9244849086 
-10.18147945 -16.05604744 -1.305637479 0.926605463 
-9.206757545 -16.0563488 -1.271066308 0.9284775853 
-8.280527115 -16.05662727 -1.240671396 0.9301267266 
-7.39584446 -16.05690193 -1.214041352 0.9315738678 
-6.546718597 -16.05715942 -1.190842986 0.9328365922 
-5.727758884 -16.05740356 -1.170785546 0.9339296818 
-4.934477329 -16.05764771 -1.153638005 0.9348649979 
-3.26642561 -15.38987064 -1.080430627 0.9388692975 
-2.557021379 -15.39008999 -1.07139039 0.9393649101 
-1.883564353 -15.60187721 -1.07922554 0.9389352798 
0.8913476467 -15.39113998 -1.058743715 0.9400587082 
5.125151157 -26.45641327 -1.850637197 0.8975854516 
7.687924862 -17.50431824 -1.312926054 0.9262112975 
7.688510418 -15.58340073 -1.19334209 0.9327004552 
9.401454926 -15.42633533 -1.240627646 0.9301291108 
10.42078114 -15.50224781 -1.282779455 0.9278429747 
11.1000042 -15.0233078 -1.282774329 0.9278432131 
13.8014307 -15.56782436 -1.428749084 0.9199693799 
15.09068775 -15.56820965 -1.488975763 0.9167401195 
19.75448608 -15.56961632 -1.727331996 0.904071033 
22.5522213 -14.72659397 -1.849716425 0.8976344466 
23.76400757 -12.6597023 -1.849102259 0.8976664543 
24.79514122 -10.49734592 -1.849101663 0.8976666927 
28.11190796 -7.689162254 -2.001477718 0.8897163272 
29.11600113 -1.296462417 -2.00150013 0.8897150755 
29.14496994 7.324218586e-06 -2.001506567 0.8897146583 
29.02981949 2.590400219 -2.001521826 0.889713943 
25.63121605 8.252568245 -1.849191666 0.8976619244 
25.22562027 9.379677773 -1.848231316 0.8977123499 
17.87135696 10.56696796 -1.425790429 0.9201282263 
16.31925201 10.65648937 -1.338493466 0.9248298407 
14.90148449 10.70549583 -1.260055423 0.9290745854 
19.86258698 17.14082146 -1.801738858 0.900152266 
9.953627586 10.26863289 -0.9821067452 0.9442740083 
8.603085518 10.62069511 -0.9386325479 0.9466739893 
7.809645653 10.56994152 -0.9025222063 0.9486720562 
6.45425272 10.59043407 -0.8517110944 0.9514904022 
5.378679276 10.90186977 -0.8348394036 0.9524281621 
3.111047268 10.8051281 -0.7721762061 0.9559188485 
2.632853985 10.95586681 -0.7738046646 0.955828011 
2.042231321 10.54256821 -0.7374609709 0.9578583241 
1.589645982 10.74740314 -0.7460987568 0.9573754072 
1.388566852 13.51990604 -0.9333513379 0.9469659328 
1.298125029 22.41504669 -1.541911483 0.9139111042 
0.3502929509 26.23775864 -1.802015901 0.9001376629 
-2.016381741 26.60434914 -1.832269549 0.8985490799 
-5.541327953 15.53453445 -1.132662892 0.9360105991 
-5.553613186 13.62136078 -1.010196924 0.9427269697 
-6.856750488 11.95799446 -0.9466286302 0.9462321401 
-10.46901321 16.50948715 -1.342505455 0.9246128201 
-13.65220642 14.8581562 -1.385699749 0.9222843647 
-12.00113297 11.9478426 -1.162961364 0.9343560934 
-20.72093773 17.24775314 -1.851454854 0.8975431919 
-21.48843956 16.32473373 -1.853244305 0.8974493146 
-22.84395027 14.34361458 -1.852397323 0.8974936008 
-23.4416008 13.3031292 -1.85099411 0.8975672126 
-23.99481201 12.2393055 -1.849810481 0.8976293802 
-26.53562927 12.07945156 -2.00223875 0.8896765113 
-27.90727997 8.440133095 -2.002234936 0.8896765709 
-28.5467968 5.926332951 -2.002222776 0.8896772265 
-28.7820549 4.650576115 -2.002218008 0.8896776438 
-28.96037292 3.36563468 -2.002212524 0.8896778822 
-28.82159615 -4.394096375 -2.002165794 0.8896802068 
-24.1009655 -12.02451897 -1.849672556 0.8976364732 
-23.54210472 -13.0846405 -1.849665761 0.8976368904 
-22.33774757 -15.16041183 -1.853960514 0.8974117637 
-21.59074211 -16.1011982 -1.84963131 0.897638917 
-20.85291862 -17.04568481 -1.849613309 0.897639513 
-19.25511169 -18.83135414 -1.849590421 0.8976408839 
-12.53860855 -16.05533409 -1.398982406 0.921569407 
-10.38288021 -16.05598831 -1.313095093 0.926202178 
-7.569721699 -16.05684853 -1.219083548 0.931299746 
-6.713920593 -16.05711174 -1.19522202 0.932598114 
-5.889384747 -16.05735588 -1.174557447 0.9337239861 
-3.557909966 -16.05807304 -1.129517198 0.9361823797 
-2.697998047 -15.39004135 -1.073016047 0.9392757416 
-1.322617173 -15.60608578 -1.075575113 0.939135313 
3.705507755 -26.69056892 -1.850527406 0.8975915909 
6.063603401 -26.25816536 -1.850712061 0.8975821733 
7.225854397 -25.9636631 -1.850807786 0.897577703 
7.686088562 -23.51273537 -1.698802352 0.9055783153 
7.687050819 -20.39524651 -1.49680829 0.9163209796 
7.68840313 -15.93920612 -1.215298176 0.9315055609 
9.218158722 -15.43305397 -1.234520793 0.9304608703 
10.28240204 -15.59441662 -1.282780766 0.9278428555 
10.96584892 -15.12151051 -1.282775283 0.9278432131 
22.4211216 -14.92719936 -1.849784493 0.8976309299 
23.0586853 -13.91247749 -1.849440694 0.8976488709 
24.19950104 -11.80581474 -1.849101663 0.8976666927 
25.43112755 -9.714489937 -1.86954236 0.8965958357 
28.36772919 -6.683805943 -2.001480103 0.8897163868 
28.63708496 -5.415317059 -2.001483679 0.8897159696 
28.84972572 -4.136074066 -2.00148797 0.8897156119 
29.00516129 -2.848642588 -2.001492977 0.8897156119 
29.14370537 -0.2594384849 -2.001505136 0.8897150755 
29.12655258 1.037380338 -2.001512289 0.8897144794 
29.05171394 2.332004309 -2.001519918 0.8897140026 
28.72968292 4.904916763 -2.001537561 0.8897132277 
28.48321724 6.178088188 -2.001547098 0.8897126317 
26.03502464 6.872722149 -1.849179626 0.8976624012 
24.8646431 10.26688671 -1.847397089 0.8977558613 
16.4228363 10.51680374 -1.339257479 0.9247885346 
14.9475584 10.53814697 -1.25597012 0.9292962551 
19.24010658 17.83698463 -1.801749825 0.9001516104 
9.208217621 10.20241451 -0.9438146949 0.9463876486 
7.960541725 10.57599831 -0.9090492129 0.9483104944 
6.612460613 10.63592243 -0.8600670695 0.9510263801 
4.810133934 10.69258022 -0.8051823974 0.9540785551 
3.728940248 10.75525761 -0.7817389369 0.9553852081 
2.726743221 10.91786957 -0.7728036046 0.955883801 
2.155463934 10.61987495 -0.7441807985 0.9574825764 
1.680673838 10.70368385 -0.7440719604 0.957488656 
1.467111826 21.94794655 -1.510618567 0.9155823588 
0.5837255716 26.23360252 -1.802013159 0.9001376629 
-2.962199688 26.51705933 -1.83236289 0.8985441923 
-6.467460632 25.89579201 -1.832990885 0.8985110521 
-13.08835316 23.30403709 -1.835517287 0.8983786702 
-13.63824654 15.11061954 -1.397884488 0.9216290712 
-11.78938484 11.94777966 -1.152699947 0.9349161386 
-20.56254387 17.42796516 -1.851086378 0.8975625634 
-21.33828735 16.5121212 -1.852893591 0.897467792 
-22.71894646 14.54867649 -1.852691889 0.8974782825 
-23.32568359 13.51324463 -1.85126555 0.8975529671 
-23.8867836 12.4534235 -1.84995544 0.8976216912 
-26.42705917 12.31517029 -2.002238512 0.8896765113 
-27.83105659 8.688215256 -2.002235651 0.8896765113 
-28.18986511 7.441567421 -2.00222826 0.8896769881 
-28.4929142 6.180190086 -2.00222373 0.8896772265 
-28.92928886 3.623168945 -2.002213955 0.8896778226 
-15.59117603 -0.8333544731 -1.072235823 0.9393183589 
-29.01519012 -2.849633694 -2.002177 0.8896796703 
-28.85954857 -4.137492657 -2.002167702 0.8896802068 
-28.37739754 -6.686079025 -2.002147675 0.8896809816 
-27.23450851 -10.40338326 -2.002113104 0.889682889 
-26.20184708 -12.78266811 -2.002098322 0.8896838427 
-11.64325142 -16.05560303 -1.362014771 0.9235606194 
-10.58670425 -16.05592918 -1.320742488 0.925788641 
-7.745121956 -16.05679893 -1.22426331 0.9310180545 
-6.882446289 -16.05705833 -1.199729085 0.9323526621 
-6.052060604 -16.05730629 -1.178445935 0.9335119128 
-4.46907711 -16.05779457 -1.144667149 0.9353547692 
-3.708081007 -16.05802917 -1.131789923 0.9360581636 
-2.839345694 -15.39000225 -1.07473135 0.9391816854 
-1.462485313 -15.60516834 -1.076367497 0.9390919805 
-0.07286132872 -16.37854767 -1.124794722 0.9364406466 
0.6563085914 -16.37877083 -1.125700951 0.9363910556 
3.467661142 -26.72214127 -1.850509644 0.8975929022 
7.68586874 -24.24056435 -1.746377468 0.9030665755 
7.686874866 -20.95820045 -1.533040404 0.9143846631 
7.687655926 -18.38591003 -1.368566394 0.9232073426 
9.0366745 -15.43959713 -1.228562951 0.9307845235 
10.14327145 -15.68531418 -1.282781601 0.9278427362 
10.83089828 -15.21850777 -1.282776356 0.9278430939 
12.02270508 -15.39458179 -1.34141326 0.9246721268 
13.31407642 -15.5676775 -1.406761408 0.921151042 
15.91880798 -15.56845379 -1.529117823 0.9145942926 
19.0468998 -15.56940174 -1.689427733 0.9060740471 
20.87816811 -15.56995773 -1.788591266 0.9008434415 
22.93478394 -14.11772156 -1.849510193 0.8976451755 
23.53563881 -13.08104706 -1.849159479 0.8976635337 
27.97060966 -8.188266754 -2.001476765 0.8897163272 
28.58779716 -5.669889927 -2.001482964 0.8897158504 
28.81175232 -4.392590046 -2.001487017 0.8897157311 
28.97867584 -3.106601477 -2.001492023 0.8897155523 
29.13465309 0.7780712843 -2.001510859 0.8897144198 
28.95038033 3.364477396 -2.001526833 0.8897137642 
26.09511566 6.640695572 -1.849177718 0.8976626396 
25.77396965 7.79496336 -1.849187613 0.897662282 
25.39440918 8.931176186 -1.848653197 0.897690177 
23.8773098 10.86933613 -1.801658392 0.900156498 
18.81297874 10.67649364 -1.485517263 0.9169253111 
15.06813431 10.42371273 -1.258259296 0.929172039 
16.07963753 13.38442135 -1.436750889 0.9195397496 
10.3714447 10.32541943 -1.005039215 0.9430107474 
8.179125786 10.66744804 -0.9231311679 0.9475312233 
6.811720848 10.74198246 -0.873510778 0.9502801299 
4.940627098 10.72643375 -0.8110116124 0.9537539482 
4.373217583 10.72620678 -0.7954832315 0.9546189904 
1.390556574 11.51820374 -0.7967466712 0.9545486569 
1.3945508 18.39976311 -1.267210722 0.9286865592 
-0.3502905071 26.237854 -1.802024245 0.9001373053 
-2.726005793 26.54198647 -1.832336664 0.8985456228 
-3.904311419 26.3966198 -1.832487702 0.8985376954 
-6.236496449 25.95149422 -1.832935572 0.8985141516 
-7.385920048 25.65249252 -1.833231449 0.8984987736 
-5.553905964 12.64548206 -0.9484828711 0.9461296797 
-8.038544655 11.95834827 -0.9895169139 0.9438652396 
-9.687035561 11.95884609 -1.056895971 0.9401601553 
-12.66001606 11.94804573 -1.195463896 0.9325847626 
-21.18638611 16.69818115 -1.852539301 0.8974864483 
-21.92874908 15.75397682 -1.854273915 0.897395432 
-20.81784058 8.813508987 -1.552491069 0.913346827 
-27.32767105 10.16116142 -2.002237558 0.8896766305 
-28.12256622 7.692080021 -2.002230406 0.8896768689 
-28.69472504 5.162096977 -2.002219915 0.8896776438 
-15.59017277 -0.6941967607 -1.071700096 0.939347744 
-29.03940773 -2.591252327 -2.002178669 0.8896796107 
-28.69390488 -5.161940575 -2.002159834 0.889680624 
-28.12125587 -7.691725731 -2.002138853 0.8896816969 
-27.75107384 -8.935110092 -2.002127647 0.8896822929 
-26.84685516 -11.36610794 -2.002105474 0.8896833062 
-23.77129173 -12.66359615 -1.849668384 0.8976367712 
-23.18433571 -13.7084446 -1.849660873 0.8976371288 
-21.15297318 -16.6718483 -1.849617362 0.8976395726 
-20.39029312 -17.5962429 -1.849606752 0.8976400495 
-19.58722687 -18.48569489 -1.849595189 0.8976408243 
-14.91435051 -15.38630581 -1.471572399 0.9176717997 
-11.8626852 -16.05554008 -1.370909214 0.9230809808 
-10.79293442 -16.05586052 -1.328587294 0.9253647327 
-9.785302162 -16.05616951 -1.291276813 0.9273825288 
-8.83079052 -16.05646133 -1.258429527 0.9291628599 
-7.92195797 -16.05673981 -1.229584575 0.9307288527 
-5.407641411 -16.05751228 -1.163588166 0.9343219995 
-4.623378754 -16.0577507 -1.147548556 0.9351972938 
-1.602631807 -15.60416222 -1.077239752 0.9390441775 
3.229584932 -26.75170517 -1.850491643 0.8975937963 
5.595073223 -26.36138916 -1.850674391 0.8975841999 
6.76251936 -26.08762932 -1.850769281 0.8975796103 
7.686704159 -21.54883575 -1.571177959 0.912350893 
7.688173771 -16.69153976 -1.262029409 0.9289677143 
7.938466549 -15.39333725 -1.189421177 0.9329140186 
8.856772423 -15.44598866 -1.222750425 0.9311004877 
10.69501972 -15.31430912 -1.28277719 0.9278430939 
14.30440903 -15.567976 -1.451898932 0.9187266827 
15.63781261 -15.56837082 -1.515378118 0.9153282642 
17.0961132 -15.56881523 -1.5879426 0.9114585519 
22.1534996 -15.32498741 -1.849919558 0.8976239562 
23.41924286 -13.29042244 -1.849230289 0.8976597786 
23.98559952 -12.23465061 -1.849101782 0.8976665139 
24.50607872 -11.15556145 -1.849101543 0.8976665735 
27.49371529 -9.669496536 -2.00147438 0.8897162676 
28.24429131 -7.187629223 -2.00147891 0.8897163272 
29.13452148 -0.7780663967 -2.001502752 0.8897148967 
29.1403656 0.5187060237 -2.001509428 0.8897145987 
29.08857346 1.814467788 -2.001517057 0.8897141814 
28.97920418 3.106657743 -2.001525164 0.889713645 
28.81242561 4.39282465 -2.001533985 0.8897132277 
25.84229851 7.565331936 -1.849185586 0.897662282 
23.97302246 10.65645504 -1.801656127 0.9001566768 
21.26758194 10.61085415 -1.632222533 0.9091052413 
19.06245995 10.59487057 -1.497709036 0.916272819 
15.25565434 10.35387421 -1.266171813 0.9287429452 
14.9094286 11.11878681 -1.277261853 0.9281417727 
20.31300163 16.60435295 -1.801730752 0.9001527429 
19.55441856 17.491642 -1.801744342 0.9001520872 
9.759618759 10.43379116 -0.9811363816 0.9443277121 
8.907240868 10.41490936 -0.9411339164 0.9465357661 
8.38260746 10.73367405 -0.9352791905 0.9468593597 
7.489557743 10.52365685 -0.887041688 0.9495297074 
6.930449009 10.71718025 -0.8764731884 0.9501157403 
6.188735008 10.57385731 -0.8413814902 0.9520643353 
5.578014851 10.58401585 -0.8216115236 0.9531638622 
3.958481312 10.79274368 -0.7894601226 0.9549546838 
2.890200138 10.75441837 -0.7647531629 0.9563331008 
2.365290403 10.67537212 -0.750900805 0.9571070075 
1.864865661 10.63760757 -0.7416673303 0.9576230049 
1.475839853 11.37291431 -0.7875737548 0.9550600052 
1.41701901 16.71982956 -1.152337432 0.9349360466 
1.050622582 26.21892548 -1.802007675 0.9001380801 
-2.489724159 26.56483078 -1.832312465 0.8985469341 
-9.418156624 24.98822212 -1.833883047 0.8984643221 
-5.553811073 12.95730114 -0.9681219459 0.945045352 
-6.438727856 11.95786762 -0.9326745868 0.9470034242 
-9.828046799 13.55251408 -1.149672627 0.9350813627 
-9.511958122 11.95879459 -1.049365997 0.9405735135 
-10.41351318 11.9590683 -1.088998437 0.9383995533 
-13.6024704 11.95131969 -1.243457079 0.9299742579 
-21.7837429 15.9455328 -1.853934646 0.8974131942 
-22.46372986 14.95558834 -1.853294492 0.897446692 
-23.08843613 13.930439 -1.851822138 0.8975237608 
-21.9004612 11.91829395 -1.71227622 0.9048658013 
-26.20369148 12.78355408 -2.002238512 0.8896765113 
-20.74573517 9.001578331 -1.553027511 0.9133182168 
-27.23617172 10.40401554 -2.002238035 0.8896765113 
-28.05304909 7.942106724 -2.002232313 0.8896766305 
-28.37846565 6.686323166 -2.002225161 0.8896770477 
-28.64764404 5.417319298 -2.002221107 0.8896775842 
-28.8602047 4.137585163 -2.002216101 0.8896778226 
-28.73875237 -4.906466961 -2.002161741 0.8896803856 
-28.49189568 -6.179987431 -2.002152205 0.889680922 
-28.18862724 -7.441239834 -2.002141237 0.8896815181 
-27.82955933 -8.687758446 -2.002130032 0.8896821141 
-27.41540146 -9.917045593 -2.002118111 0.8896827102 
-26.94695282 -11.12669182 -2.002107143 0.8896833062 
-26.4251976 -12.31432056 -2.002099514 0.8896837831 
-22.72618103 -14.5533123 -1.853282094 0.8974474072 
-22.06994629 -15.55946541 -1.85442853 0.8973873258 
-20.54618645 -17.4140892 -1.849609017 0.8976397514 
-15.18210411 -15.38622284 -1.484429598 0.9169834256 
-14.10411549 -15.62693596 -1.445628285 0.9190629721 
-13.24342728 -16.05511856 -1.42927146 0.9199411273 
-12.08494091 -16.05547142 -1.380032301 0.9225896001 
-9.982251167 -16.05611038 -1.298363566 0.9269989133 
-8.100439072 -16.05668259 -1.235052705 0.9304317832 
-6.380644321 -16.05720901 -1.186587334 0.9330683947 
-5.567250729 -16.05746269 -1.167131424 0.9341288805 
-4.010454178 -16.05793571 -1.136637449 0.9357933402 
-3.123608351 -15.38991451 -1.078438997 0.9389784336 
-2.416523457 -15.39012909 -1.069853783 0.9394491911 
-1.743007779 -15.60306358 -1.078192353 0.9389919639 
0.3645019531 -16.37868309 -1.125070214 0.9364255071 
1.028891563 -15.39118862 -1.059335351 0.9400262237 
4.179946423 -26.62084579 -1.850563645 0.8975899816 
7.686503887 -22.16995239 -1.611414194 0.9102103114 
7.687367916 -19.34562683 -1.429595113 0.9199239612 
7.688051701 -17.09000206 -1.286928058 0.9276181459 
8.678496361 -15.45221424 -1.217079163 0.9314088225 
9.862431526 -15.86340046 -1.282784224 0.9278427362 
10.55829048 -15.40892315 -1.282778621 0.9278429747 
12.84135246 -15.56753159 -1.385872722 0.922275126 
14.05096149 -15.56790257 -1.440176487 0.9193556905 
20.1202774 -15.56972885 -1.747137666 0.903026402 
22.01701546 -15.52213573 -1.849986434 0.8976204395 
24.40579605 -11.37324429 -1.849101543 0.8976666331 
24.88763618 -10.27624989 -1.849101782 0.8976665139 
26.80984879 -9.697993279 -1.957897544 0.8919827342 
28.1791935 -7.438742638 -2.001478195 0.8897163272 
28.72898865 -4.90478754 -2.001485348 0.8897157311 
28.91879272 -3.621852875 -2.001489878 0.8897155523 
29.05132294 -2.331972599 -2.001495361 0.8897153735 
29.14378357 0.2592944205 -2.001507998 0.8897147775 
29.10355949 1.555583477 -2.001515388 0.8897141814 
29.00560951 2.848574162 -2.001523495 0.8897140026 
28.85038948 4.136184216 -2.001532078 0.8897132277 
