# .PCD v0.7 - Point Cloud Data file format
VERSION 0.7
FIELDS x y z intensities
SIZE 4 4 4 4
TYPE F F F F
COUNT 1 1 1 1
WIDTH 924
HEIGHT 1
VIEWPOINT 0 0 0 1 0 0 0
POINTS 924
DATA ascii
-12.8994894 23.45417404 -1.838232875 0.8982365131 
-13.9361496 22.8671627 -1.839032531 0.8981942534 
-10.64621544 13.14298153 -1.161548138 0.9344334006 
-13.85699177 11.95816422 -1.256965876 0.9292420745 
-15.17285633 11.95856285 -1.326714158 0.925466001 
-18.74326134 13.46546841 -1.584912896 0.9116196632 
-23.18739128 13.71012306 -1.849902511 0.8976246119 
-24.34399414 11.60924911 -1.852171183 0.897505641 
-24.88066101 10.53358841 -1.85547936 0.8973324299 
-25.34129906 9.422626495 -1.85670197 0.8972682953 
-28.52772141 6.454018593 -2.008627892 0.8893448114 
-28.98994255 3.893159151 -2.00873065 0.889339447 
-15.78474617 1.408508301 -1.088310719 0.9384373426 
-15.55812931 0 -1.068440437 0.9395266771 
-28.78708267 -5.178774357 -2.008664131 0.8893429041 
-28.52731133 -6.454052448 -2.008600235 0.8893461823 
-28.21093369 -7.716315746 -2.008522987 0.8893501163 
-24.87876892 -10.53282928 -1.855336905 0.8973397613 
-24.3840332 -11.62834644 -1.855219126 0.8973460197 
-23.25068855 -13.74766827 -1.854952455 0.8973597884 
-21.93315887 -15.75714588 -1.854646444 0.8973758817 
-19.52259636 -15.38685799 -1.707064986 0.90514189 
-17.01266479 -16.05591583 -1.606481075 0.9104725122 
-15.56385231 -16.05636406 -1.535663366 0.9142447114 
-11.86409187 -16.05749702 -1.371074677 0.9230720997 
-10.79420376 -16.05783463 -1.328750014 0.9253560305 
-9.786464691 -16.05814171 -1.291434884 0.9273740053 
-6.812407017 -15.51096439 -1.16341126 0.9343317151 
-4.470034122 -15.52512932 -1.109487534 0.9372778535 
-3.744863272 -19.33204269 -1.352289915 0.924085021 
-2.754062414 -26.81640244 -1.851275444 0.897552371 
-0.3597998023 -26.94968414 -1.850909829 0.8975716829 
2.036547899 -26.86976814 -1.850553036 0.8975905776 
2.582597494 -21.39183235 -1.479732156 0.9172348976 
2.58430171 -15.55410385 -1.082808375 0.9387389421 
3.30849123 -15.58795166 -1.094334364 0.9381073117 
4.037714958 -15.57612514 -1.105033517 0.9375216365 
5.843696117 -16.38231087 -1.194473743 0.932638824 
6.276640415 -15.3948164 -1.141722202 0.9355157018 
8.028564453 -15.5680542 -1.202918649 0.9321790338 
14.30622005 -15.56994343 -1.452081919 0.9187168479 
15.63978481 -15.57035828 -1.51556623 0.9153180122 
18.49945831 -15.39857674 -1.652959824 0.908005178 
21.26541519 -16.1552124 -1.834010005 0.8984578252 
23.3547554 -13.25390816 -1.844143629 0.897926569 
23.91804695 -12.20025826 -1.843898296 0.897939384 
28.1573391 -7.165500164 -1.99531281 0.8900364637 
28.44734764 -5.905683517 -1.995246887 0.8900396228 
28.68103981 -4.634255409 -1.995194077 0.8900427222 
28.97855377 -2.066711426 -1.995128393 0.8900458217 
29.04156685 -0.7755907774 -1.995115757 0.8900466561 
29.04727936 0.5171093345 -1.995116591 0.8900467753 
28.99580956 1.808745027 -1.995130539 0.8900457621 
26.07183075 6.38828373 -1.843423128 0.8979641199 
25.39887238 8.679543495 -1.843278885 0.8979716897 
24.97456551 9.795724869 -1.84231925 0.8980221748 
24.50172806 10.89149189 -1.841390371 0.8980708718 
11.65199661 8.68951416 -0.9982044101 0.94338727 
12.77848625 10.44544125 -1.133429289 0.9359686375 
11.70876408 10.47363472 -1.078844547 0.9389561415 
9.859477043 10.54058361 -0.9911769629 0.9437743425 
17.01686478 19.89730263 -1.797999024 0.9003487825 
10.50205517 14.7565012 -1.243832707 0.9299551249 
14.22235775 21.9932251 -1.798657298 0.9003142118 
5.486513615 10.41035175 -0.8081291914 0.9539143443 
4.815429688 10.21449471 -0.7755108476 0.9557326436 
3.3994627 10.72158909 -0.7724195123 0.9559053183 
2.848835468 10.60054874 -0.753813982 0.9569442868 
1.381484389 10.6458931 -0.7372257113 0.9578713775 
0.897895515 10.5947361 -0.7301924229 0.9582648873 
-0.5208569169 10.63279152 -0.7310729623 0.9582155943 
-1.025229454 10.93959427 -0.7545570731 0.9569026232 
-1.468793869 10.57992554 -0.733532846 0.9580779076 
-2.953788996 10.61322403 -0.7565555573 0.9567911029 
-12.68918705 23.56607056 -1.838077307 0.8982445598 
-10.65742874 14.6961956 -1.24668026 0.9297997355 
-11.3748188 11.94570541 -1.132782698 0.936003983 
-17.96341133 11.95941257 -1.482049227 0.9171128869 
-23.67219162 12.88246536 -1.850803137 0.8975773454 
-24.23669815 11.82395077 -1.851941824 0.8975177407 
-24.7540741 10.74108124 -1.853091717 0.897456944 
-25.64465714 8.509430885 -1.855547309 0.8973287344 
-28.95404053 4.151037693 -2.008723021 0.889339745 
-15.55567551 0.8314599395 -1.069796681 0.9394522309 
-15.55772686 0.1384863257 -1.068454742 0.9395258427 
-15.55977058 -0.5541772246 -1.069230914 0.939483285 
-15.57385731 -1.250126958 -1.07296133 0.9392787218 
-28.8321743 -4.922414303 -2.008675098 0.8893424273 
-28.58387184 -6.199934006 -2.008614302 0.8893452883 
-24.97182655 -10.31113052 -1.855358958 0.8973385692 
-24.48689079 -11.41104507 -1.855243683 0.8973447084 
-22.07291985 -15.56155968 -1.854678869 0.8973742723 
-17.3188324 -16.05582809 -1.621832252 0.9096568227 
-13.24503422 -16.05707741 -1.429447293 0.9199317694 
-12.08641529 -16.05742836 -1.38020134 0.9225804806 
-11.00288582 -16.05776978 -1.336793184 0.9249215126 
-9.983476639 -16.05807304 -1.298525929 0.9269903302 
-5.678671837 -16.37880516 -1.190487385 0.9328559041 
-3.844062328 -15.3916769 -1.08947587 0.9383735061 
-3.744614124 -18.44957733 -1.292841434 0.9272979498 
-3.74619627 -23.85842896 -1.658533573 0.907709837 
-2.992831945 -26.79129028 -1.851312399 0.8975506425 
-1.797910094 -26.8951931 -1.85112834 0.8975604177 
-0.5995605588 -26.94592476 -1.85094595 0.8975698948 
0.5995947123 -26.94330215 -1.850765944 0.8975793123 
2.582104445 -23.11452866 -1.597244382 0.9109635949 
3.124399424 -15.3938446 -1.078715444 0.9389633536 
3.890761614 -15.57868862 -1.10271275 0.9376485348 
6.925551414 -15.3950119 -1.159291387 0.9345564842 
7.853896141 -15.56799984 -1.197466254 0.9324759245 
12.84286594 -15.56951427 -1.386040449 0.9222658873 
14.05274391 -15.56987476 -1.440356612 0.9193459153 
16.79554558 -15.57070541 -1.572828293 0.9122630358 
18.16805077 -15.39846897 -1.635528684 0.9089297652 
20.58463287 -15.92891312 -1.787453532 0.9009034038 
23.23713303 -13.4619503 -1.844241023 0.8979213238 
24.81477547 -10.24629402 -1.84369123 0.8979501128 
28.3937645 -6.158696175 -1.995259047 0.8900392056 
29.03351021 -1.033940434 -1.995117307 0.8900466561 
29.01068878 1.550629854 -1.995126724 0.8900460005 
28.54777718 5.398425102 -1.995241404 0.8900402188 
25.47777748 8.454064369 -1.843474388 0.8979615569 
25.06337357 9.574026108 -1.842508793 0.8980121017 
24.60019875 10.67403507 -1.841573596 0.8980610967 
24.08917427 11.75198936 -1.840670586 0.8981086016 
11.12662601 10.68975067 -1.059612393 0.9400109649 
17.19287109 19.74463654 -1.79795754 0.9003508687 
10.57829094 13.29944992 -1.167008638 0.9341355562 
14.41714859 21.86522102 -1.798611403 0.9003166556 
13.4319725 22.48782349 -1.798843384 0.9003043771 
4.906161785 10.17122269 -0.7755119205 0.9557326436 
3.885742188 10.30961609 -0.7566218376 0.9567873478 
3.492621899 10.68434811 -0.7719444036 0.9559317231 
0.9970971346 10.63943291 -0.7338559628 0.9580599666 
-2.427856445 10.95780373 -0.770765543 0.9559975863 
-3.379143 10.65752029 -0.7678034902 0.9561629295 
-12.47787571 23.67612457 -1.837923408 0.8982525468 
-13.52451897 23.10751724 -1.838708162 0.8982113004 
-10.67106915 16.50146484 -1.349581599 0.924233973 
-10.6460638 13.63184643 -1.187816262 0.9330013394 
-10.65813446 12.46218491 -1.126135468 0.9363673329 
-11.18476582 11.95735168 -1.124387145 0.9364618659 
-12.21479511 11.94596004 -1.17331636 0.9337914586 
-13.36821747 11.95801353 -1.231743455 0.9306115508 
-14.62937737 11.95839977 -1.297599792 0.9270403981 
-12.73008728 8.639770508 -1.056529403 0.9401787519 
-24.65437889 10.95932484 -1.852861404 0.8974695802 
-25.56769562 8.737288475 -1.8555336 0.8973295689 
-25.93218231 7.591584206 -1.855613112 0.8973253369 
-28.40794373 6.960619926 -2.00860095 0.889346242 
-28.69040489 5.690227032 -2.00866437 0.8893427849 
-15.55731201 0.2769238353 -1.068553329 0.9395204186 
-15.56140804 -1.109814405 -1.071380258 0.9393654466 
-29.05463219 -3.376591682 -2.00873065 0.889339447 
-28.87500954 -4.665595531 -2.008685827 0.8893418312 
-28.6380806 -5.945278168 -2.008627653 0.8893447518 
-28.34420013 -7.213048935 -2.008555412 0.8893486857 
-27.99415398 -8.466425896 -2.008470774 0.8893528581 
-27.58846664 -9.702804565 -2.00837326 0.8893580437 
-25.06291389 -10.08856869 -1.855380654 0.8973374367 
-24.58779716 -11.19277096 -1.855267644 0.8973434567 
-22.87424278 -14.36275101 -1.854865074 0.897364676 
-22.21088409 -15.36481667 -1.854710937 0.8973726034 
-19.20830536 -15.98866463 -1.716308117 0.9046536088 
-17.63078117 -16.05572891 -1.637599587 0.9088196754 
-13.48694801 -16.05699921 -1.440070271 0.9193613529 
-11.21418476 -16.0576973 -1.345043302 0.9244760275 
-10.18273449 -16.05801392 -1.305798888 0.9265967607 
-7.936962605 -15.39040756 -1.189193726 0.9329263568 
-7.139985085 -15.50139332 -1.172041416 0.9338610172 
-6.329506874 -15.5243721 -1.151327968 0.9349910021 
-4.755029202 -15.47371292 -1.11168623 0.9371575713 
-3.989863157 -15.39163303 -1.091943502 0.9382383823 
-3.744379759 -17.64175415 -1.238519669 0.9302435517 
-3.745815277 -22.54509544 -1.569488287 0.912440896 
-3.231127739 -26.76413727 -1.851349235 0.8975487351 
0.3597753942 -26.94808769 -1.850801826 0.8975774646 
1.558012605 -26.90279007 -1.850623608 0.8975868821 
2.581503868 -25.13506508 -1.735207319 0.9036554098 
2.981977463 -15.39379597 -1.076807857 0.9390678406 
3.744350433 -15.5811491 -1.100486398 0.9377706051 
5.51697731 -16.38220978 -1.187119365 0.9330394268 
5.987348557 -15.46722412 -1.139003038 0.9356639981 
7.680888653 -15.56794167 -1.192159891 0.9327648878 
9.488080978 -15.56849289 -1.252059698 0.9295085073 
11.50328541 -15.56910324 -1.329376221 0.9253221154 
12.61171341 -15.56944561 -1.375991821 0.9228072166 
13.80318356 -15.56979656 -1.428926945 0.9199596047 
16.4984417 -15.57061291 -1.55792284 0.9130572677 
22.49261665 -14.68767834 -1.844826341 0.897890687 
23.69775391 -12.62442112 -1.843949199 0.8979367018 
24.23424339 -11.55696774 -1.843825221 0.8979431987 
26.10190392 -9.705388069 -1.912426829 0.894353807 
27.6581974 -8.905085564 -1.995427012 0.8900305629 
28.0257473 -7.6656003 -1.995342851 0.8900349736 
28.33805084 -6.41109848 -1.995271564 0.8900384903 
28.59436035 -5.144030571 -1.995213628 0.8900414705 
28.93723488 -2.582131386 -1.995137334 0.8900456429 
25.55299187 8.227385521 -1.843547821 0.8979577422 
24.19515038 11.53832722 -1.840848446 0.8980991244 
23.64665413 12.59720421 -1.839972377 0.8981451392 
18.65546417 11.03061295 -1.488346577 0.9167737961 
16.29520416 10.64079285 -1.336521268 0.9249362946 
14.8035593 10.63512897 -1.251775384 0.9295238853 
12.05543423 10.40350342 -1.093550801 0.9381503463 
11.25351048 10.62065697 -1.062652111 0.9398441911 
10.88860798 14.73715496 -1.258340001 0.9291676879 
4.614760876 10.50733089 -0.7881063819 0.9550301433 
4.006269455 10.34943581 -0.7621296644 0.9564796686 
3.575668812 10.61758518 -0.769389689 0.956074357 
1.088991642 10.60313416 -0.7319916487 0.9581642747 
0.6111132503 10.5524559 -0.7258936763 0.9585053325 
-0.8090966344 10.67529774 -0.7352180481 0.9579836726 
-2.300268412 10.83783054 -0.7608572245 0.956550777 
-3.235976458 10.53027153 -0.7565315962 0.9567923546 
-10.09539318 24.760952 -1.836336017 0.8983356953 
-14.34353733 22.61951637 -1.839363098 0.8981770277 
-11.53084946 16.51112938 -1.383026361 0.9224283099 
-10.64636421 12.67510796 -1.136767149 0.9357863069 
-10.98679447 11.95729065 -1.115150213 0.9369674921 
-13.13102055 11.95794392 -1.219652891 0.9312689304 
-14.36637688 11.9583168 -1.28365016 0.9277949929 
-17.2878418 11.95920277 -1.443614364 0.9191711545 
-25.86338234 7.821946621 -1.855597377 0.8973261714 
-26.18677902 6.663964748 -1.855671048 0.8973222971 
-28.63846588 5.945361137 -2.008652687 0.8893433213 
-28.87532234 4.665651798 -2.008705616 0.8893406987 
-15.55485821 1.10935545 -1.070928812 0.9393901825 
-15.55894756 -0.2769555748 -1.068666697 0.9395142794 
-15.56100273 -0.9706518054 -1.070714831 0.9394019246 
-29.08364105 -3.117846727 -2.008737803 0.8893390894 
-28.91549683 -4.408405781 -2.008695841 0.8893414736 
-28.68998909 -5.690285683 -2.008640289 0.8893442154 
-28.06862259 -8.217094421 -2.008488655 0.8893519044 
-27.67400551 -9.457089424 -2.008393764 0.8893568516 
-24.17255592 -12.06021214 -1.855168819 0.8973485827 
-23.00158691 -14.15884018 -1.854894638 0.8973629475 
-22.34714317 -15.16677475 -1.854742646 0.8973709345 
-21.64847183 -16.14441109 -1.854580045 0.8973793983 
-16.41741753 -16.05610085 -1.577009082 0.9120403528 
-11.42802238 -16.05763435 -1.353502512 0.9240196347 
-10.38415527 -16.0579567 -1.313254476 0.9261934757 
-9.398681641 -16.05825806 -1.277787566 0.9281133413 
-6.007260799 -16.37870407 -1.198060274 0.93244344 
-4.905869007 -15.47269249 -1.114703536 0.9369923472 
-3.745463848 -21.3650074 -1.489599228 0.9167067409 
-3.469311476 -26.73482132 -1.851386189 0.8975468874 
-2.276391506 -26.86005592 -1.851201773 0.8975563645 
0.1199072227 -26.95077896 -1.850837708 0.897575438 
2.583413124 -18.60856247 -1.290183067 0.927441895 
2.840112209 -15.39375687 -1.074996948 0.9391672015 
3.598574162 -15.58351326 -1.098346472 0.937887609 
4.333500862 -15.57070065 -1.109944105 0.9372528195 
5.35516119 -16.38216591 -1.183615446 0.9332302809 
5.830087662 -15.46842003 -1.135227323 0.935870409 
6.598632812 -15.39491463 -1.150256753 0.9350495338 
8.38269043 -15.56815624 -1.214264631 0.9315617681 
9.299017906 -15.56843472 -1.24534905 0.9298727512 
10.26546383 -15.56872749 -1.280667424 0.927957356 
11.29039478 -15.5690403 -1.320739508 0.925788939 
13.55752373 -15.56972885 -1.417790174 0.920558095 
16.20689011 -15.57052422 -1.543417931 0.9138307571 
19.1841507 -15.39877605 -1.689375997 0.9060767293 
21.68361282 -15.87223339 -1.84541297 0.8978598118 
22.36223984 -14.88801479 -1.844923973 0.8978855014 
22.9963131 -13.87486076 -1.844435811 0.8979110122 
24.13079071 -11.77229023 -1.843849182 0.8979418874 
24.62904739 -10.68655777 -1.843734145 0.8979479074 
25.42840767 -9.713461876 -1.869345069 0.8966063261 
27.57808113 -9.151002884 -1.995445371 0.8900296092 
27.95664406 -7.914826393 -1.995358706 0.8900341392 
28.54753304 -5.398386002 -1.995224118 0.8900411129 
28.75872421 -4.123036861 -1.995176673 0.8900436163 
29.01060486 -1.550632238 -1.995121717 0.8900462985 
29.05077553 -0.2586010695 -1.995114446 0.8900466561 
28.9591198 2.324582577 -1.995140076 0.8900454044 
28.63903809 4.889441013 -1.995219231 0.8900412917 
25.95435905 6.851428032 -1.8434515 0.897962749 
25.62499428 7.999538422 -1.843530536 0.8979585767 
25.2349987 9.12832737 -1.842891455 0.8979921937 
24.29921913 11.32360554 -1.841027737 0.8980898857 
23.76009178 12.38739014 -1.840144753 0.8981360197 
18.74409676 10.85900593 -1.487646699 0.9168112874 
12.43544865 10.53975582 -1.119467258 0.9367319942 
11.34426689 10.51697445 -1.062339902 0.9398613572 
10.15098095 10.28748798 -0.9925121665 0.9437007308 
9.738798141 10.79031754 -0.9981993437 0.9433875084 
5.137817383 10.18419647 -0.7833493352 0.9552953839 
4.108364105 10.33884716 -0.7640132904 0.956374526 
2.628442287 10.52431393 -0.7449480891 0.9574397206 
2.113603354 10.41365242 -0.7297300696 0.9582907557 
1.680671334 10.70373535 -0.7440756559 0.9574884772 
1.182597637 10.58648396 -0.731539309 0.9581895471 
-0.2391992062 10.74804401 -0.7382941246 0.9578116536 
-1.201518536 10.755826 -0.743240416 0.9575351477 
-1.682744145 10.71696472 -0.7449926734 0.957437098 
-3.139929056 10.55129147 -0.7560044527 0.9568218589 
-8.755666733 25.25369072 -1.8355546 0.8983768225 
-9.873859406 24.84801483 -1.836201429 0.8983427286 
-10.97352505 24.39333534 -1.836890578 0.8983066082 
-12.05253124 23.89051056 -1.837620378 0.8982684612 
-13.10883713 23.34048843 -1.838389754 0.8982281089 
-14.14034176 22.74423218 -1.83919704 0.8981857896 
-10.65715599 15.55318069 -1.294782996 0.9271926284 
-10.65759754 14.15917301 -1.217035413 0.9314109683 
-10.64628887 12.90646839 -1.148974657 0.9351195097 
-14.69592953 13.62419987 -1.376209378 0.9227955341 
-16.96313477 11.95910835 -1.425328374 0.9201529622 
-18.67596626 11.9596262 -1.523015976 0.9149211645 
-23.9036026 12.46220398 -1.851256967 0.8975534439 
-24.97686386 10.31325626 -1.855733752 0.8973188996 
-25.42730141 9.197880745 -1.856931567 0.8972562551 
-26.12623024 6.896789551 -1.855657101 0.8973230124 
-28.83250427 4.922465801 -2.008696079 0.8893412352 
-15.57739449 1.250349045 -1.07320559 0.9392653704 
-15.55649662 0.5539990067 -1.069005847 0.9394956231 
-29.11029053 -2.858977079 -2.008744717 0.889338851 
-28.95377922 -4.151005745 -2.008705378 0.8893406987 
-24.78370476 -10.75365448 -1.855314255 0.8973411322 
-23.12705994 -13.9537468 -1.854923844 0.8973614573 
-22.48160172 -14.96748734 -1.854773879 0.8973694444 
-21.79162598 -15.95145226 -1.854613423 0.8973777294 
-19.2081337 -15.41816616 -1.691490412 0.9059647322 
-18.2735405 -16.05552864 -1.67049253 0.9070761204 
-16.71220589 -16.05601311 -1.591544747 0.911266923 
-15.28909111 -16.05644798 -1.522592545 0.9149425626 
-13.98168945 -16.05685234 -1.462145686 0.9181771874 
-12.77181625 -16.05722427 -1.408998132 0.9210307002 
-11.64468193 -16.05756569 -1.362180471 0.9235516191 
-10.58799744 -16.05789185 -1.320903778 0.9257798791 
-9.591562271 -16.05820084 -1.284523606 0.9277483225 
-8.286928177 -15.39030457 -1.200391293 0.9323165417 
-7.423769474 -15.3905735 -1.173468232 0.9337832928 
-6.650356293 -15.51555347 -1.159270644 0.9345575571 
-5.354115963 -16.37890816 -1.183379054 0.9332430959 
-3.745151281 -20.29965591 -1.41758883 0.9205688834 
1.079013705 -26.92728615 -1.850694537 0.8975831866 
2.583037138 -19.90514374 -1.378431082 0.922675848 
2.698637724 -15.393713 -1.073272228 0.9392617345 
3.453251839 -15.58577824 -1.096298099 0.9379999042 
5.194203854 -16.38212204 -1.18022573 0.9334150553 
5.673793793 -15.46958256 -1.131561756 0.9360706806 
6.437011719 -15.39486504 -1.145926356 0.9352859855 
7.339184284 -15.56783867 -1.181956887 0.9333206415 
9.112045288 -15.56838131 -1.238809943 0.9302278161 
10.06783676 -15.56866932 -1.273241043 0.9283596277 
11.08033657 -15.5689764 -1.312316895 0.9262441397 
12.15915012 -15.56930351 -1.356636882 0.923850596 
13.31576633 -15.56965065 -1.406939983 0.9211414456 
14.56401348 -15.5700264 -1.464122534 0.91807127 
15.92083931 -15.57044125 -1.529311776 0.9145838618 
18.83804131 -15.39867878 -1.670901418 0.9070545435 
22.22997475 -15.08725834 -1.845021725 0.8978805542 
23.47057533 -13.04487991 -1.844046474 0.8979315162 
24.99260712 -9.802785873 -1.843650222 0.8979523778 
27.885355 -8.163314819 -1.995374918 0.8900332451 
28.88686371 -3.096755266 -1.995148301 0.8900450468 
28.99564934 -1.808671832 -1.995124936 0.8900463581 
29.04731941 -0.5170410275 -1.995114803 0.8900466561 
29.04158211 0.7755932212 -1.99511826 0.8900465965 
28.97857857 2.066706419 -1.99513495 0.8900457025 
28.68128395 4.634304047 -1.995208859 0.8900418282 
26.01412582 6.620095253 -1.843437195 0.8979634047 
25.69494629 7.771061897 -1.843513727 0.8979594707 
24.8839016 10.01651573 -1.842131019 0.89803195 
24.40147972 11.10795593 -1.841208458 0.8980802894 
23.8716259 12.17664814 -1.840318561 0.8981269002 
18.86289024 10.70481682 -1.489455342 0.9167143703 
13.85500431 10.5256176 -1.194908142 0.9326150417 
11.49886703 10.47162056 -1.068053007 0.9395480156 
16.83949661 20.04840088 -1.798040867 0.9003466368 
10.94844246 14.27924728 -1.235685587 0.9303974509 
13.40664005 19.19710732 -1.608011723 0.9103910923 
14.02645016 22.11949921 -1.798703432 0.9003117085 
5.324565411 10.32479668 -0.7977769971 0.9544910192 
4.7299366 10.26906013 -0.7764281034 0.9556815028 
3.305541992 10.75675964 -0.7728023529 0.9558839202 
2.745434523 10.59103203 -0.7513686419 0.9570808411 
2.24216795 10.56402302 -0.7416363955 0.9576249123 
0.8036791682 10.60391808 -0.7303030491 0.9582586884 
0.333378911 10.69955826 -0.7351403832 0.957988143 
-1.120480895 10.90974236 -0.7531577349 0.9569808841 
-1.587724566 10.73447132 -0.7451995015 0.9574255943 
-2.578798771 10.7309618 -0.7579203844 0.9567148685 
-3.64700675 10.82946301 -0.7847434282 0.9552177787 
-10.75521183 24.48807526 -1.836749554 0.898314178 
-11.83855915 23.99486923 -1.837471247 0.8982762098 
-13.93619823 22.86712265 -1.83903265 0.8981942534 
-10.65705776 15.85372162 -1.311736584 0.926268816 
-10.67874527 14.45312214 -1.234103918 0.9304842353 
-10.64621544 13.14298153 -1.161548138 0.9344334006 
-11.57936287 11.94576836 -1.14251852 0.9354721308 
-12.65795422 11.9460907 -1.1952703 0.9325953722 
-13.85699177 11.95816422 -1.256965876 0.9292420745 
-15.17285633 11.95856285 -1.326714158 0.925466001 
-18.74326134 13.46546841 -1.584912896 0.9116196632 
-23.18736839 13.71019459 -1.849902272 0.8976245522 
-23.78881264 12.672925 -1.851029754 0.8975653052 
-24.34402084 11.60919571 -1.852171183 0.897505641 
-24.88068581 10.53355694 -1.85547936 0.8973323703 
-25.71960449 8.280916214 -1.855564356 0.8973278999 
-26.06360054 7.128923416 -1.855642915 0.8973238468 
-28.52772141 6.454018593 -2.008627892 0.8893448114 
-28.98994255 3.893159151 -2.00873065 0.889339447 
-15.55609131 0.6926782131 -1.06935966 0.9394762516 
-15.55812931 0 -1.068440437 0.9395266771 
-29.13473511 -2.599748373 -2.008750916 0.8893383145 
-28.98973656 -3.893141985 -2.008714437 0.8893401623 
-28.78709412 -5.178708553 -2.008664131 0.8893429041 
-28.52732849 -6.45402813 -2.008600235 0.8893461227 
-27.83845901 -8.963249207 -2.008433104 0.8893548846 
-23.25068855 -13.74766827 -1.854952455 0.8973597884 
-22.61432076 -14.76714039 -1.854804635 0.8973675966 
-19.52259636 -15.38685799 -1.707064986 0.90514189 
-15.56385231 -16.05636406 -1.535663366 0.9142447114 
-14.23489189 -16.05677414 -1.473622084 0.9175623059 
-13.00677681 -16.05714607 -1.419094205 0.9204879403 
-10.79425716 -16.0578289 -1.328751802 0.9253559113 
-9.78650856 -16.05813217 -1.291439176 0.9273739457 
-8.831870079 -16.05843544 -1.258582234 0.9291544557 
-7.593266487 -15.39052486 -1.178568363 0.9335052371 
-6.812372684 -15.51096439 -1.163410425 0.9343317151 
-4.470034122 -15.52512932 -1.109487534 0.9372778535 
-3.743779182 -15.5787077 -1.100313425 0.9377800226 
-3.746620893 -25.33053398 -1.758479118 0.902428627 
-1.558432579 -26.90956306 -1.851091743 0.8975624442 
2.036499023 -26.86976814 -1.850553036 0.8975906372 
2.582597494 -21.39224243 -1.479760051 0.9172334075 
2.58430171 -15.55429935 -1.082821488 0.9387381673 
3.308461905 -15.58795166 -1.094333887 0.9381073713 
5.843735218 -16.38231087 -1.194474339 0.9326387644 
6.276679516 -15.3948164 -1.141723156 0.9355156422 
8.926918983 -15.56832695 -1.232431173 0.9305741787 
9.872377396 -15.56861019 -1.266002178 0.9287522435 
10.87281704 -15.56890869 -1.304100275 0.9266885519 
11.93751907 -15.5692358 -1.347318292 0.9243533611 
13.07754898 -15.56958199 -1.396356463 0.92171067 
18.49938011 -15.39857101 -1.652955294 0.9080054164 
22.0960598 -15.28525639 -1.845119596 0.897875309 
22.74808121 -14.28342056 -1.844630957 0.8979010582 
23.35478401 -13.25386906 -1.844143629 0.8979265094 
24.90469742 -10.02488518 -1.843670487 0.8979512453 
27.41136169 -9.64054203 -1.995483637 0.8900277019 
27.81183052 -8.411276817 -1.995391846 0.890032351 
28.1573391 -7.165500164 -1.99531281 0.8900364637 
28.44734764 -5.905683517 -1.995246887 0.8900396228 
28.85824585 -3.353764534 -1.995154738 0.8900446892 
28.97855377 -2.066711426 -1.995128393 0.8900458217 
29.04156685 -0.7755907774 -1.995115757 0.8900466561 
28.99580574 1.808686495 -1.995130539 0.8900458217 
28.88699722 3.096765041 -1.995158195 0.89004457 
28.72122574 4.378918171 -1.995199084 0.8900423646 
25.39884758 8.679606438 -1.843278766 0.8979716897 
24.97456551 9.795724869 -1.84231925 0.8980221748 
23.98129272 11.96479702 -1.840493917 0.8981178999 
19.09754372 10.61437225 -1.500464797 0.9161253572 
16.07326698 10.90876675 -1.334029555 0.925070703 
11.65199661 8.68951416 -0.9982044101 0.94338727 
12.77848625 10.44544125 -1.133429289 0.9359686375 
11.70876408 10.47363472 -1.078844547 0.9389561415 
10.70134258 10.46585464 -1.027941108 0.9417507648 
17.01689911 19.8972683 -1.797999024 0.9003487825 
10.95522404 14.02785397 -1.222317815 0.9311239123 
14.22230911 21.99325943 -1.798657298 0.9003142118 
13.23161602 22.60708237 -1.798890471 0.9003019333 
5.486474514 10.41034603 -0.8081279397 0.9539144039 
3.3994627 10.72158909 -0.7724195123 0.9559053183 
2.848835468 10.60054874 -0.753813982 0.9569442868 
1.381484389 10.6458931 -0.7372257113 0.9578713775 
0.897895515 10.5947361 -0.7301924229 0.9582648873 
0.4284521341 10.69241905 -0.7348820567 0.9580025673 
-0.5208569169 10.63279152 -0.7310729623 0.9582155943 
-1.994511724 10.81052971 -0.7549311519 0.9568817019 
-2.528530121 10.94972992 -0.7717507482 0.9559425712 
-2.953788996 10.61322403 -0.7565555573 0.9567911029 
-10.53602028 24.58096695 -1.83660996 0.8983215094 
-13.7308836 22.98823166 -1.838869572 0.8982027769 
-10.65696239 16.16246223 -1.329504728 0.9253150821 
-10.64614201 13.38474655 -1.174491286 0.9337274432 
-11.3748188 11.94570541 -1.132782698 0.936003983 
-12.43437958 11.94602489 -1.184147954 0.9332011938 
-17.48257828 15.36042976 -1.598181129 0.9109137654 
-16.33749199 11.95891666 -1.390474916 0.9220299125 
-25.25325584 9.646551132 -1.856467366 0.8972805738 
-25.64465714 8.509430885 -1.855547309 0.8973287344 
-28.46894264 6.707651138 -2.00861454 0.8893455267 
-28.95404053 4.151037693 -2.008723021 0.889339745 
-29.11052895 2.85899663 -2.008756876 0.8893380165 
-15.55567551 0.8314599395 -1.069796681 0.9394522309 
-15.55977058 -0.5541772246 -1.069230914 0.939483285 
-29.02332497 -3.635075569 -2.008722782 0.8893398046 
-28.58387184 -6.199934006 -2.008614302 0.8893452883 
-27.91744232 -8.715192795 -2.008452177 0.8893537521 
-24.97182655 -10.31113052 -1.855358958 0.8973385692 
-19.8839798 -15.38674545 -1.726609111 0.9041091204 
-18.94305038 -16.05531883 -1.705294013 0.9052350521 
-15.84325695 -16.05627632 -1.549074054 0.913529098 
-13.24503422 -16.05707741 -1.429447293 0.9199317694 
-12.08641529 -16.05742836 -1.38020134 0.9225804806 
-11.00288582 -16.05776978 -1.336793184 0.9249215126 
-9.983476639 -16.05807304 -1.298525929 0.9269903302 
-9.018939972 -16.05837631 -1.264820576 0.9288161993 
-7.764345646 -15.39046574 -1.183809519 0.9332196116 
-6.975600243 -15.50624275 -1.16766727 0.934099555 
-6.170600414 -15.52860069 -1.14752388 0.9351987839 
-5.678671837 -16.37880516 -1.190487385 0.9328559041 
-4.608193398 -15.4851923 -1.109519958 0.9372760057 
-3.844062328 -15.3916769 -1.08947587 0.9383735061 
-3.74619627 -23.85842896 -1.658533573 0.907709837 
-1.797802687 -26.89520264 -1.85112834 0.8975604177 
2.582104445 -23.11452866 -1.597244382 0.9109635949 
3.124399424 -15.3938446 -1.078715444 0.9389633536 
3.890761614 -15.57868862 -1.10271275 0.9376485348 
4.875063419 -16.38201904 -1.173779845 0.9337663054 
6.145702839 -15.46598816 -1.142897129 0.935451448 
7.853896141 -15.56799984 -1.197466254 0.9324759245 
10.66787529 -15.56884956 -1.296090007 0.9271220565 
14.05274391 -15.56987476 -1.440356612 0.9193459153 
15.36384201 -15.57027054 -1.502193093 0.91603297 
20.58458519 -15.92901611 -1.787455678 0.9009032845 
21.96028709 -15.48215008 -1.845217347 0.8978702426 
22.6212101 -14.48622322 -1.844728708 0.8978957534 
23.23713303 -13.4619503 -1.844241023 0.8979213238 
24.81481934 -10.24618626 -1.84369123 0.8979501128 
26.80680656 -9.696908951 -1.957675099 0.8919942379 
28.09264183 -7.415905476 -1.995327592 0.8900357485 
28.63884735 -4.889406681 -1.995203495 0.890042007 
28.95901299 -2.324567795 -1.995132685 0.8900458217 
29.01068878 1.550629854 -1.995126724 0.8900460005 
26.3938427 6.21872282 -1.862204671 0.8969800472 
25.82871056 7.312511921 -1.84348166 0.8979610801 
25.06333351 9.574137688 -1.842508674 0.8980121017 
24.60019875 10.67403507 -1.841573596 0.8980610967 
17.68573189 10.67082787 -1.418503046 0.9205197692 
16.15853882 10.75781441 -1.333106995 0.9251205325 
11.12664032 10.68966484 -1.059609413 0.9400111437 
10.57829094 13.29944992 -1.167008638 0.9341355562 
15.3736763 21.19954872 -1.798386216 0.9003284574 
14.41714859 21.86522102 -1.798611403 0.9003166556 
13.43186951 22.48788834 -1.798843384 0.9003043771 
4.90614748 10.17130566 -0.7755168676 0.9557324052 
4.445297718 10.37104511 -0.7748879194 0.9557674527 
3.885688305 10.30959702 -0.7566193342 0.956787467 
3.492621899 10.68434811 -0.7719444036 0.9559317231 
2.440619946 10.56902313 -0.7449190617 0.95744133 
1.939333439 10.51165771 -0.7340619564 0.9580484629 
1.477612257 10.64340305 -0.7379360795 0.9578317404 
0.9970971346 10.63943291 -0.7338559628 0.9580599666 
0.5184838772 10.58354473 -0.7276867628 0.9584050775 
0.04809325933 10.80999279 -0.7423736453 0.9575836062 
-0.4292114079 10.7124548 -0.7362578511 0.9579255581 
-1.899990201 10.83804417 -0.755641222 0.9568420649 
-2.427907705 10.957798 -0.7707661986 0.9559975266 
-13.52451897 23.10751724 -1.838708162 0.8982113004 
-10.67106915 16.50146484 -1.349581599 0.924233973 
-10.6573391 14.97473717 -1.262227058 0.9289569855 
-10.65813446 12.46230221 -1.126138806 0.9363670349 
-11.18476582 11.95735168 -1.124387145 0.9364618659 
-12.21469688 11.94595814 -1.17331171 0.9337917566 
-13.36821747 11.95801353 -1.231743455 0.9306115508 
-14.62950611 11.95839977 -1.297606468 0.9270400405 
-23.55378342 13.09096527 -1.850577235 0.8975891471 
-25.1631546 9.869677544 -1.856227636 0.8972930908 
-28.40794373 6.960619926 -2.00860095 0.889346242 
-28.69037247 5.690356255 -2.00866437 0.8893428445 
-28.91581535 4.40844965 -2.008714437 0.8893402815 
-15.55731392 0.2769897282 -1.068555236 0.9395204186 
-15.5614109 -1.109868169 -1.071380496 0.939365387 
-29.05463219 -3.376591682 -2.00873065 0.889339447 
-28.6380806 -5.945278168 -2.008627653 0.8893447518 
-27.99415398 -8.466425896 -2.008470774 0.8893528581 
-27.58843231 -9.702937126 -2.00837326 0.8893579841 
-25.06291389 -10.08856869 -1.855380654 0.8973374367 
-22.87431145 -14.36264896 -1.854865074 0.897364676 
-20.25379753 -15.38663769 -1.746765256 0.9030461311 
-19.20830536 -15.98866463 -1.716308117 0.9046536088 
-14.7532568 -16.05661392 -1.497463703 0.9162858725 
-13.48694801 -16.05699921 -1.440070271 0.9193613529 
-12.31167984 -16.0573597 -1.389555573 0.9220767617 
-7.936874866 -15.39040756 -1.189189196 0.932926476 
-7.139985085 -15.50139332 -1.172041416 0.9338610172 
-6.329428673 -15.52438164 -1.15132606 0.9349910617 
-4.755029202 -15.47371292 -1.11168623 0.9371575713 
-3.989931583 -15.39163303 -1.09194386 0.9382383227 
-3.744379759 -17.64175415 -1.238519669 0.9302435517 
-3.745815277 -22.54450798 -1.569448829 0.9124430418 
-2.036870003 -26.87893295 -1.851164937 0.8975576162 
-0.8394091725 -26.94007492 -1.850982308 0.8975678682 
0.3598925769 -26.94808197 -1.850801706 0.8975774646 
2.581508636 -25.13401985 -1.735135555 0.9036591649 
2.583740234 -17.46844864 -1.212680459 0.9316478968 
3.744350433 -15.5811491 -1.100486398 0.9377706051 
5.51697731 -16.38220978 -1.187119365 0.9330394268 
6.761405945 -15.39496803 -1.154709458 0.9348064661 
8.562260628 -15.56820965 -1.220161676 0.9312410951 
13.80318356 -15.56979656 -1.428926945 0.9199596047 
15.09271908 -15.57018757 -1.489169478 0.9167296886 
21.1093998 -16.63749695 -1.845804095 0.8978393078 
23.11767006 -13.66889381 -1.844338298 0.8979161978 
27.65816879 -8.905195236 -1.995427012 0.8900305033 
28.0257473 -7.6656003 -1.995342851 0.8900349736 
28.33802223 -6.411225319 -1.995271683 0.8900384903 
28.59436035 -5.144030571 -1.995213628 0.8900414705 
29.02321243 -1.292216778 -1.995119333 0.8900464773 
28.79723167 -2.441406195e-06 -1.977624059 0.8909559846 
29.02322769 1.292465806 -1.995123386 0.8900464177 
28.93741608 2.582150936 -1.995145559 0.8900449872 
28.79434013 3.867023945 -1.995181084 0.8900433779 
28.59460449 5.14407444 -1.995229959 0.8900405765 
24.69663048 10.45577335 -1.841758132 0.8980515599 
23.64665413 12.59720421 -1.839972377 0.8981451392 
12.05537605 10.40353775 -1.093548894 0.9381504059 
9.795599937 11.0493288 -1.01405549 0.9425144792 
10.92948723 13.49281502 -1.192461371 0.9327484369 
14.61076164 21.73555946 -1.798565984 0.9003189206 
5.842045784 10.62225819 -0.832519412 0.9525569677 
3.08781743 10.72431374 -0.7664038539 0.9562411904 
2.527109385 10.51588631 -0.7427283525 0.9575637579 
2.034399271 10.50187016 -0.7346144915 0.9580175281 
1.088950157 10.60316181 -0.7319930792 0.9581641555 
0.1450634748 10.86883545 -0.7464746833 0.9573544264 
-0.3334326148 10.70108509 -0.7352440357 0.9579823017 
-1.296279311 10.73743343 -0.7427374125 0.9575632811 
-2.76574707 10.66917801 -0.75691396 0.9567710757 
-8.980708122 25.17646599 -1.835680604 0.8983703256 
-10.09527588 24.76099777 -1.836335897 0.8983356953 
-12.26560497 23.78425217 -1.837771058 0.898260653 
-11.53084946 16.51112938 -1.383026361 0.9224283099 
-12.65938473 16.51055908 -1.42880547 0.9199674129 
-10.64636421 12.67510796 -1.136767149 0.9357863069 
-13.13113213 11.95794392 -1.219658494 0.9312686324 
-23.43337822 13.29858589 -1.850351572 0.897601068 
-24.01651573 12.25040722 -1.851484895 0.8975416422 
-25.071064 10.09184074 -1.855983377 0.8973058462 
-26.18679619 6.663886547 -1.855671048 0.8973222971 
-28.63846588 5.945361137 -2.008652687 0.8893433213 
-28.87534904 4.66551733 -2.008705616 0.8893406987 
-29.05484009 3.376613617 -2.008744955 0.8893386722 
-15.55485535 1.109284639 -1.070928574 0.9393901825 
-15.5569067 0.415461421 -1.068738103 0.9395103455 
-15.56100273 -0.9706518054 -1.070714831 0.9394019246 
-28.91549683 -4.408405781 -2.008695841 0.8893414736 
-28.68998909 -5.690285683 -2.008640289 0.8893442154 
-28.40753937 -6.960641861 -2.00857091 0.8893476129 
-28.06862259 -8.217094421 -2.008488655 0.8893519044 
-27.67404556 -9.45698452 -2.008393764 0.8893568516 
-24.6867981 -10.97360611 -1.855291128 0.8973421454 
-24.17255592 -12.06021214 -1.855168819 0.8973485827 
-23.61040878 -13.12273121 -1.85503602 0.8973554969 
-23.00158691 -14.15884018 -1.854894638 0.8973629475 
-21.64847183 -16.14441109 -1.854580045 0.8973793983 
-17.94905281 -16.05563164 -1.653823018 0.9079594016 
-16.41728401 -16.05610085 -1.577002525 0.9120407104 
-11.42802238 -16.05763435 -1.353502512 0.9240196347 
-9.398681641 -16.05825806 -1.277787566 0.9281133413 
-6.489438534 -15.52002621 -1.15524447 0.9347772598 
-4.905800819 -15.47269249 -1.114702106 0.9369924068 
0.1199072227 -26.95077896 -1.850837708 0.897575438 
2.840043783 -15.39375687 -1.074996114 0.9391672611 
4.333432674 -15.57069588 -1.109942794 0.9372529387 
8.38269043 -15.56815624 -1.214264631 0.9315617681 
10.26546383 -15.56872749 -1.280667424 0.927957356 
12.38378429 -15.56937218 -1.366187692 0.9233354926 
13.55763149 -15.56972408 -1.41779542 0.9205578566 
21.68354034 -15.87233162 -1.84541297 0.8978598118 
22.36223984 -14.88801479 -1.844923973 0.8978855014 
24.13074684 -11.7723875 -1.843849182 0.8979418874 
24.62904739 -10.68655777 -1.843734145 0.8979479074 
25.42873001 -9.713461876 -1.869365215 0.8966051936 
27.57808113 -9.151002884 -1.995445371 0.8900296092 
28.75872421 -4.123036861 -1.995176673 0.8900436163 
29.01060486 -1.550632238 -1.995121717 0.8900462985 
29.0335598 1.033945322 -1.995120525 0.8900464773 
28.9591198 2.324582577 -1.995140076 0.8900454044 
28.82760239 3.610427141 -1.995172977 0.8900434971 
28.39405251 6.158625126 -1.995278597 0.8900382519 
25.62502289 7.999435902 -1.843530536 0.8979585767 
24.79117203 10.2366724 -1.841943979 0.8980418444 
10.15104008 10.28747272 -0.9925142527 0.9437006116 
10.92197704 14.51041985 -1.247229338 0.9297707081 
5.137817383 10.18419647 -0.7833493352 0.9552953839 
3.641826153 10.50412369 -0.7634860277 0.9564039707 
2.113603354 10.41365242 -0.7297300696 0.9582907557 
1.680624962 10.70371819 -0.7440738678 0.9574885368 
0.2403540015 10.79988003 -0.7418558598 0.9576125741 
-0.2391992062 10.74804401 -0.7382941246 0.9578116536 
-0.7076562047 10.58656311 -0.7286448479 0.9583514333 
-1.201518536 10.755826 -0.743240416 0.9575351477 
-1.682702541 10.71698475 -0.7449936271 0.9574370384 
-3.139929056 10.55129147 -0.7560044527 0.9568218589 
-9.873859406 24.84801483 -1.836201429 0.8983427286 
-14.14034176 22.74423218 -1.83919704 0.8981857896 
-10.65715313 15.55304146 -1.294780731 0.9271930456 
-10.65759754 14.15917301 -1.217035413 0.9314109683 
-10.64628887 12.90646839 -1.148974657 0.9351195097 
-14.69588375 13.62428188 -1.376210809 0.9227954745 
-23.90365982 12.46210194 -1.851257086 0.8975534439 
-25.792593 8.051674843 -1.855581045 0.8973268867 
-28.58423805 6.199870586 -2.008640528 0.8893440962 
-28.83250427 4.922465801 -2.008696079 0.8893412352 
-15.55649662 0.5539990067 -1.069005847 0.9394956231 
-15.55854225 -0.1384301782 -1.068512082 0.9395227432 
-15.56058788 -0.8317187428 -1.070135474 0.9394336939 
-28.73967934 -5.43484354 -2.008652449 0.8893435001 
-28.46854019 -6.707587719 -2.00858593 0.8893469572 
-27.7573204 -9.210473061 -2.008413553 0.8893559575 
-24.78370476 -10.75365448 -1.855314255 0.8973411322 
-21.79162598 -15.95145226 -1.854613423 0.8973777294 
-19.2081337 -15.41802979 -1.691489339 0.9059650302 
-18.2735405 -16.05552864 -1.67049253 0.9070761204 
-15.28909111 -16.05644798 -1.522592545 0.9149425626 
-10.58799744 -16.05789185 -1.320903778 0.9257798791 
-9.591464996 -16.05820084 -1.284522653 0.9277485013 
-8.286928177 -15.39030457 -1.200391293 0.9323165417 
-7.423691273 -15.3905735 -1.173464298 0.933783412 
-5.354115963 -16.37890816 -1.183379054 0.9332430959 
-4.283578873 -15.39153576 -1.097170711 0.937951982 
-3.745151281 -20.29965591 -1.41758883 0.9205688834 
-3.706870079 -26.70367813 -1.851423264 0.8975441456 
-1.318920851 -26.92191124 -1.851055264 0.8975641131 
3.45333004 -15.58577824 -1.096298933 0.9379998446 
4.185263634 -15.57346439 -1.107441306 0.937389791 
5.194282055 -16.38211632 -1.180227518 0.9334149361 
9.111948013 -15.56838131 -1.238806486 0.9302279949 
11.0802393 -15.56897163 -1.312313199 0.9262443781 
12.15915012 -15.56930351 -1.356636882 0.923850596 
14.56401348 -15.5700264 -1.464122534 0.91807127 
17.40714264 -15.57089043 -1.603893399 0.9106100798 
22.23005295 -15.08716011 -1.845021725 0.8978804946 
24.02535629 -11.98676491 -1.843873382 0.8979406357 
24.99260712 -9.802785873 -1.843650222 0.8979523778 
27.88532639 -8.16343689 -1.995374918 0.8900331855 
28.21986771 -6.914540768 -1.995298624 0.8900370002 
28.88684464 -3.096877337 -1.995148301 0.8900450468 
28.99564934 -1.808671832 -1.995124936 0.8900463581 
28.97855949 2.066831112 -1.995135188 0.8900457621 
28.85846138 3.353796244 -1.995165229 0.8900439143 
28.68125916 4.634426117 -1.995208859 0.8900418282 
28.44752312 5.905725002 -1.995265603 0.8900389671 
25.31786537 8.904392242 -1.843084574 0.8979820609 
17.36944771 10.90620136 -1.408477783 0.9210586548 
15.14692879 10.47819805 -1.264839888 0.9288152456 
11.49896908 10.47162533 -1.068057418 0.9395477176 
13.40664005 19.19710732 -1.608011723 0.9103910923 
10.48171806 18.2798481 -1.447086096 0.91898489 
5.32450676 10.32479191 -0.7977752686 0.9544911385 
4.199477673 10.30016327 -0.7638847828 0.9563816786 
3.731542826 10.4609499 -0.7627324462 0.9564460516 
3.305541992 10.75675964 -0.7728023529 0.9558839202 
2.745488167 10.59104252 -0.7513700724 0.9570807219 
1.764999986 10.62282944 -0.7395153046 0.9577434659 
1.275473595 10.56499767 -0.7308094501 0.9582303166 
0.333378911 10.69955826 -0.7351403832 0.957988143 
-1.587724566 10.73447132 -0.7451995015 0.9574255943 
-2.098359346 10.83210182 -0.7577123046 0.9567263722 
-3.64700675 10.82946301 -0.7847434282 0.9552177787 
-10.75510502 24.48812485 -1.836749434 0.898314178 
-12.89943123 23.45420647 -1.838232636 0.8982365131 
-10.64621544 13.14309883 -1.161554098 0.934433043 
-10.60046864 11.95717525 -1.097344041 0.9379407763 
-15.17285633 11.95856285 -1.326714158 0.925466001 
-18.743433 13.46546936 -1.584922552 0.9116191268 
-18.31474113 11.95951653 -1.502131581 0.9160347581 
-23.78881264 12.672925 -1.851029754 0.8975653052 
-25.34132576 9.42258358 -1.856702089 0.8972682953 
-25.71957397 8.281019211 -1.855564356 0.8973278999 
-28.78742409 5.178776741 -2.008686066 0.889341712 
-15.78474617 1.408508301 -1.088310719 0.9384373426 
-15.55609131 0.6926098466 -1.069359303 0.9394762516 
-15.55821037 0 -1.211447835 0.9394870996 
-25.55745888 -3.432224035 -2.007908344 0.9017122984 
-25.37892342 -4.56562233 -2.007864237 0.901714325 
-24.54294395 -7.902113914 -2.007662296 0.9017238021 
-24.16610146 -8.985656738 -2.007572174 0.9017277956 
-20.49900627 -12.1206274 -1.854307771 0.9088771343 
-18.02489662 -15.55493355 -1.85387373 0.9088975191 
-17.01266479 -16.05591965 -1.821491599 0.9104152918 
-10.79422855 -16.0578289 -1.506589293 0.9253078699 
-9.786464691 -16.05813217 -1.464282513 0.9273272157 
-8.831928253 -16.05842972 -1.427034378 0.9291086197 
-7.593310356 -15.3905201 -1.336309075 0.9334621429 
-6.634077072 -15.10491943 -1.284589767 0.935953021 
-5.263994217 -15.63086605 -1.284268022 0.9359685183 
-3.743740082 -15.57850266 -1.247562408 0.9377404451 
-3.744824171 -19.33176041 -1.533259749 0.9240372181 
-2.429340839 -23.65122795 -1.851311326 0.9090178609 
-1.374497056 -23.73397255 -1.851152301 0.9090248942 
1.796249986 -23.69974327 -1.850685954 0.9090468287 
2.582656145 -21.39239883 -1.677822828 0.9171797037 
3.998705864 -15.42568111 -1.240828514 0.9380658865 
6.276640415 -15.3948164 -1.294529557 0.9354739189 
8.028544426 -15.56804371 -1.363918424 0.9321352243 
8.926909447 -15.56832218 -1.397381067 0.930529356 
10.87281704 -15.56891823 -1.478642583 0.9266412258 
14.30624485 -15.56995296 -1.646429062 0.9186645746 
18.22103882 -15.16686726 -1.845987797 0.9092668891 
19.48786163 -13.4810667 -1.845125794 0.9093072414 
20.06469727 -12.59860802 -1.844800711 0.9093225598 
21.102314 -10.76399136 -1.844560504 0.9093338251 
21.55885696 -9.814049721 -1.844454885 0.9093393087 
23.78366089 -9.573669434 -1.996333838 0.9022503495 
24.18488693 -8.505820274 -1.99624157 0.9022545815 
24.84325218 -6.322145939 -1.99609077 0.902261734 
25.09922218 -5.210619926 -1.996032715 0.9022641778 
25.30555153 -4.088845253 -1.995985985 0.9022664428 
25.46194839 -2.959059954 -1.995951176 0.9022680521 
25.56814957 -1.82346189 -1.995928168 0.9022688866 
25.62882233 0.4562329054 -1.995917439 0.9022696018 
25.58333397 1.595859289 -1.995929956 0.9022690058 
25.4873085 2.732353449 -1.995954394 0.9022679329 
25.3409996 3.863500834 -1.995990396 0.9022662044 
25.14463806 4.987052917 -1.996038318 0.9022640586 
22.73054123 6.654328346 -1.844206691 0.909350276 
21.63165474 9.615656853 -1.843273282 0.9093940258 
19.17646408 10.65822506 -1.708318233 0.9157398343 
11.65106392 8.688835144 -1.131713748 0.943354845 
11.70520496 10.47047615 -1.22286582 0.9389344454 
9.869838715 10.55166245 -1.125017047 0.9436802864 
15.01207447 17.55315208 -1.798465252 0.9114960432 
12.54625416 19.40131569 -1.79904604 0.9114688039 
11.67212391 19.94250107 -1.799251676 0.9114591479 
5.528617859 10.49028015 -0.9233228564 0.9535384774 
4.853803635 10.29587841 -0.8863118291 0.9553587437 
4.338266373 10.37540245 -0.8756632805 0.9558831453 
2.846850634 10.59315395 -0.8541080952 0.9569454193 
2.335126877 10.53922558 -0.8405436277 0.9576144814 
1.856455088 10.58973598 -0.837149322 0.9577819705 
1.371699214 10.57052708 -0.8299792409 0.9581358433 
0.4253906012 10.61620617 -0.8272989392 0.9582682252 
-0.04801269248 10.78924561 -0.8401176929 0.9576355219 
-0.5211400986 10.63820267 -0.8293424249 0.9581673741 
-1.026582003 10.95391369 -0.856667757 0.9568191767 
-1.476601481 10.6363287 -0.8361439109 0.9578315616 
-8.327087402 22.09346581 -1.838452697 0.909619987 
-10.65692139 16.16239166 -1.507441401 0.9252672195 
-10.65738773 14.69611454 -1.413499832 0.929754734 
-12.44650078 11.95773315 -1.343948603 0.9330948591 
-15.41418457 13.54316998 -1.597693443 0.9209744334 
-14.89894485 11.95916748 -1.487617612 0.9262128472 
-20.34934616 12.27785873 -1.850582838 0.9090516567 
-20.88657379 11.36656475 -1.851575375 0.9090051651 
-21.8379879 9.475515366 -1.85359323 0.9089105129 
-22.92106056 6.489196777 -1.854905248 0.9088491201 
-25.09841347 5.913500786 -2.007814646 0.9017167687 
-25.66384125 2.520451546 -2.007941723 0.9017107487 
-15.5557518 0.8314355016 -1.212985635 0.9394126534 
-15.55984116 -0.5541479588 -1.212341785 0.9394437671 
-15.57389641 -1.250104904 -1.216569662 0.9392391443 
-25.5871067 -3.204655647 -2.007915735 0.9017118812 
-24.24534035 -8.770317078 -2.007591248 0.9017269015 
-21.58855247 -10.06040287 -1.854566455 0.908864975 
-21.11836433 -11.01010513 -1.854454756 0.9088703394 
-20.05346298 -12.84178925 -1.854202271 0.9088822007 
-19.46169472 -13.72066116 -1.854135275 0.9088851213 
-18.83089828 -14.57186222 -1.854019165 0.9088906646 
-18.16284561 -15.39409924 -1.853898406 0.9088963866 
-17.31876945 -16.05582809 -1.83889401 0.9095993042 
-15.8433342 -16.05627632 -1.756405592 0.9134735465 
-13.24509239 -16.05707169 -1.620766282 0.9198802114 
-12.08646488 -16.05742836 -1.564928412 0.9225305915 
-9.983495712 -16.05807877 -1.472323298 0.9269431829 
-3.744575024 -18.44948006 -1.465869069 0.9272513986 
-1.585698247 -23.72117805 -1.851184011 0.9090235233 
0.5288134813 -23.76421547 -1.850870371 0.9090381861 
2.582148314 -23.11527443 -1.811079264 0.9109039307 
2.58407712 -16.45734978 -1.297160029 0.9353470206 
3.124399424 -15.3938446 -1.223089576 0.9389237165 
4.695766449 -15.77956295 -1.281933546 0.936081171 
6.078114986 -15.29590034 -1.28161037 0.9360967875 
6.925570965 -15.39501667 -1.314452529 0.9345140457 
7.853910923 -15.56799984 -1.357734799 0.9324321747 
8.743700981 -15.56826878 -1.390336752 0.9308671951 
11.71893501 -15.56916714 -1.517343998 0.9247953296 
12.84292984 -15.56950855 -1.571555138 0.9222157598 
15.36377907 -15.57027054 -1.703239679 0.9159793258 
18.08618164 -15.32913303 -1.846073866 0.9092628956 
19.3680172 -13.65460205 -1.845212221 0.9093032479 
19.95205498 -12.77684021 -1.844826818 0.9093214273 
21.00595093 -10.95150089 -1.844582796 0.9093326926 
23.47640038 -9.693669319 -1.977704883 0.903116703 
24.10845184 -8.720783234 -1.996259093 0.902253747 
24.47147942 -7.639411449 -1.996175766 0.9022576809 
25.43469238 -3.185554028 -1.995957136 0.9022677541 
25.55085373 -2.050939798 -1.995931864 0.9022690654 
25.63187981 0.2281347662 -1.995916367 0.9022695422 
25.59646034 1.368120074 -1.995926619 0.9022691846 
24.95182037 5.878976822 -1.996084809 0.9022617936 
22.12590218 8.451928139 -1.844261527 0.909347713 
21.71829605 9.423601151 -1.843435168 0.9093863964 
20.77708435 11.30698967 -1.841868758 0.9094598889 
14.78293896 10.82105446 -1.426512361 0.9291336536 
11.12734795 10.69041729 -1.20150876 0.9399682879 
15.16740704 17.41850281 -1.798428655 0.9114977121 
10.57432079 13.29443073 -1.322701097 0.9341169 
13.56205082 18.70155907 -1.798806906 0.9114800692 
12.71813965 19.28848839 -1.799005508 0.911470592 
5.641879559 10.47801781 -0.9266281128 0.953376174 
4.451020241 10.38442135 -0.8797333837 0.9556826949 
3.90915513 10.37176037 -0.8630595207 0.9565041065 
2.960234404 10.63644218 -0.8596889377 0.9566702843 
1.959643483 10.6216526 -0.8410176039 0.9575911164 
1.472387671 10.60594749 -0.8337576985 0.9579493999 
0.9933129549 10.59872532 -0.8288914561 0.9581896067 
-0.4288915992 10.70355606 -0.8341045976 0.9579321742 
-0.9178173542 10.82986069 -0.8462939262 0.9573307633 
-1.888876915 10.77467728 -0.8517686129 0.9570607543 
-2.426462412 10.95149612 -0.8734217882 0.9559935331 
-2.859648466 10.64076614 -0.8579473495 0.9567561746 
-3.391440392 10.69626045 -0.8737316728 0.955978334 
-8.129657745 22.16535568 -1.838338137 0.9096251726 
-9.110487938 21.7887001 -1.838925242 0.9095978141 
-11.01868153 20.90732193 -1.84020853 0.909537673 
-11.94233894 20.40415001 -1.840902328 0.9095051289 
-10.67101574 16.50146294 -1.530154586 0.9241853356 
-10.65729713 14.97462082 -1.431154132 0.9289115667 
-10.65772438 13.64683342 -1.34826839 0.9328869581 
-10.65810013 12.46216011 -1.276852846 0.9363262653 
-14.62936497 11.95839787 -1.471269488 0.9269933701 
-16.03591919 11.95882416 -1.557631612 0.9228776097 
-20.2371521 12.4572401 -1.850386024 0.9090605974 
-20.7823925 11.55076313 -1.851376176 0.9090143442 
-22.54098129 7.702923298 -1.854818106 0.9088532329 
-22.86222839 6.69286871 -1.854891777 0.9088497758 
-15.55943298 -0.415512681 -1.211974978 0.9394615293 
