# .PCD v0.7 - Point Cloud Data file format
VERSION 0.7
FIELDS x y z intensities
SIZE 4 4 4 4
TYPE F F F F
COUNT 1 1 1 1
WIDTH 945
HEIGHT 1
VIEWPOINT 0 0 0 1 0 0 0
POINTS 945
DATA ascii
8.082133293 -16.02040482 5.137187481 0.9280607104 
9.105800629 -16.21303177 5.323698997 0.9255485535 
10.07999992 -16.21334457 5.465765476 0.9236395955 
13.33612728 -16.16749954 6.000202656 0.916493535 
14.63479424 -16.21476555 6.253418446 0.9131270647 
16.00020981 -16.2151947 6.521879196 0.9095714092 
17.3033638 -16.04149818 6.755221367 0.9064922333 
20.4742527 -15.84350586 7.411748886 0.8978842497 
15.41774368 13.54635715 5.875761986 0.9181524515 
14.80798817 14.22654724 5.878976345 0.9181095958 
30.84454918 32.39260483 12.80566788 0.8301877975 
28.15545273 32.33431244 12.27482891 0.8366171122 
25.71910095 32.3350563 11.82864857 0.8420596719 
22.14328003 45.90634155 14.59186363 0.8089146614 
20.63813972 48.14971924 14.99798107 0.8041543961 
18.14810562 48.15048599 14.73192024 0.8072698116 
15.83250904 48.43366241 14.58839893 0.8089552522 
8.898842812 48.23392105 14.04221058 0.8154020905 
0.2183300704 49.07814407 14.05099964 0.8152980208 
-1.314838886 32.81236649 9.401571274 0.8722911477 
-4.141435623 48.86642075 14.04039001 0.8154236078 
-6.249360085 48.15803528 13.90304184 0.81705302 
-8.442606926 48.15871048 13.99789906 0.8159275055 
-8.719223022 39.35279465 11.53976917 0.8456023335 
-10.25587654 32.3461647 9.714912415 0.8683280945 
-11.86382771 32.34666061 9.863944054 0.8664494157 
-18.96907997 32.40991592 10.75126457 0.855347991 
-20.96053123 32.41282272 11.05091381 0.8516311646 
-69.30947113 88.74777222 32.23839188 0.625929594 
-14.85853958 14.53153038 5.950145245 0.9171605706 
-14.34594727 11.72679329 5.304775715 0.9258031249 
-23.78201103 -14.93275833 8.039616585 0.8897286057 
-16.26275826 -16.19058037 6.56992054 0.9089366198 
-7.368183613 -15.99683094 5.042289257 0.929341495 
-5.781610966 -16.20835876 4.926764488 0.9309030771 
-1.228559494 -16.20977974 4.654102802 0.9345992208 
0.2164111286 -16.21023941 4.641333103 0.9347726107 
0.9387938976 -16.21046257 4.64876318 0.9346717 
1.664926767 -16.21068764 4.665464878 0.9344448447 
3.140312433 -16.21115112 4.727461815 0.9336033463 
4.667690277 -16.21163559 4.829871178 0.9322148561 
6.275712967 -16.21213913 4.977079868 0.9302225709 
7.120512486 -16.21240234 5.069482327 0.9289742708 
7.93924284 -16.09162521 5.1371665 0.9280609488 
8.916953087 -16.21297836 5.297416687 0.9259020686 
9.881054878 -16.21328545 5.435889721 0.9240406156 
10.89895439 -16.21359825 5.593166351 0.921931088 
11.97972107 -16.21393585 5.771579266 0.9195437431 
13.13407707 -16.21429634 5.973964691 0.9168430567 
14.37488747 -16.21468735 6.203789711 0.9137858748 
15.71772957 -16.21510124 6.465321064 0.9103193879 
17.15985298 -16.19483757 6.75520134 0.9064924121 
20.22385216 -15.93955517 7.37217474 0.8984007835 
14.87765121 14.04096413 5.856777191 0.9184058309 
26.19227982 32.33491135 11.913414 0.8410229683 
22.20681572 33.03544998 11.39616203 0.847368896 
23.49339867 42.71656799 13.95715904 0.8164106607 
22.14300728 44.88091278 14.32796574 0.8120228648 
16.42892456 48.78423691 14.73744678 0.8072049618 
13.8639698 48.15180969 14.34567642 0.8118138313 
7.199374676 48.67421341 14.08682251 0.8148736358 
2.788808584 48.15524292 13.80974197 0.8181616664 
-3.706330538 48.90155029 14.04045296 0.8154229522 
-5.828036785 48.2746315 13.92116833 0.816837728 
-8.596432686 33.16173172 9.807865143 0.8671557903 
-9.940019608 32.34606552 9.687932968 0.8686685562 
-13.188344 32.34706879 10.00096798 0.8647257686 
-14.97651577 32.51503754 10.24892807 0.8616153002 
-63.67512512 91.17697144 31.83906174 0.6295729876 
-68.0459671 88.74736786 32.01695633 0.6279474497 
-14.45388603 13.16262436 5.596837521 0.9218818545 
-16.35394478 -15.99401855 6.548980713 0.9092133045 
-13.67940903 -15.99485779 6.025563717 0.9161557555 
-12.6564455 -16.2062149 5.887026787 0.9180021882 
-11.53400898 -16.20656204 5.694952965 0.9205682874 
-10.48046875 -16.20689011 5.525605202 0.9228366613 
-7.640873909 -16.20778275 5.130009174 0.9281575084 
-6.77703619 -16.2080555 5.029597282 0.929512918 
-5.926176548 -16.15768051 4.92719841 0.9308971763 
-4.356025219 -16.20881271 4.805168152 0.9325495958 
-3.591367006 -16.20904732 4.753121376 0.9332551956 
-1.373774409 -16.20974159 4.657415867 0.9345541596 
0.072114259 -16.21019554 4.640953064 0.9347777367 
0.78374511 -15.99938488 4.58604908 0.9355239868 
2.137099504 -15.39371586 4.449422359 0.9373833537 
3.743559599 -16.21134758 4.763377666 0.933116138 
4.511879921 -16.211586 4.817703247 0.932379663 
5.299487114 -16.21183014 4.883065224 0.9314944744 
6.913974285 -16.13060951 5.024466991 0.9295822382 
7.795668602 -16.16158676 5.137146473 0.9280611873 
8.729867935 -16.21291924 5.271800995 0.9262468815 
9.599370003 -16.0712738 5.359416962 0.9250681996 
15.44008732 -16.21501923 6.41023016 0.9110484719 
18.4698391 -16.22787094 7.038904667 0.9027625918 
20.28660583 -16.28370476 7.44756937 0.8974169493 
27.36197281 14.26522446 8.834318161 0.8795119524 
11.13132763 8.613700867 4.029530525 0.9431203604 
15.11786079 15.32111263 6.162252903 0.9143376946 
26.67205048 32.33476639 12.00030899 0.8399614692 
24.3388958 32.33548355 11.5868969 0.845023334 
22.3725338 32.65080643 11.33168411 0.8481632471 
23.49315834 41.82995605 13.73525238 0.819047749 
21.66033554 48.14939499 15.11558342 0.8027812243 
19.13344765 48.15018082 14.83367538 0.8060768843 
16.75515175 48.32635117 14.64359951 0.8083066344 
14.3292675 48.15166855 14.38307571 0.8113728166 
12.02602482 48.1523819 14.20925617 0.8134250045 
9.773388863 48.1530838 14.06709957 0.8151071668 
7.608085632 48.45363998 14.04203224 0.8154042959 
5.379277229 48.15443802 13.8721571 0.8174197674 
3.218915939 48.15510941 13.81735802 0.8180709481 
1.091772437 49.06693268 14.05112171 0.8152964711 
-1.09196043 49.06583023 14.05081749 0.8153002262 
-11.21477985 32.34646225 9.801455498 0.8672366142 
-16.41404343 32.53590393 10.43312359 0.8593116999 
-20.15067673 32.41164017 10.92645645 0.8531728983 
-22.23715591 32.45320129 11.26311588 0.8490089774 
-66.87869263 88.85185242 31.83861923 0.6295771003 
-12.89025879 -16.2061367 5.9284482 0.9174497724 
-11.75267506 -16.2064991 5.731461048 0.9200799465 
-10.68620586 -16.20683098 5.557796478 0.9224050641 
-9.554501534 -15.99615192 5.334364891 0.9254050255 
-8.669984818 -16.10171318 5.235641479 0.9267337322 
-6.029423714 -15.99725056 4.894449234 0.9313403368 
-5.298403263 -16.20851517 4.882065773 0.9315079451 
-3.742949247 -16.20899773 4.762681007 0.9331255555 
-2.250283241 -16.20946693 4.685206413 0.9341768026 
-1.519135714 -16.209692 4.661099911 0.9345041513 
-0.7940624952 -16.20992661 4.646397114 0.9347038269 
-0.072114259 -16.21015167 4.640939713 0.9347779155 
1.355971694 -15.9995842 4.597030163 0.9353746176 
2.84192872 -16.21105957 4.71193409 0.9338139892 
3.591860294 -16.21129799 4.753781796 0.9332462549 
4.30004406 -16.00050163 4.743411541 0.9333868623 
5.14021492 -16.21177673 4.869077206 0.9316838384 
8.433334351 -16.00179672 5.178534985 0.927503109 
11.539258 -16.21380424 5.697511673 0.9205340147 
13.68676281 -16.00343704 6.028801918 0.916112721 
19.92702103 -16.28883743 7.368498325 0.8984488249 
20.58527756 -15.3515377 7.351851463 0.8986661434 
15.13132763 13.77956963 5.859161854 0.918374002 
14.67813969 14.61297321 5.929752827 0.9174323678 
29.877285 32.51647568 12.64238644 0.8321601152 
27.15917969 32.3346138 12.08950043 0.838873446 
22.66024399 32.44744492 11.33067036 0.8481758237 
22.14029694 34.91490555 11.83632374 0.8419657946 
23.6294632 41.20916748 13.59993172 0.8206599951 
22.48404694 43.59840393 14.04411697 0.81537956 
19.63142586 48.15003204 14.88686943 0.8054539561 
17.18740273 48.18368149 14.64612293 0.8082769513 
14.79683113 48.15152359 14.42178535 0.8109164834 
12.48215771 48.15224075 14.24142265 0.8130448461 
10.22024345 48.15294266 14.09308052 0.8147996068 
8.038925171 48.38425064 14.04209042 0.8154035211 
5.813486099 48.1543045 13.88646793 0.8172497749 
3.649716616 48.15497971 13.82610226 0.8179671168 
1.500454068 48.15564346 13.793437 0.8183553815 
-2.835432053 48.96017456 14.04057312 0.8154215813 
-5.010434628 48.7845192 14.04026985 0.8154251575 
-8.67856884 44.80120087 13.0648241 0.827066958 
-8.641747475 35.960289 10.58838367 0.857375145 
-14.20702648 32.34738159 10.11476803 0.8632968664 
-19.75265884 32.41106033 10.86658955 0.8539156318 
-21.78712654 32.41111374 11.18078327 0.8500253558 
-66.0858078 89.44367218 31.83872795 0.6295759678 
-14.25584888 13.45413685 5.612002373 0.9216787219 
-13.30208969 8.686258316 4.54837513 0.9360362887 
-23.73567772 -15.49940872 8.115931511 0.8887423277 
-22.54067421 -16.19360733 7.946007729 0.8909398317 
-14.36689949 -16.20567894 6.20034647 0.9138316512 
-13.12740231 -16.20606422 5.970932961 0.9168834686 
-10.89178658 -16.20292473 5.589482307 0.921980381 
-9.877280235 -16.20708466 5.433814049 0.9240685701 
-7.118481159 -16.20794487 5.068080425 0.9289932251 
-6.274179459 -16.20820236 4.975876808 0.9302389026 
-5.458476543 -16.2084713 4.896487713 0.9313127398 
-1.664814472 -16.20965385 4.665165901 0.9344488978 
-0.9387597442 -16.20988274 4.648593426 0.934673965 
-0.2164160162 -16.2101078 4.64129591 0.9347730875 
1.228618145 -16.21055603 4.654321671 0.9345961809 
2.693413019 -16.2110157 4.70476675 0.9339112639 
3.395966768 -16.00020409 4.682828426 0.9342090487 
4.202455997 -16.21148872 4.794686794 0.9326916337 
5.782978535 -16.21197701 4.92787075 0.9308881164 
7.438862324 -16.15027237 5.090653419 0.9286884665 
8.252221107 -16.00174332 5.154550076 0.9278264642 
9.296635628 -16.21309471 5.350677967 0.9251856804 
10.28125954 -16.21340752 5.496418953 0.9232281446 
14.89877415 -16.21485329 6.304324627 0.9124518037 
16.28758812 -16.21527863 6.579946041 0.9088041782 
17.57469749 -16.00465202 6.805278778 0.9058328867 
27.57600975 13.75827599 8.822956085 0.8796572089 
30.24451065 32.33366013 12.67548943 0.8317599893 
27.65366554 32.33446121 12.18100166 0.8377587199 
25.25259781 32.33520126 11.7460041 0.8430715799 
23.01303673 32.33589172 11.36275864 0.8477802873 
22.1401062 34.23728561 11.67291069 0.8439676166 
22.14108849 37.82950211 12.54908752 0.833289206 
22.87114143 43.39678574 14.04417038 0.8153789639 
20.13279343 48.14987183 14.94160843 0.8048134446 
17.66031265 48.15063858 14.68328667 0.8078405857 
10.66902351 48.15280533 14.12026787 0.8144776225 
6.248837948 48.15416718 13.90191841 0.8170663118 
1.929648399 48.15551758 13.79777431 0.8183038235 
-0.218347162 49.07797623 14.05093765 0.8152986169 
-2.431743145 49.64135742 14.22914314 0.8131899238 
-6.685781002 48.15817261 13.91971493 0.816855073 
-8.64210701 37.42422867 10.99635983 0.8523067236 
-10.57368183 32.34626007 9.742827415 0.8679759502 
-12.19161129 32.3467598 9.89667511 0.8660373092 
-15.88807869 32.93832779 10.4698267 0.858853519 
-19.35878372 32.41048813 10.80818844 0.8546406031 
-21.37226486 32.41341782 11.11551285 0.8508321047 
-65.2871933 90.02863312 31.83884048 0.6295751929 
-14.64913082 12.87092972 5.582827091 0.9220696092 
-23.33869171 -14.94555664 7.934387207 0.8910902143 
-22.94508743 -16.17644501 8.037487984 0.8897560835 
-17.29093742 -16.03011131 6.750393391 0.9065557718 
-13.3278513 -16.15746498 5.996481895 0.9165431261 
-12.1985054 -16.20635223 5.807284355 0.9190666676 
-2.545161009 -16.2093792 4.697532177 0.9340094328 
-1.810756803 -16.20960426 4.669606686 0.9343886375 
-1.083535075 -16.20983887 4.651161194 0.9346390963 
0.3607519567 -16.21028709 4.642083168 0.9347624183 
1.083657146 -16.21051216 4.651359081 0.9346364737 
2.417099476 -15.3938036 4.461178303 0.9372232556 
3.290297747 -16.21120644 4.735827923 0.9334897995 
4.048793793 -16.21143913 4.783823013 0.9328389168 
4.761557579 -16.0006237 4.779445171 0.932898283 
5.571308613 -16.06915474 4.869188786 0.9316822886 
7.293281078 -16.21246147 5.08959198 0.9287028313 
8.082133293 -16.02040482 5.137187481 0.9280607104 
9.105800629 -16.21303177 5.323698997 0.9255485535 
10.07999992 -16.21334457 5.465765476 0.9236395955 
16.00020981 -16.2151947 6.521879196 0.9095714092 
20.03295898 -16.97907639 7.518237114 0.8964957595 
15.41774368 13.54635715 5.875761986 0.9181524515 
14.8080368 14.2264719 5.878969193 0.9181096554 
28.15571785 32.33431244 12.2748785 0.8366165161 
22.13993073 33.57769775 11.51477623 0.8459094763 
22.14087868 37.06863785 12.36154652 0.8355634212 
23.25660515 43.19167709 14.04422569 0.8153782487 
18.14788055 48.15048599 14.73189163 0.8072701097 
15.83250904 48.43366241 14.58839893 0.8089552522 
11.11953068 48.15266418 14.14868355 0.8141412735 
8.898842812 48.23392105 14.04221058 0.8154020905 
4.51294899 48.15471268 13.84688568 0.8177199364 
0.2183300704 49.07814407 14.05099964 0.8152980208 
-4.141435623 48.86642075 14.04039001 0.8154236078 
-6.249560356 48.15803909 13.90304756 0.8170529008 
-8.790905952 32.71105576 9.697328568 0.8685500026 
-10.25603008 32.3461647 9.714921951 0.8683279157 
-11.86382771 32.34666061 9.863944054 0.8664494157 
-13.52541733 32.34716797 10.03782749 0.8642627001 
-15.52814198 32.93821335 10.42544651 0.8594077229 
-17.07951164 32.40716553 10.48770237 0.8586304784 
-64.4835434 90.60658264 31.83895111 0.6295739412 
-14.85864258 14.53174114 5.950204849 0.9171597362 
-17.56274796 -15.99364758 6.800629139 0.9058941603 
-13.47109795 -16.03814507 5.996461868 0.9165433645 
-11.31818295 -16.20663452 5.6593647 0.9210445285 
-9.29329586 -16.20726967 5.348754883 0.9252115488 
-8.249463081 -15.99655724 5.152873516 0.9278491735 
-7.368183613 -15.99683094 5.042289257 0.929341495 
-6.608183384 -16.20811081 5.011157513 0.9297620058 
-5.781689167 -16.20836449 4.926771641 0.9309029579 
-1.228632808 -16.209795 4.654102802 0.9345991015 
0.2164892554 -16.21023941 4.641334057 0.9347726107 
0.9387938976 -16.21046257 4.64876318 0.9346717 
2.276884794 -15.39375973 4.455114841 0.9373058081 
3.140385628 -16.21115112 4.727464676 0.9336032867 
3.895815372 -16.21139526 4.773385525 0.9329803586 
4.667758465 -16.21162987 4.829876423 0.9322147965 
6.275790691 -16.21213341 4.977088451 0.9302224517 
7.120424747 -16.21240234 5.069472313 0.92897439 
7.93924284 -16.09162521 5.1371665 0.9280609488 
8.916874886 -16.21297836 5.297409058 0.9259022474 
9.881054878 -16.21328545 5.435889721 0.9240406156 
11.97972107 -16.21393585 5.771579266 0.9195437431 
15.71785641 -16.21510696 6.46534586 0.9103190899 
19.36836815 -16.71417999 7.324341774 0.8990254998 
20.22385216 -15.93955517 7.37217474 0.8984007835 
27.38801765 14.59029293 8.884305954 0.878873229 
16.04955101 13.8503952 6.069342136 0.9155731201 
29.20457458 32.94239044 12.60386372 0.8326261044 
23.89132309 32.33562088 11.51031017 0.8459641933 
22.2067337 33.03564072 11.3961935 0.8473684788 
22.14068222 36.329422 12.18031311 0.8377671242 
23.49339867 42.71656799 13.95715904 0.8164106607 
22.14300728 44.88042068 14.32784176 0.8120243549 
18.63920784 48.15033722 14.78204346 0.8066818714 
13.86419392 48.15180969 14.34569645 0.8118135929 
11.57167912 48.15252686 14.17834187 0.8137905598 
7.199374676 48.67421341 14.08682251 0.8148736358 
2.788808584 48.15524292 13.80974197 0.8181616664 
-3.706540346 48.90154266 14.04045105 0.8154228926 
-8.001635551 48.15857697 13.97660732 0.8161798716 
-8.596432686 33.16173172 9.807865143 0.8671557903 
-13.18819046 32.34706879 10.00094795 0.8647259474 
-14.97651577 32.51503754 10.24892807 0.8616153002 
-16.71218491 32.40663147 10.43895149 0.8592391014 
-18.58363152 32.40935898 10.6958065 0.8560376167 
-20.55347443 32.41222763 10.98792839 0.8524111509 
-63.67512512 91.17697144 31.83906174 0.6295729876 
-68.04658508 88.74736786 32.01706314 0.6279464364 
-14.4539299 13.16255856 5.59683466 0.9218819141 
-15.17998219 12.63556004 5.65453434 0.9211091995 
-23.70473099 -14.59166431 7.969263554 0.8906387091 
-23.50928116 -15.95563889 8.13436985 0.8885042667 
-16.35379791 -15.99401855 6.548945904 0.9092136621 
-14.96100044 -15.99445724 6.270167828 0.9129048586 
-12.65655708 -16.20621109 5.887046814 0.9180019498 
-9.48584938 -16.20720673 5.376378059 0.9248402119 
-8.430609703 -15.99649906 5.176834106 0.9275261164 
-7.640873909 -16.20778275 5.130009174 0.9281575084 
-5.926176548 -16.15768051 4.92719841 0.9308971763 
-3.591289043 -16.20904732 4.753115654 0.9332552552 
-2.841616154 -16.20928764 4.711416721 0.9338210225 
-1.373774409 -16.20974159 4.657415867 0.9345541596 
-0.6410253644 -15.99894047 4.584101677 0.9355503917 
0.072114259 -16.21019554 4.640953064 0.9347777367 
0.7838037014 -15.99938488 4.586049557 0.9355239868 
2.137099504 -15.39371586 4.449422359 0.9373833537 
2.951904297 -16.0000782 4.658058167 0.9345453978 
6.050839901 -16.05429077 4.911893368 0.9311043024 
7.795737267 -16.16155243 5.137146473 0.9280612469 
8.729867935 -16.21291924 5.271800995 0.9262468815 
9.599365234 -16.07110786 5.359377861 0.9250687361 
10.69061947 -16.21352959 5.560094357 0.9223742485 
12.89668465 -16.21421814 5.931403637 0.9174103737 
14.11916924 -16.21460342 6.155450821 0.9144280553 
15.44008732 -16.21501923 6.41023016 0.9110484719 
16.87832451 -16.21546745 6.700902462 0.9072080255 
20.28660583 -16.28370476 7.44756937 0.8974169493 
20.60284615 -15.08126926 7.309916019 0.8992140293 
11.13126945 8.613730431 4.029572487 0.94312042 
14.92607403 13.83768559 5.827142239 0.9188014269 
29.62024307 32.81833267 12.65673637 0.8319866657 
26.67229462 32.33476639 12.00035477 0.8399609327 
24.3388958 32.33548355 11.5868969 0.845023334 
22.37261581 32.65061569 11.33165264 0.8481636643 
22.14049339 35.61222458 12.00542068 0.8398991227 
23.49316406 41.82953644 13.73513985 0.8190490007 
22.14274788 43.89134598 14.07443333 0.815020442 
21.6601162 48.14939499 15.11555862 0.8027815223 
19.13344765 48.15018082 14.83367538 0.8060768843 
16.75494194 48.32645416 14.64359856 0.8083065748 
12.02581501 48.1523819 14.20924187 0.8134251833 
7.607885361 48.45367432 14.04202938 0.8154042959 
5.379277229 48.15443802 13.8721571 0.8174197674 
1.091984868 49.06692123 14.05112171 0.8152965307 
-3.270905733 48.93281555 14.04051113 0.8154222369 
-8.630917549 42.52416992 12.42271805 0.8348209858 
-11.21493626 32.34645844 9.801478386 0.8672364354 
-14.55192089 32.3474884 10.15489578 0.8627934456 
-22.23731232 32.453125 11.26311588 0.8490089178 
-14.3544817 13.3077755 5.603998184 0.9217858911 
-23.81716728 -15.85666466 8.191713333 0.8877640367 
-15.4308691 -16.20533562 6.406402588 0.9110991955 
-11.75255871 -16.2064991 5.731441498 0.9200801849 
-6.863515377 -16.01287651 4.987794876 0.9300777912 
-6.029345512 -15.99725056 4.894442558 0.931340456 
-5.298403263 -16.20851517 4.882065773 0.9315079451 
-2.990493059 -16.20924187 4.718953133 0.9337187409 
-0.7941308618 -16.20992661 4.646397114 0.9347038269 
-0.072114259 -16.21015167 4.640939713 0.9347779155 
0.6494970322 -16.21037483 4.644683361 0.9347271323 
3.591938496 -16.21129799 4.753787518 0.9332461953 
4.30004406 -16.00050163 4.743411541 0.9333868623 
5.140283108 -16.21177673 4.869082928 0.9316837788 
5.946123123 -16.21203613 4.943771362 0.9306729436 
6.778886795 -16.21229362 5.030920506 0.9294950366 
8.433412552 -16.001791 5.178545952 0.9275029898 
9.489325523 -16.21315956 5.378351212 0.9248136878 
10.48482418 -16.21347046 5.527864933 0.9228063822 
11.53916454 -16.21379852 5.697496414 0.9205342531 
12.66274834 -16.21414948 5.889927864 0.9179634452 
13.68664551 -16.00343704 6.028779984 0.916113019 
14.97010708 -16.00416946 6.273969173 0.9128543139 
19.92721176 -16.28885269 7.368542194 0.8984482288 
20.58527756 -15.3515377 7.351851463 0.8986661434 
15.13137627 13.77948952 5.859154701 0.9183740616 
14.67813969 14.61297321 5.929752827 0.9174323678 
24.79250526 32.33534622 11.66541767 0.8440594673 
23.6294632 41.20916748 13.59993172 0.8206599951 
22.48385239 43.59851074 14.04411697 0.81537956 
22.14387703 48.07584381 15.15377522 0.8023357987 
10.22024345 48.15294266 14.09308052 0.8147996068 
8.039140701 48.38421249 14.04209042 0.8154035211 
5.813486099 48.1543045 13.88646793 0.8172497749 
3.649941206 48.15497971 13.82610703 0.8179670572 
1.500454068 48.15564346 13.793437 0.8183553815 
-2.835432053 48.96017456 14.04057312 0.8154215813 
-7.123075962 48.15830994 13.93750954 0.8166437149 
-8.678769112 44.80120468 13.06483459 0.8270667791 
-8.641747475 35.960289 10.58838367 0.857375145 
-12.52158928 32.34686279 9.930417061 0.8656128049 
-14.20686245 32.34738159 10.11474609 0.8632971048 
-16.15956306 32.75287628 10.45619488 0.8590238094 
-17.82400513 32.40825272 10.58903027 0.8573670387 
-21.78693771 32.41111374 11.18075275 0.8500257134 
-23.45585823 -15.31664562 7.743866444 0.8902455568 
-22.27917862 -16.00570679 7.583167553 0.892395854 
-18.53289986 -15.99333477 6.766913414 0.903398931 
-15.70818329 -16.20525932 6.238724709 0.9105910063 
-14.366889 -16.20567322 5.986673355 0.9140432477 
-13.12738705 -16.20606422 5.765161514 0.9170879722 
-8.797797203 -15.99638176 5.0465312 0.9270358086 
-7.118510723 -16.20795441 4.893435001 0.9291689396 
-5.45850563 -16.20846176 4.727750778 0.9314830303 
-3.139941454 -16.20919418 4.563998222 0.9337758422 
-2.397534132 -16.20942879 4.52951479 0.9342593551 
-0.2135791034 -15.99906731 4.42301321 0.9357543588 
0.4985253811 -15.99929619 4.424827576 0.935728848 
1.957089782 -16.21078491 4.513680935 0.934481442 
3.284394503 -15.47439861 4.372871399 0.9364590049 
6.609916687 -16.21224022 4.839711666 0.9299186468 
7.438896179 -16.1503849 4.915259361 0.9288645387 
9.2445364 -16.12227058 5.137347698 0.9257727265 
10.28125954 -16.21340752 5.307010174 0.9234176278 
13.61920357 -16.21445274 5.853467464 0.9158729911 
16.28762245 -16.21528244 6.353203773 0.909027338 
19.91543961 -16.57723618 7.162833214 0.8980451226 
15.15441418 13.55582237 5.620543003 0.9190812111 
30.24443245 32.33366013 12.23865986 0.8321538568 
27.65356827 32.33446884 11.76121902 0.8381399512 
23.49396515 44.57847595 13.92945004 0.8112967014 
22.14365196 46.9708786 14.3546772 0.8061339259 
20.13288116 48.14986801 14.42673111 0.8052623868 
12.94062996 48.15209961 13.78296375 0.8130827546 
8.678515434 49.5044136 13.89317799 0.8117384911 
4.086362362 48.21733856 13.37648678 0.8180597425 
1.932150841 48.21911621 13.33988285 0.8185092807 
-0.2208862305 49.63270569 13.72007751 0.8138506413 
-6.694501877 48.22170639 13.45775223 0.8170622587 
-8.63894558 46.82461166 13.16215706 0.8206961155 
-8.642055511 37.42427063 10.61742973 0.8526565433 
-9.043979645 32.49604034 9.324278831 0.8693717122 
-10.57363224 32.34626007 9.407073021 0.8682917356 
-12.19156456 32.3467598 9.555623055 0.8663574457 
-13.8648119 32.34727859 9.728523254 0.8641116023 
-15.88803387 32.93832779 10.109025 0.8591893911 
-17.41801453 32.34837723 10.1559391 0.8585844636 
-21.37228394 32.41342163 10.73245907 0.8511852026 
-67.61675262 93.24085999 31.8385067 0.620029211 
-13.57217026 13.03921318 5.202645779 0.9248656034 
-14.77938652 12.98543072 5.438376904 0.9215983152 
-23.33911514 -14.94583416 7.661103249 0.8913523555 
-17.47936058 -16.20470619 6.588776588 0.9058181047 
-13.36792946 -16.20599174 5.80723381 0.916508913 
-10.07609844 -16.20702171 5.275355816 0.9238565564 
-9.096161842 -16.19584465 5.134789467 0.9258082509 
-8.176587105 -16.20761681 5.018119335 0.9274312854 
-6.440629959 -16.20815849 4.821193218 0.9301772714 
-4.580322266 -15.3915863 4.439085484 0.9355285168 
-3.995449066 -15.99789524 4.558126926 0.9338581562 
-2.545146465 -16.2093792 4.535653114 0.934173286 
-0.356010735 -15.99902821 4.423701763 0.9357446432 
2.429697275 -15.4741354 4.329917908 0.937063098 
3.140732288 -15.47434998 4.364785194 0.9365726709 
4.581171989 -15.39448166 4.43992424 0.9355168343 
6.44224596 -16.21218681 4.822391033 0.9301605225 
7.29329586 -16.21245575 4.914200783 0.9288793206 
9.10064888 -16.20384216 5.137329102 0.925772965 
10.08002377 -16.21334457 5.277412415 0.9238280654 
10.96512222 -16.00258827 5.362432957 0.9226496816 
16.00014114 -16.21519089 6.297121048 0.9097930789 
17.49118614 -16.21565819 6.593233585 0.9057575464 
19.66115761 -16.66401291 7.124433041 0.8985629082 
30.78830528 32.33349991 12.34182072 0.8308660984 
28.15555573 32.33431244 11.85184383 0.83700037 
25.71913528 32.3350563 11.42102909 0.8424315453 
22.20159149 33.6712265 11.14892769 0.8458798528 
23.61930084 43.86525726 13.77172947 0.8132199049 
22.14335823 45.90645218 14.08905125 0.8093550205 
20.63809013 48.14971542 14.48112392 0.8046049476 
15.83231449 48.43327713 14.08555794 0.8093973994 
11.13408661 48.21611404 13.67911434 0.8143514395 
9.133330345 49.50427246 13.91539478 0.8114677072 
4.518910885 48.21697998 13.38702011 0.8179304004 
2.362089872 48.21876526 13.34508228 0.8184454441 
-1.311110854 32.72027206 9.052110672 0.8729311824 
-4.206432819 49.63394547 13.76947689 0.8132473826 
-9.030387878 40.75718689 11.53972149 0.840931654 
-11.86387444 32.3466568 9.524029732 0.8667684793 
-13.52528763 32.34716797 9.691900253 0.8645867705 
-15.52818775 32.93820953 10.06618595 0.8597422242 
-20.96039963 32.41281891 10.67007256 0.851982832 
-66.78456116 93.83927155 31.83862305 0.620028019 
-15.05235291 13.46452808 5.582696438 0.9196036458 
-23.66958427 -14.86208439 7.72585392 0.8904863 
-17.6054287 -16.03260612 6.582247257 0.9059068561 
-14.69635677 -15.99453545 6.004371166 0.913800478 
-12.26420403 -15.99529743 5.571686268 0.9197556376 
-11.31818295 -16.20663452 5.464338779 0.9212391376 
-9.239892006 -16.11417389 5.134768963 0.9258085489 
-7.368173599 -15.99683094 4.868526459 0.9295164943 
-6.608227253 -16.20811081 4.838478088 0.9299358726 
-5.781650066 -16.20836449 4.756991386 0.9310742617 
-4.729814529 -15.39152813 4.451036453 0.9353607297 
-4.147036076 -15.99784184 4.568448544 0.9337134957 
-1.931464791 -15.99853039 4.454579353 0.9353109598 
-1.212582946 -15.9987545 4.435214043 0.9355829358 
-0.4984911978 -15.99898434 4.424740314 0.9357300401 
0.2136035115 -15.99920845 4.423047543 0.9357538223 
4.432416916 -15.39443302 4.428356647 0.9356792569 
5.459648132 -16.21187401 4.728749752 0.9314690828 
6.275742054 -16.21213341 4.805568695 0.9303954244 
9.752392769 -16.0022068 5.180233479 0.9251768589 
10.89894009 -16.21359825 5.400417328 0.922123611 
11.97969723 -16.21393585 5.57267952 0.9197419286 
13.13404274 -16.21429634 5.768093586 0.9170476794 
17.18182564 -16.21556091 6.530760765 0.9066074491 
27.30835915 14.54784107 8.553192139 0.8794941902 
29.20435524 32.94221497 12.16944885 0.8330189586 
26.19221687 32.33491135 11.50285625 0.8413972259 
23.93811035 32.39905167 11.13545513 0.8460510373 
22.14074135 36.3297348 11.7606554 0.8381471634 
23.49346542 42.71646881 13.47616577 0.8168364167 
21.14725113 48.14955521 14.53711224 0.8039289117 
18.63901329 48.15033722 14.27262878 0.8071274161 
0.6626244783 49.63243103 13.72110176 0.8138382435 
-1.015974045 32.60529709 9.017447472 0.8733856082 
-3.752360821 49.50828171 13.72481155 0.8137928843 
-5.827973366 48.27368164 13.44117165 0.8172656298 
-8.913330078 41.99494171 11.86724949 0.8368068933 
-8.596362114 33.1617775 9.469894409 0.8674732447 
-11.53828144 32.34655762 9.49338913 0.867167294 
-13.18830013 32.34706879 9.656318665 0.8650487065 
-14.92860317 32.41107941 9.864088058 0.8623546362 
-16.68214035 32.34814835 10.06103802 0.8598086238 
-68.91132355 89.87597656 31.30680656 0.6249987483 
-16.35386658 -15.99401855 6.323282242 0.9094358087 
-14.96094704 -15.99445724 6.054081917 0.9131187201 
-12.65650368 -16.2062149 5.684165478 0.9182038307 
-11.53405762 -16.20656204 5.498708248 0.9207639098 
-10.48051739 -16.20689011 5.335196495 0.923026979 
-8.541782379 -16.20749474 5.06436348 0.9267876744 
-7.64091301 -16.20778275 4.953232765 0.9283351898 
-6.777030945 -16.20805168 4.856273174 0.9296875 
-4.356025219 -16.20881271 4.639578819 0.9327169061 
-3.591362238 -16.20905685 4.589325905 0.9334207773 
-1.355893493 -15.99870586 4.438372612 0.93553859 
-0.6410595775 -15.99894047 4.426128864 0.9357105494 
0.07122558355 -15.99915504 4.422687054 0.9357589483 
1.499487281 -15.99960899 4.442147732 0.9354855418 
2.137070179 -15.39371586 4.296094418 0.9375391006 
2.854921818 -15.47426224 4.349736214 0.936784327 
5.299497128 -16.21183014 4.714791775 0.931664288 
6.05086422 -16.05414963 4.742591381 0.9312755466 
6.914003849 -16.13067436 4.851338387 0.9297563434 
7.820297718 -16.21263695 4.975783348 0.9280208945 
8.729858398 -16.21291924 5.090131283 0.9264292121 
9.558080673 -16.00214767 5.152468204 0.925562501 
10.69062519 -16.21353531 5.36849165 0.9225656986 
11.758008 -16.21386719 5.536468506 0.9202420712 
12.89669418 -16.21422768 5.727003574 0.9176135063 
14.11911583 -16.21460915 5.943320751 0.9146383405 
16.87826538 -16.21546745 6.469969749 0.9074351788 
20.22420883 -16.23368645 7.16881752 0.8979644775 
20.60620499 -15.08364677 7.059149742 0.8994441032 
11.13101006 8.613495827 3.890689611 0.9432636499 
15.99511719 13.55682564 5.79600811 0.9166634083 
14.31643009 14.50885201 5.634464741 0.9188891649 
24.386343 32.39839935 11.20938778 0.8451125026 
22.41215706 32.70845795 10.96052551 0.8482758403 
22.1405468 35.61234283 11.59173584 0.840275228 
22.14159584 39.4234848 12.49896622 0.828908205 
22.59689903 44.79150772 13.86811829 0.8120439649 
19.13343239 48.15018463 14.32249928 0.8065234423 
16.7551403 48.32638931 14.13896847 0.8087485433 
10.04746056 49.50399399 13.963377 0.8108834028 
7.773026943 49.50469589 13.85223389 0.81223768 
5.38610363 48.21626663 13.41130924 0.8176321387 
3.223232269 48.21804428 13.3586483 0.8182788491 
1.10446775 49.6322937 13.72323418 0.8138121367 
-3.324094057 49.72711945 13.77672672 0.8131588697 
-8.579377174 34.35195541 9.787573814 0.8633458018 
-9.625724792 32.34597015 9.32890892 0.8693112731 
-11.21477985 32.34645844 9.463690758 0.867554009 
-12.85371017 32.34696579 9.6217556 0.8654977083 
-14.55174065 32.3474884 9.804935455 0.8631208539 
-18.20189476 32.40880203 10.27500916 0.8570511341 
-20.15075302 32.41163635 10.54993916 0.8535208702 
-68.62634277 91.17321777 31.54449463 0.6227707267 
-73.28868866 88.84810638 31.83772469 0.620036602 
-15.43910885 13.08557987 5.594531059 0.9194402695 
-22.21858406 -16.26391029 7.611510277 0.892016232 
-16.86725998 -16.20489693 6.465755463 0.9074926376 
-15.43095207 -16.20534706 6.185649872 0.9113168716 
-9.554506302 -15.99615192 5.150541782 0.925589323 
-6.029384613 -15.99725533 4.725786209 0.9315105677 
-5.03126955 -15.39143562 4.476199627 0.935007453 
-4.292284966 -15.42275333 4.425335407 0.9357216954 
-3.74298811 -16.20900345 4.598563671 0.9332914352 
-2.250312567 -16.20946693 4.523749828 0.9343402386 
-0.7837499976 -15.99889088 4.427872658 0.9356861115 
-0.071201168 -15.99912071 4.42267561 0.9357590675 
2.038461924 -15.70857906 4.378727913 0.9363766909 
3.428588867 -15.47444344 4.381334782 0.936340034 
4.13714838 -15.39435005 4.406445026 0.9359870553 
5.946117878 -16.21203613 4.773407936 0.9308447838 
6.778852463 -16.21229362 4.857550144 0.9296696782 
7.54366684 -16.00149918 4.890188694 0.9292142391 
12.66269493 -16.21414948 5.686947346 0.9181655049 
16.36442375 -16.00427246 6.327348709 0.9093802571 
19.8235302 -16.20422745 7.077620506 0.8991947174 
27.15919304 32.33461761 11.67289257 0.8392521143 
23.09913445 44.79137039 13.9311657 0.811275661 
22.14394951 48.07624435 14.63166809 0.8027885556 
19.63131714 48.15002441 14.37384605 0.805901885 
14.79695797 48.15151596 13.92481136 0.8113530874 
12.48893547 48.17817307 13.75806236 0.8133867383 
8.225160599 49.50455475 13.87212658 0.8119950891 
5.82094717 48.21590805 13.4250946 0.8174630404 
-0.6626415849 49.6328392 13.72121334 0.8138368726 
-8.57668972 44.27517319 12.46648502 0.8293124437 
-10.89327145 32.34636307 9.434925079 0.8679287434 
-12.52152061 32.34686279 9.588201523 0.8659338355 
-14.20694351 32.34738159 9.766189575 0.863623023 
-16.12504768 32.68307114 10.07433414 0.8596369624 
-17.79123497 32.34849167 10.20528126 0.8579486609 
-21.78701401 32.41110992 10.79546928 0.8503804803 
-72.49537659 89.49708557 31.83783531 0.6200356483 
-13.66921329 12.90048885 5.195629597 0.924963057 
-15.10878849 13.03842831 5.51666975 0.9205157161 
-16.21216011 12.77773285 5.706147194 0.9179009199 
-23.45588303 -15.31668949 7.743879795 0.890245378 
-22.27910614 -16.0056839 7.583144188 0.892396152 
-18.53289032 -15.99333477 6.766911507 0.903398931 
-17.17040443 -16.20479965 6.526425838 0.9066664577 
-15.70818329 -16.20525932 6.238729954 0.9105910063 
-14.36690426 -16.20567322 5.986676693 0.9140431881 
-13.12740707 -16.20606422 5.765172005 0.9170879126 
-10.89175224 -16.20295334 5.396868229 0.9221727848 
-9.748637199 -15.99608898 5.178253174 0.9252043962 
-8.797792435 -15.99638176 5.046530247 0.9270358086 
-7.996469498 -16.20767021 4.995906353 0.9277406335 
-3.139931679 -16.20919418 4.563997269 0.9337758422 
-2.397529125 -16.20942879 4.529517174 0.9342593551 
-0.9265380502 -15.99884224 4.429966927 0.9356566668 
-0.2135791034 -15.99906731 4.42301178 0.9357543588 
1.957109332 -16.21078491 4.513680935 0.934481442 
2.571025372 -15.47417927 4.33616066 0.9369752407 
3.284414053 -15.47439861 4.372872353 0.9364590049 
3.990590811 -15.39430141 4.396092892 0.9361325502 
5.782953739 -16.21198273 4.758049965 0.9310594201 
6.609916687 -16.21224022 4.839711189 0.9299186468 
7.438891411 -16.15041924 4.915267944 0.9288644195 
10.28125954 -16.21341324 5.307012081 0.9234176278 
12.28477478 -16.02212334 5.581031322 0.9196265936 
14.70481873 -16.00375366 6.007829666 0.9137530327 
16.2875824 -16.21528244 6.353197575 0.9090274572 
17.70079994 -16.11942863 6.617898941 0.9054221511 
19.91546822 -16.57722664 7.162837982 0.898045063 
27.14670372 13.54407692 8.386286736 0.8817007542 
30.24437523 32.3336525 12.23865318 0.8321540356 
25.25266457 32.33520126 11.34124374 0.8434412479 
22.14115715 37.82941437 12.11662292 0.8336798549 
17.66029167 48.15063858 14.17728519 0.8082835674 
15.26948166 48.15864182 13.96560669 0.8108562231 
12.94060516 48.15209961 13.78295994 0.8130827546 
10.68311501 48.21648026 13.65170383 0.8146865964 
8.67854023 49.50441742 13.89318085 0.8117384315 
6.256816387 48.2155571 13.43995953 0.8172804713 
1.93223381 48.21911621 13.3398838 0.8185092211 
-0.2208032161 49.63270569 13.72008514 0.8138505816 
-2.43173337 49.64131165 13.7387867 0.8136221766 
-4.650339127 49.62036896 13.77664661 0.813159883 
-8.642055511 37.42403412 10.61735916 0.8526573777 
-9.044020653 32.49601364 9.324271202 0.8693717718 
-15.88807106 32.93832397 10.10902977 0.8591893315 
-17.41801453 32.34837723 10.1559391 0.8585844636 
-19.35880089 32.41048813 10.43573189 0.8549855351 
-21.37224579 32.41341782 10.73245621 0.8511852622 
-67.61669922 93.24085999 31.8385067 0.6200292706 
-14.77945805 12.98544121 5.438393593 0.9215980768 
-22.83276367 -16.09724045 7.72251749 0.8905308843 
-17.4794178 -16.20470238 6.588788986 0.9058179855 
-14.53387165 -16.10309029 5.996312618 0.913910985 
-12.19851017 -16.20635223 5.607163429 0.9192659855 
-10.96036625 -15.99571705 5.360119343 0.9226816893 
-9.096152306 -16.19584465 5.134789467 0.9258082509 
-8.176581383 -16.20761681 5.018117428 0.9274312854 
-6.440629959 -16.20815849 4.821193218 0.9301772714 
-5.546430588 -15.99740696 4.680407047 0.9321453571 
-4.580322266 -15.39157677 4.439088821 0.9355285764 
-2.545161009 -16.2093792 4.535653591 0.934173286 
-1.810756803 -16.20960426 4.508689404 0.934551537 
0.3560644388 -15.99925232 4.423763752 0.9357438087 
1.06955564 -15.99947739 4.432599545 0.9356196523 
1.81088376 -16.21073723 4.509004593 0.9345471263 
2.42970705 -15.4741354 4.329916954 0.937063098 
3.140742064 -15.47434998 4.364786148 0.9365726709 
6.44224596 -16.21218681 4.822391033 0.9301605225 
7.293285847 -16.21245575 4.914198399 0.9288793206 
9.100639343 -16.2038517 5.137329102 0.925772965 
10.96507263 -16.00258827 5.362409592 0.9226498008 
12.20426273 -16.21400261 5.609807491 0.9192294478 
13.37479019 -16.21437454 5.810226917 0.9164677262 
14.54376888 -16.11392593 6.000370979 0.9138553143 
17.49124527 -16.21565819 6.593245506 0.9057573676 
19.66130829 -16.6640873 7.124480247 0.8985623121 
14.08563423 13.53256321 5.399484158 0.9221366048 
30.78825569 32.33349609 12.34181213 0.8308662176 
28.15547752 32.33431625 11.85183239 0.8370005488 
23.49570274 32.39969254 11.06336308 0.8469672203 
20.63817787 48.14971161 14.48113537 0.8046047688 
18.14810562 48.15048599 14.2242403 0.8077139854 
13.40127945 48.15195847 13.81651497 0.8126732111 
11.13418961 48.21611404 13.67912197 0.8143513203 
4.51881361 48.21697998 13.3870163 0.81793046 
-1.311144948 32.72029114 9.05211544 0.8729311228 
-4.206464767 49.63394547 13.7694788 0.813247323 
-6.257621765 48.22180557 13.44169903 0.8172591329 
-8.453608513 48.22134781 13.53310013 0.8161385655 
-8.790888786 32.71099091 9.363130569 0.8688647747 
-10.25587177 32.3461647 9.380125046 0.868643105 
-11.8638401 32.3466568 9.524025917 0.866768539 
-15.52814865 32.93821335 10.06618309 0.8597422838 
-18.96908951 32.40991974 10.38076305 0.8556913733 
-20.96050644 32.41282272 10.67008877 0.8519826531 
-66.78475952 93.83911896 31.83862305 0.6200280786 
-70.89159393 90.7738266 31.83805656 0.6200333834 
-13.37967777 13.08521461 5.173290253 0.9252732992 
-15.05235767 13.46451473 5.582695007 0.9196037054 
-23.40274429 -16.18930626 7.866268158 0.8886111379 
-16.26272964 -16.19054604 6.343503475 0.9091597199 
-11.31818295 -16.20663452 5.464338779 0.9212391376 
-10.27718258 -16.20696259 5.304903984 0.9234468341 
-8.249550819 -15.99655724 4.975313663 0.9280275106 
-6.608271122 -16.20810509 4.838484287 0.929935813 
-3.440307617 -16.20909691 4.580485344 0.9335446954 
-2.69314456 -16.20933151 4.542166233 0.934081912 
-1.212568283 -15.9987545 4.435216427 0.9355829358 
0.2136035115 -15.99920845 4.423047543 0.9357538223 
2.276875019 -15.39375973 4.301588058 0.9374617338 
2.997578144 -15.47431087 4.357076168 0.9366810918 
4.432402134 -15.39444256 4.428355694 0.9356792569 
6.275702953 -16.21213341 4.805565834 0.930395484 
7.120512486 -16.21240234 4.894783974 0.9291501045 
7.998984337 -16.21269035 4.997458458 0.9277190566 
10.89896011 -16.21359825 5.400419235 0.9221235514 
14.37489223 -16.21469116 5.990003109 0.9139975309 
19.37727928 -16.72201157 7.075217247 0.8992270827 
20.34480476 -16.03487778 7.160698891 0.8980739713 
21.22694206 -15.24978924 7.225021362 0.8972070217 
27.30840683 14.54791451 8.553212166 0.8794938922 
15.82877922 13.65976524 5.779555321 0.9168897867 
14.71361828 13.88615227 5.592599392 0.9194669127 
26.19226456 32.33491135 11.50287056 0.8413971066 
21.14713287 48.14955902 14.53709412 0.8039290905 
18.63894463 48.15033722 14.27261734 0.8071275353 
16.42895508 48.78431702 14.22960567 0.8076489568 
9.589604378 49.50413513 13.9387989 0.8111827374 
4.952124119 48.21662521 13.39862537 0.8177878857 
-1.015927672 32.60536194 9.017463684 0.8733853698 
-8.011862755 48.22143936 13.51256847 0.8163900971 
-8.913247108 41.99498749 11.86725903 0.8368068337 
-13.18834972 32.34706879 9.656323433 0.8650486469 
-18.58362961 32.40935516 10.32722187 0.856379509 
-68.91132355 89.87597656 31.30680656 0.6249987483 
-14.77186489 13.45220947 5.52285862 0.9204301834 
-15.78112316 13.13593578 5.675881863 0.9183180332 
-18.11547279 -16.20449638 6.71875906 0.9040523171 
-16.35393524 -15.99401855 6.323296547 0.9094356298 
-14.96100998 -15.99445724 6.054092407 0.9131186008 
-13.6794138 -15.99485779 5.817920208 0.9163618684 
-11.53400326 -16.20656204 5.498701096 0.920764029 
-9.382870674 -16.03125954 5.134748459 0.925808847 
-7.640869141 -16.20778275 4.95322752 0.928335309 
-6.777030945 -16.20805168 4.856273174 0.9296875 
-5.926152229 -16.15762138 4.757383823 0.9310687184 
-4.88011694 -15.3914938 4.463406086 0.9351870418 
-4.356025219 -16.20881271 4.639578819 0.9327169061 
-3.591362238 -16.20905685 4.589325905 0.9334207773 
-2.841620922 -16.20928764 4.549060345 0.9339852333 
-2.103461981 -16.2095108 4.518358231 0.9344158173 
-1.355893493 -15.99870586 4.438372612 0.93553859 
0.07119140774 -15.99916458 4.422687054 0.9357588887 
1.499526381 -15.99960899 4.442147732 0.9354855418 
2.854960918 -15.47426224 4.349740505 0.9367842674 
6.05086422 -16.05414963 4.742591381 0.9312755466 
6.914003849 -16.13067436 4.851338387 0.9297563434 
7.820297718 -16.21263695 4.975783348 0.9280208945 
9.558080673 -16.00214767 5.152468204 0.925562501 
12.89669418 -16.21422768 5.727003574 0.9176135063 
18.44014549 -16.20176697 6.785412312 0.9031480551 
27.22860336 14.19569778 8.488305092 0.8803514242 
15.02999496 13.93389606 5.665484428 0.9184613228 
14.31640625 14.50889587 5.634470463 0.9188891053 
29.62028694 32.81837463 12.22058487 0.8323796391 
26.67206573 32.33476639 11.58677673 0.8403378725 
22.1405468 35.61234283 11.59173584 0.840275228 
22.14159584 39.4234848 12.49896622 0.828908205 
21.6603508 48.14940262 14.59469128 0.8032343388 
19.13343239 48.15018463 14.32249928 0.8065234423 
16.7551403 48.32638931 14.13896847 0.8087485433 
10.04756832 49.50398636 13.96338272 0.8108833432 
7.773134708 49.50469589 13.8522377 0.8122376204 
-5.532880783 49.5292778 13.77652359 0.8131613731 
-7.57164526 48.22153091 13.493186 0.8166277409 
-8.579377174 34.35195541 9.787573814 0.8633458018 
-9.625724792 32.34597015 9.32890892 0.8693112731 
-11.21477985 32.34645844 9.463690758 0.867554009 
-16.38737679 32.48303223 10.0572319 0.859857738 
-20.15066528 32.41164017 10.54992676 0.853521049 
-68.62633514 91.17362976 31.54466438 0.6227698326 
-13.75028801 12.74752522 5.183110714 0.9251368642 
-15.43917656 13.08558083 5.594545841 0.9194400311 
-23.60750008 -15.71707439 7.839791298 0.888964355 
-22.21846581 -16.26389694 7.611482143 0.8920166492 
-18.34451675 -16.11787605 6.750247002 0.9036249518 
-15.43087387 -16.20534706 6.185637474 0.9113170505 
-14.1113472 -16.20575714 5.940070152 0.914683044 
-12.89025879 -16.20614243 5.724150181 0.9176528454 
-10.68620586 -16.20682526 5.366274357 0.9225964546 
-9.554506302 -15.99615192 5.150541782 0.925589323 
-7.817929745 -16.20772934 4.974277973 0.9280418754 
-4.292289734 -15.42254353 4.425300121 0.9357224703 
-2.990498066 -16.20923805 4.556333065 0.9338832498 
-0.07116210461 -15.99912071 4.422676086 0.9357590675 
1.355957031 -15.99956989 4.438610077 0.9355352521 
2.712753773 -15.47421837 4.342765808 0.9368823767 
3.428588867 -15.47444344 4.381334782 0.936340034 
4.13714838 -15.39435005 4.406445026 0.9359870553 
5.140204906 -16.21177673 4.701283455 0.9318532348 
5.946117878 -16.21203613 4.773407936 0.9308447838 
7.543627739 -16.00149918 4.890181065 0.9292142987 
8.544555664 -16.21286583 5.066031456 0.9267644286 
9.387734413 -16.03939438 5.137368202 0.9257724285 
10.48481464 -16.21347046 5.337367535 0.9229968786 
11.53925228 -16.21379852 5.501171589 0.9207298756 
12.66275406 -16.21414948 5.686958313 0.9181653261 
13.68675709 -16.00344276 5.821041107 0.916318953 
16.36442375 -16.00427246 6.327348709 0.9093802571 
19.8235302 -16.20422745 7.077620506 0.8991947174 
20.95550156 -15.62764168 7.226175308 0.8971915841 
14.41931629 14.35530281 5.624447346 0.9190273285 
29.87731361 32.51649475 12.20673943 0.8325529099 
27.15919304 32.33461761 11.67289257 0.8392521143 
22.69507217 32.49728394 10.95700645 0.848320663 
22.14035034 34.9150238 11.42846012 0.8423374891 
23.09927177 44.79136276 13.93118095 0.8112754822 
22.14394951 48.07597733 14.63160515 0.8027893305 
17.18739128 48.18370438 14.14141846 0.8087189794 
12.48854446 48.17819595 13.75806236 0.8133869767 
10.23380852 48.21685028 13.62546921 0.8150074482 
8.225068092 49.50455475 13.87212086 0.8119950891 
5.82094717 48.21590805 13.4250946 0.8174630404 
-0.6626415849 49.6328392 13.72121334 0.8138368726 
-8.57668972 44.27517319 12.46648502 0.8293124437 
-8.579010963 35.69925308 10.14928722 0.8586702347 
-9.313100815 32.34587479 9.304594994 0.8696285486 
-12.52160835 32.34686279 9.588209152 0.8659337759 
-68.44372559 92.63500977 31.83839226 0.6200302243 
-13.66921329 12.90048885 5.195629597 0.924963057 
-16.21216011 12.77773285 5.706147194 0.9179009199 
-13.30152798 8.68589592 4.391453266 0.9361978173 
-23.45588303 -15.31668949 7.743879795 0.890245378 
-22.27910614 -16.0056839 7.583144188 0.892396152 
-18.53289032 -15.99333477 6.766911507 0.903398931 
-15.70818329 -16.20525932 6.238729954 0.9105910063 
-13.12740707 -16.20606422 5.765172005 0.9170879126 
-11.9741745 -16.20642471 5.570100784 0.9197775126 
-10.89175797 -16.20287514 5.396850586 0.9221730232 
-9.748685837 -15.99608898 5.178258419 0.925204277 
-8.797748566 -15.99638176 5.046522617 0.9270358682 
-7.996430397 -16.20767021 4.995901585 0.9277406931 
-7.118476391 -16.20794868 4.893431187 0.9291689992 
-5.458476543 -16.20846176 4.727751255 0.9314830303 
-4.431586742 -15.39163017 4.427548885 0.9356906414 
-3.895234346 -16.20895386 4.608198643 0.9331563711 
-2.397529125 -16.20942879 4.529517174 0.9342593551 
0.4985156059 -15.99929619 4.424827099 0.935728848 
1.212631822 -15.99952126 4.435426712 0.9355799556 
1.957070231 -16.21078491 4.513680458 0.9344815016 
3.284374952 -15.47439861 4.372870922 0.9364590049 
3.990620136 -15.39430141 4.39609623 0.9361325502 
4.730771542 -15.39453602 4.451908588 0.9353485107 
6.609946251 -16.21224022 4.839715958 0.9299185872 
7.438896179 -16.15032768 4.915244579 0.9288647771 
9.244545937 -16.12226486 5.137348652 0.9257726669 
11.32314396 -16.21373558 5.466730118 0.9212059975 
12.28477478 -16.02212334 5.581031322 0.9196265936 
14.70481873 -16.00375366 6.007829666 0.9137530327 
19.91540909 -16.57724571 7.162828445 0.8980451822 
20.45632744 -15.54062462 7.101459026 0.8988729715 
15.15441895 13.55580044 5.620543003 0.9190812707 
13.9827776 13.6750412 5.406478882 0.9220397472 
30.24451637 32.33365631 12.23867512 0.8321536779 
20.13281631 48.14987183 14.42671585 0.8052624464 
17.66029167 48.15063858 14.17728519 0.8082835674 
8.67854023 49.50441742 13.89318085 0.8117384315 
6.256816387 48.2155571 13.43995953 0.8172804713 
1.93223381 48.21911621 13.3398838 0.8185092211 
-0.2208032161 49.63270569 13.72008514 0.8138505816 
-2.43173337 49.64131165 13.7387867 0.8136221766 
-6.694613934 48.22170639 13.4577589 0.8170621991 
-8.63894558 46.82404709 13.16200161 0.8206980228 
-9.044020653 32.49601364 9.324271202 0.8693717718 
-15.88807106 32.93832397 10.10902977 0.8591893315 
-19.35880089 32.41048813 10.43573189 0.8549855351 
-21.37224579 32.41341782 10.73245621 0.8511852622 
-13.57222652 13.03920174 5.202654839 0.9248654842 
-14.77945805 12.98544121 5.438393593 0.9215980768 
-23.33906746 -14.94577599 7.661084652 0.8913525939 
-22.83276367 -16.09724045 7.72251749 0.8905308843 
-17.4792614 -16.20470238 6.588758945 0.9058184028 
-15.99018478 -16.20516968 6.293217182 0.9098464251 
-14.53387165 -16.10309029 5.996312618 0.913910985 
-13.36787605 -16.20599174 5.807224751 0.9165090919 
-12.19851017 -16.20635223 5.607163429 0.9192659855 
-10.96036625 -15.99571705 5.360119343 0.9226816893 
-10.07607365 -16.20702171 5.275351524 0.923856616 
-6.440629959 -16.20815849 4.821193218 0.9301772714 
-3.995458841 -15.99789524 4.558128357 0.9338581562 
-3.247045755 -15.99811935 4.512527466 0.934497714 
-2.545161009 -16.2093792 4.535653591 0.934173286 
-1.810756803 -16.20960426 4.508689404 0.934551537 
2.42970705 -15.4741354 4.329916954 0.937063098 
3.140742064 -15.47434998 4.364786148 0.9365726709 
3.844702005 -15.39425755 4.386138439 0.9362725019 
4.58119154 -15.39449215 4.439924717 0.9355167747 
6.44224596 -16.21218681 4.822391033 0.9301605225 
9.100639343 -16.2038517 5.137329102 0.925772965 
10.96507263 -16.00258827 5.362409592 0.9226498008 
12.20426273 -16.21400261 5.609807491 0.9192294478 
14.54376888 -16.11392593 6.000370979 0.9138553143 
16.00020027 -16.21519089 6.297132492 0.9097929001 
17.4910984 -16.21565819 6.593210697 0.9057577848 
25.71908569 32.33505249 11.42102051 0.8424316645 
23.49591827 32.39969254 11.06339931 0.8469667435 
22.20159149 33.6712265 11.14892769 0.8458798528 
20.63817787 48.14971161 14.48113537 0.8046047688 
18.14789009 48.15048218 14.22421741 0.8077142239 
15.83243084 48.43345261 14.08561707 0.8093966842 
13.40104961 48.15195084 13.8164978 0.8126734495 
11.13418961 48.21611404 13.67912197 0.8143513203 
4.51881361 48.21697998 13.3870163 0.81793046 
2.362258196 48.21875763 13.34508514 0.8184454441 
-1.310993671 32.72021484 9.052095413 0.8729314208 
-4.206464767 49.63394547 13.7694788 0.813247323 
-8.453608513 48.22134781 13.53310013 0.8161385655 
-9.030561447 40.75712967 11.5397234 0.8409317136 
