# .PCD v0.7 - Point Cloud Data file format
VERSION 0.7
FIELDS x y z intensities
SIZE 4 4 4 4
TYPE F F F F
COUNT 1 1 1 1
WIDTH 924
HEIGHT 1
VIEWPOINT 0 0 0 1 0 0 0
POINTS 924
DATA ascii
11.31939888 6.291399002 -1.847520232 0.9490196705 
11.0288229 6.788896561 -1.847571969 0.9490177035 
10.71627426 7.273010254 -1.847627401 0.9490160346 
10.38244629 7.742743969 -1.847686529 0.9490145445 
10.02809048 8.197206497 -1.847749233 0.9490128756 
9.652480125 8.634262085 -1.847551942 0.9490181804 
9.257202148 9.053483963 -1.84722352 0.9490270019 
8.116547585 8.67721653 -1.695030212 0.9531265497 
4.347558498 11.85354424 -1.801183939 0.950265348 
1.810424805 10.32714558 -1.49573791 0.9585216045 
1.330405235 10.25226021 -1.474851966 0.9590888619 
0.8835790753 10.42562485 -1.492653728 0.9586054087 
-0.5238915682 10.69440937 -1.527498603 0.9576599002 
-0.9911254644 10.57543945 -1.51530695 0.9579905868 
-1.469643474 10.58614445 -1.524706125 0.9577355981 
-1.979169846 10.7274456 -1.556210399 0.9568814635 
-3.528679132 10.79475117 -1.620170355 0.9551495314 
-4.019457817 10.66446972 -1.625868797 0.9549953938 
-4.594843864 10.72004223 -1.663885355 0.9539677501 
-5.275339127 10.93661308 -1.732242584 0.9521225691 
-5.991782188 11.12780285 -1.80300045 0.9502164125 
-8.514330864 9.778006554 -1.849657655 0.9489616156 
-8.943007469 9.391819 -1.850099802 0.9489496946 
-9.354245186 8.986914635 -1.850556254 0.9489374757 
-9.747236252 8.564087868 -1.851026773 0.9489247799 
-10.47167492 7.665207386 -1.851351857 0.9489160776 
-11.11218739 6.704575062 -1.851463556 0.9489130378 
-12.88769054 5.591972351 -2.004174471 0.9448176622 
-13.51803398 3.827097178 -2.00428319 0.9448148012 
-13.67507553 3.222021341 -2.004310369 0.944814086 
-14.02992153 0.7498803735 -2.004369974 0.9448124766 
-14.04940414 0.1250317395 -2.004372835 0.944812417 
-14.04103947 -0.5000585914 -2.004370689 0.9448125362 
-13.73028088 -2.978117704 -2.004313231 0.9448140264 
-13.58403015 -3.585891008 -2.004287004 0.9448147416 
-11.82950878 -7.57534647 -2.003974438 0.9448230863 
-10.71492672 -9.081555367 -2.003776789 0.9448283315 
-9.575156212 -9.703859329 -1.944835067 0.9464069605 
-8.771115303 -9.718073845 -1.867559671 0.9484804869 
-7.802262783 -10.36568069 -1.850863576 0.9489291906 
-7.333105087 -10.70201111 -1.850780725 0.948931396 
-6.849474907 -11.01711178 -1.850695491 0.948933661 
-6.352302074 -11.31037045 -1.850607753 0.9489360452 
-5.321372032 -11.82902813 -1.850425959 0.9489409328 
-4.789690018 -12.05344009 -1.85033226 0.9489433765 
-3.69904542 -12.43014336 -1.850140214 0.9489485621 
-3.142272949 -12.58171082 -1.850042105 0.9489512444 
-2.579350471 -12.70837402 -1.849943042 0.9489538074 
-2.011372089 -12.80982113 -1.849843144 0.9489566088 
-1.439467788 -12.88590813 -1.849742532 0.948959291 
0.2884130776 -12.9608345 -1.849454403 0.9489670396 
1.439047813 -12.88239193 -1.849236608 0.9489728808 
2.57804203 -12.70212841 -1.849036574 0.9489783049 
3.140366077 -12.57421112 -1.84893775 0.9489809275 
4.245082855 -12.24402523 -1.848744035 0.9489862323 
4.785297871 -12.04246807 -1.848649263 0.9489886761 
5.836098671 -11.56834221 -1.848465085 0.9489936233 
7.322895527 -10.68712425 -1.848204613 0.9490006566 
9.572943687 -9.701605797 -1.944381475 0.9464190602 
10.69480896 -9.064496994 -2.00001359 0.9449290633 
11.08706474 -8.579482079 -1.999945283 0.9449309111 
11.45737743 -8.07754612 -1.999880791 0.94493258 
11.80497551 -7.559653282 -1.999820232 0.9449342489 
12.1292429 -7.026830673 -1.999763727 0.944935739 
12.42974091 -6.48013401 -1.999711514 0.9449363351 
12.95565891 -5.349535942 -1.999620318 0.9449396133 
13.55170345 -3.577373028 -1.999517441 0.9449423552 
13.69726086 -2.970957041 -1.999492407 0.9449430108 
14.01483822 0.1247265562 -1.999439955 0.9449443817 
13.99545383 0.7480419874 -1.999444127 0.9449442625 
13.94836903 1.369870543 -1.999452949 0.9449440837 
13.87369633 1.989003897 -1.999466777 0.9449437857 
13.64233875 3.214306593 -1.999508739 0.944942534 
13.48602962 3.818044424 -1.999536872 0.9449417591 
13.30306149 4.414228439 -1.999569654 0.9449409246 
13.09378433 5.001718521 -1.999607086 0.9449399114 
12.85858822 5.579352856 -1.999649048 0.9449387789 
11.43604469 6.223547459 -1.857411146 0.9487532377 
10.78046322 7.177294731 -1.847615957 0.9490165114 
10.10057068 8.107583046 -1.847736478 0.9490132332 
8.500639915 9.762290001 -1.846683502 0.9490415454 
8.056792259 10.12927723 -1.846412897 0.9490487576 
6.875507832 10.427495 -1.781851888 0.9507856369 
6.448740005 10.79650402 -1.794063687 0.9504568577 
5.48470211 11.37060261 -1.800983548 0.9502706528 
3.923080921 12.0012598 -1.801258683 0.9502633214 
2.947543859 10.59081554 -1.568313241 0.9565535188 
0.9786279202 10.44175053 -1.496150732 0.9585104585 
-1.37099123 10.56504345 -1.519850254 0.957867384 
-1.888015151 10.7696991 -1.55984056 0.9567831159 
-3.90152812 10.63746452 -1.616393805 0.9552516937 
-4.580590725 10.95501423 -1.693960667 0.953155458 
-5.144245625 10.91196156 -1.721016765 0.9524253011 
-7.035556316 10.87966919 -1.848352194 0.9489966631 
-7.514128208 10.55814934 -1.848741412 0.9489862323 
-7.978115082 10.21569443 -1.849148035 0.948975265 
-8.858639717 9.470576286 -1.850010037 0.9489521384 
-9.273439407 9.069359779 -1.850463867 0.9489399195 
-9.670126915 8.650058746 -1.850931644 0.9489273429 
-10.40296841 7.758049011 -1.851339936 0.9489163756 
-11.05200672 6.803161621 -1.851453066 0.9489133358 
-12.83733845 5.706425667 -2.004165649 0.9448179603 
-13.07875252 5.129833698 -2.004207611 0.9448168278 
-13.29425716 4.543041706 -2.004244804 0.9448158145 
-13.48339081 3.947231293 -2.004277229 0.94481498 
-14.02268982 0.8747143149 -2.004368782 0.9448124766 
-14.04773426 0.2500683665 -2.004372597 0.944812417 
-14.01430416 -0.9994823933 -2.004365444 0.9448126554 
-13.95590019 -1.621889591 -2.004354477 0.9448129535 
-13.75627422 -2.85580802 -2.004317999 0.9448139071 
-13.61544895 -3.464877844 -2.004292727 0.9448145628 
-13.4476366 -4.067048073 -2.004262447 0.9448153377 
-13.03245354 -5.24597168 -2.004188299 0.9448173642 
-12.21738529 -6.933415413 -2.004043341 0.9448212385 
-11.89652824 -7.469809532 -2.003986359 0.9448227286 
-11.55210686 -7.991386414 -2.003925085 0.9448243976 
-11.18482399 -8.497075081 -2.003860235 0.9448261261 
-10.7953949 -8.985880852 -2.003791094 0.9448280334 
-10.38461399 -9.456884384 -2.003718376 0.9448298812 
-9.744070053 -9.700785637 -1.961525559 0.9459596872 
-8.344819069 -9.934994698 -1.85095942 0.948926568 
-7.428132057 -10.63641834 -1.850797534 0.9489309788 
-6.452773094 -11.25350094 -1.850625396 0.9489355087 
-5.945500374 -11.5288496 -1.850535989 0.9489379525 
-4.896816254 -12.01045609 -1.850351095 0.9489428997 
-3.254157543 -12.55338383 -1.850061774 0.9489507079 
-1.554077148 -12.87274361 -1.849762678 0.9489587545 
-0.9798827767 -12.92844677 -1.849666357 0.9489613771 
-0.4037646353 -12.95860767 -1.849575281 0.9489637613 
0.7494921684 -12.94175243 -1.849367023 0.9489693642 
1.896552682 -12.82245541 -1.849156141 0.9489750862 
4.677983284 -12.08469677 -1.848667979 0.9489881992 
5.210654259 -11.864048 -1.848574638 0.9489907026 
5.732973576 -11.61993599 -1.848483086 0.9489931464 
6.742436409 -11.06333256 -1.848306179 0.9489979148 
7.698364258 -10.41934776 -1.848139048 0.9490023851 
8.153852463 -10.06615734 -1.848059297 0.9490045905 
9.40694809 -9.70463562 -1.928136349 0.9468547106 
10.19604492 -9.622817039 -2.000100851 0.944927156 
11.01035595 -8.677868843 -1.999958634 0.9449304938 
11.73729992 -7.66445303 -1.999831915 0.9449339509 
12.65196705 -6.033549786 -1.999673009 0.944938302 
13.34171391 -4.295644283 -1.99955368 0.9449413419 
13.51938915 -3.697846651 -1.999522924 0.9449421167 
13.67030716 -3.092751503 -1.999497056 0.9449428916 
14.00153732 -0.6234570146 -1.999441504 0.9449443221 
14.01539516 -7.324218586e-06 -1.999439597 0.9449443817 
14.00154781 0.623452127 -1.999442816 0.9449443221 
13.96000957 1.245693326 -1.999450803 0.9449440837 
13.79421329 2.481542826 -1.99948132 0.944943428 
13.67036629 3.09274888 -1.999503732 0.9449426532 
13.13772964 4.884985447 -1.999599218 0.9449400902 
12.65210438 6.033578873 -1.999685764 0.9449377656 
10.51847172 7.556625843 -1.847662449 0.9490152001 
10.17225075 8.017313957 -1.847723842 0.9490135908 
9.805356026 8.461728096 -1.847688913 0.9490144849 
9.417529106 8.887905121 -1.847352386 0.9490235448 
6.451215744 10.58551693 -1.768475056 0.951145947 
4.557748795 11.77405453 -1.801146865 0.9502663016 
2.950556517 12.27784634 -1.801429868 0.9502587318 
2.041093588 10.53668404 -1.531106591 0.9575619102 
0.5997216702 10.35498238 -1.479720712 0.9589566588 
-1.276738286 10.57540226 -1.519645333 0.9578729272 
-1.788205504 10.76267052 -1.556454778 0.9568747878 
-2.758588791 10.6416626 -1.568321824 0.9565532804 
-3.336240053 10.85665512 -1.62029171 0.9551462531 
-4.486254692 11.00352478 -1.695223093 0.9531214237 
-5.009196758 10.8753767 -1.70814836 0.9527724981 
-5.633312702 10.92352104 -1.753373027 0.9515529275 
-8.338178635 9.927082062 -1.849485278 0.9489662051 
-9.191889763 9.151089668 -1.850371957 0.9489423633 
-9.973690987 8.301888466 -1.851265073 0.9489183426 
-10.33345222 7.850261211 -1.851327896 0.9489167333 
-12.15730667 6.201269627 -1.946967244 0.9463498592 
-13.03253365 5.246017933 -2.004199505 0.9448170066 
-13.61550045 3.464880228 -2.004300117 0.944814384 
-13.95593262 1.621894479 -2.004357815 0.9448128343 
-14.02267551 -0.8747314215 -2.004367113 0.9448125362 
-13.29417706 -4.543019772 -2.004235029 0.9448161125 
-12.83723831 -5.70638895 -2.00415349 0.9448183775 
-12.57041264 -6.271650314 -2.004106045 0.9448195696 
-12.27865982 -6.824445724 -2.00405407 0.9448209405 
-11.6228466 -7.888298035 -2.003937721 0.9448240399 
-11.26008511 -8.3972435 -2.003873348 0.9448257685 
-10.87503624 -8.889523506 -2.003805161 0.9448275566 
-7.985654354 -10.2253561 -1.850896001 0.9489282966 
-7.522563457 -10.56999016 -1.850814223 0.9489305019 
-7.04460907 -10.89365196 -1.850729823 0.9489327669 
-6.552734375 -11.19571972 -1.85064292 0.9489350915 
-5.531198502 -11.73267555 -1.850462914 0.9489399195 
-2.805173159 -12.66070557 -1.849982738 0.9489528537 
-2.239108801 -12.77228451 -1.84988308 0.9489554763 
-1.09491694 -12.91933537 -1.849683642 0.9489609003 
-0.5190820098 -12.95461845 -1.849594235 0.9489633441 
0.6342968345 -12.94805622 -1.849389315 0.9489688277 
2.351621151 -12.74627399 -1.84907639 0.948977232 
3.474819183 -12.48550034 -1.848879218 0.9489824772 
5.629379749 -11.67060757 -1.848501205 0.9489926696 
6.142685413 -11.40807056 -1.848411322 0.9489951134 
6.643769264 -11.12302208 -1.848323584 0.9489973783 
7.131650448 -10.81596375 -1.84823823 0.9489997029 
7.60536623 -10.48754883 -1.848155141 0.9490019679 
8.506743431 -9.769223213 -1.847997546 0.9490060806 
10.93274879 -8.775578499 -1.999972224 0.9449301958 
11.31190872 -8.280290604 -1.999906063 0.9449319839 
12.00239754 -7.241693974 -1.9997859 0.9449350834 
12.5978756 -6.145927429 -1.999682307 0.9449379444 
12.85852051 -5.579313755 -1.999637127 0.9449390769 
13.09370041 -5.001701355 -1.999596357 0.9449402094 
13.48598099 -3.818027258 -1.999528766 0.9449419975 
13.64229012 -3.214304209 -1.999501944 0.9449427128 
13.77159595 -2.604230881 -1.999479771 0.9449433684 
13.97053146 1.121396422 -1.999448776 0.9449441433 
13.90688896 1.741755366 -1.999460697 0.9449438453 
13.8157711 2.358681679 -1.999477386 0.9449433684 
13.69730949 2.970954418 -1.999498844 0.944942832 
13.55175781 3.577392578 -1.99952507 0.9449421167 
9.496582031 8.80406189 -1.847418189 0.9490217566 
8.389282227 8.502036095 -1.703968525 0.9528853893 
8.236279488 9.984853745 -1.846518517 0.9490458965 
7.782880783 10.33990669 -1.846261263 0.9490528107 
7.261220455 10.59707737 -1.832634568 0.9494192004 
5.948134422 10.59075642 -1.732864141 0.9521058202 
5.686093807 11.27095222 -1.800948024 0.950271666 
5.179340839 11.5133028 -1.801037312 0.9502692819 
4.662314415 11.73290539 -1.801128387 0.9502667785 
4.135991096 11.92930126 -1.801221132 0.9502642751 
3.601430655 12.10211849 -1.801315308 0.9502617121 
3.059677601 12.2509737 -1.801410675 0.9502592087 
1.617929697 10.30423546 -1.488012552 0.9587313533 
0.233959958 10.51283169 -1.500134826 0.9584023356 
-0.2427099496 10.90786839 -1.556505442 0.9568734169 
-0.7098876834 10.61980247 -1.518406391 0.9579065442 
-1.178691387 10.55167675 -1.514667988 0.9580079317 
-2.160080433 10.64258289 -1.549231887 0.9570705891 
-3.258012533 10.94813919 -1.629554391 0.9548957348 
-3.709707022 10.69980812 -1.61557889 0.955273807 
-4.810317039 10.69302177 -1.672716141 0.9537291527 
-6.653742313 10.7022543 -1.797806263 0.950356245 
-7.324416161 10.68930721 -1.848583579 0.9489904046 
-9.109628677 9.232069969 -1.850280523 0.9489448667 
-9.513676643 8.819903374 -1.850742936 0.9489324093 
-10.2631197 7.941864014 -1.851315618 0.9489170313 
-10.60657978 7.477705002 -1.851375341 0.948915422 
-13.58407402 3.585900784 -2.004294634 0.9448145628 
-13.94093227 1.746020436 -2.004355431 0.9448128939 
-14.00487804 1.124157667 -2.004365921 0.9448125958 
-14.04104424 0.5000585914 -2.004371643 0.9448124766 
-13.98259449 -1.373256803 -2.004359484 0.9448127747 
-13.90757084 -1.993876934 -2.004345655 0.9448131323 
-13.51797295 -3.82708478 -2.004275084 0.9448150396 
-13.33413029 -4.424545765 -2.004242182 0.9448159337 
-13.1238718 -5.013217449 -2.00420475 0.944816947 
-12.88758469 -5.591923714 -2.004162312 0.9448181391 
-12.62579346 -6.159565449 -2.00411582 0.9448192716 
-12.33897877 -6.71494627 -2.004064798 0.9448206425 
-11.33442879 -8.296757698 -2.003886461 0.9448254704 
-10.95377636 -8.792448997 -2.003819227 0.9448272586 
-10.5514431 -9.270683289 -2.00374794 0.9448291063 
-10.0906496 -9.694403648 -1.996239781 0.9450300932 
-9.245761871 -9.709768295 -1.912733436 0.9472678304 
-8.076406479 -10.15397167 -1.850911975 0.9489278793 
-7.616391659 -10.50272179 -1.850830793 0.9489300847 
-7.141332626 -10.83063412 -1.85074687 0.9489323497 
-5.635439396 -11.68310547 -1.850481272 0.9489394426 
-5.109897137 -11.92162609 -1.850388646 0.948941946 
-4.574275017 -12.13652039 -1.850294352 0.9489444494 
-3.477136135 -12.49374199 -1.850101113 0.948949635 
-2.917785645 -12.63537121 -1.850002527 0.9489523172 
-1.20985353 -12.90919876 -1.849700451 0.9489604235 
-0.6343847513 -12.94962883 -1.849612832 0.9489627481 
0.5190624595 -12.95333958 -1.849411368 0.9489682317 
1.094687462 -12.91665459 -1.849297881 0.9489712119 
1.668095708 -12.85445786 -1.849196315 0.9489739537 
2.238124847 -12.76683807 -1.849096179 0.9489766955 
3.363618135 -12.51605415 -1.84889853 0.9489819407 
3.916831017 -12.35339069 -1.848801494 0.9489845634 
4.998793602 -11.95513439 -1.848611832 0.9489896894 
6.040971756 -11.46241665 -1.848429203 0.9489945769 
6.544569969 -11.18181324 -1.848340988 0.9489969611 
7.035151005 -10.87909603 -1.848254919 0.9489993453 
7.511811256 -10.55489922 -1.848171592 0.9490015507 
8.418998718 -9.844643593 -1.848012924 0.9490069747 
10.44923782 -9.346977234 -2.000056505 0.9449278712 
10.85422325 -8.872588158 -1.999985933 0.944930017 
11.59916496 -7.87224102 -1.999856114 0.9449332952 
11.93752384 -7.34827137 -1.999797225 0.944934845 
12.25226021 -6.809770584 -1.999742389 0.9449362755 
12.80838394 -5.693547249 -1.999645829 0.9449389577 
13.26322746 -4.532441139 -1.999567032 0.9449409842 
13.61315918 -3.335585833 -1.99950695 0.9449426532 
13.74792004 -2.726694345 -1.999483943 0.9449431896 
13.92183113 1.617924809 -1.999457955 0.9449439049 
13.83617687 2.235627413 -1.999473691 0.9449434876 
13.7231884 2.848937988 -1.999494076 0.9449428916 
13.58304214 3.456616163 -1.999519467 0.9449422359 
13.22247505 4.650353909 -1.99958396 0.944940567 
13.00289536 5.234033108 -1.999623179 0.9449390769 
12.15989685 6.202582836 -1.947377086 0.9463387728 
11.26322746 6.391921043 -1.847530365 0.9490187764 
10.65116215 7.368124962 -1.847638965 0.9490158558 
10.31321239 7.834877968 -1.847698808 0.9490141869 
9.574896812 8.719516754 -1.847484708 0.9490199685 
8.759037971 9.532758713 -1.846855879 0.9490369558 
8.325043678 9.911447525 -1.846572638 0.949044466 
6.59487772 10.40004349 -1.756825686 0.9514598846 
6.279179573 10.95077133 -1.800843477 0.9502744675 
3.708940268 12.06944752 -1.801296353 0.9502622485 
3.168544769 12.22312737 -1.801391602 0.9502597451 
2.251362324 10.60725117 -1.546940088 0.9571326375 
1.718476534 10.34293461 -1.495751023 0.9585212469 
0.7877295017 10.39309025 -1.486933351 0.9587607384 
0.3263427615 10.4730711 -1.49481535 0.9585466981 
-1.084870577 10.56296158 -1.514842749 0.9580032229 
-2.072216749 10.6973505 -1.554457068 0.9569289684 
-2.546747923 10.59749031 -1.554885983 0.9569173455 
-3.078632832 10.69249535 -1.587364197 0.9560375214 
-4.720415115 10.74780941 -1.674650192 0.953676939 
-5.405422211 10.95602226 -1.742868423 0.9518361092 
-6.507509708 10.67785645 -1.783905625 0.950730443 
-7.228671551 10.75362682 -1.848505616 0.9489925504 
-7.701542854 10.42364025 -1.848902106 0.9489818811 
-8.159428596 10.07298279 -1.849315286 0.9489707947 
-9.026674271 9.312317848 -1.850189805 0.9489473104 
-9.434326172 8.903762817 -1.850649357 0.9489349723 
-10.1919508 8.032849312 -1.85130322 0.9489173889 
-11.17146969 6.605434418 -1.851473808 0.9489127994 
-13.70324707 3.100180626 -2.004315138 0.9448139668 
-13.82772923 2.487573147 -2.004336357 0.9448134303 
-13.92481136 1.870012164 -2.00435257 0.9448130131 
-14.04995346 0 -2.004372597 0.9448124766 
-13.99427986 -1.248735309 -2.004361629 0.9448127151 
-13.82770252 -2.487592697 -2.004331112 0.9448134899 
-13.551548 -3.706642866 -2.004281044 0.9448148608 
-12.68017769 -6.046967506 -2.004125357 0.9448190331 
-12.3983345 -6.604882717 -2.004075527 0.9448203444 
-12.09189415 -7.149697304 -2.004020929 0.9448218346 
-11.76154804 -7.680287838 -2.003962278 0.9448233843 
-10.63360596 -9.176486969 -2.003762484 0.9448287487 
-9.409115791 -9.706850052 -1.928575277 0.9468428493 
-5.739247799 -11.63260746 -1.850499511 0.9489389658 
-5.215844631 -11.87579536 -1.850407362 0.9489414692 
-4.139269829 -12.2911272 -1.8502177 0.948946476 
-1.897265553 -12.82707024 -1.849822998 0.9489571452 
-0.749599576 -12.94358349 -1.849630952 0.9489623308 
-0.1730712801 -12.96345711 -1.849536419 0.9489648938 
0.4037451148 -12.9576025 -1.849433064 0.9489676356 
0.9797070026 -12.92603016 -1.849321246 0.9489706159 
1.553618073 -12.86893559 -1.849216461 0.9489734173 
2.124462843 -12.78638935 -1.849116206 0.9489760995 
2.690991163 -12.67855453 -1.849016666 0.9489787817 
3.252138615 -12.54562759 -1.848918319 0.9489814043 
4.892241001 -11.99927711 -1.848630428 0.9489892125 
5.938784122 -11.51582527 -1.848447084 0.9489941001 
6.444863319 -11.2397089 -1.848358393 0.9489964843 
7.882426739 -10.28051472 -1.848106742 0.9490032792 
9.741733551 -9.698493004 -1.961057425 0.9459722042 
10.36571312 -9.439655304 -2.000071287 0.9449275136 
10.77499485 -8.968894005 -1.999999762 0.9449293613 
12.19122982 -6.918571472 -1.999752879 0.9449360371 
12.48637199 -6.369282246 -1.999701619 0.9449381232 
13.00272465 -5.233981609 -1.999612093 0.9449397326 
13.22241688 -4.65031004 -1.999574065 0.9449408054 
13.58298302 -3.456611156 -1.999511957 0.9449424744 
13.97991657 -0.9970287681 -1.999444842 0.9449442625 
14.01318359 0.2494677752 -1.999440432 0.9449443817 
13.98824692 0.8725707531 -1.999445438 0.9449442625 
13.93565845 1.493962407 -1.999455333 0.9449439645 
13.74795341 2.726689339 -1.999489665 0.9449430704 
13.45155716 3.937905073 -1.999542952 0.9449416399 
13.26329041 4.532455921 -1.999576807 0.9449407458 
12.80850029 5.69359827 -1.999657869 0.9449384809 
10.71627426 7.273010254 -1.847627401 0.9490160346 
10.38245106 7.742739201 -1.847686529 0.9490145445 
10.02809048 8.197201729 -1.847749233 0.9490128756 
9.652489662 8.634255409 -1.847551942 0.9490181804 
8.413173676 9.837260246 -1.846627593 0.9490429759 
7.966098309 10.20031261 -1.846361518 0.9490501285 
7.50347662 10.54316902 -1.846117258 0.9490567446 
4.870278358 11.64782715 -1.801091671 0.9502677917 
3.816166878 12.0358448 -1.801277399 0.950262785 
2.372558594 10.70815849 -1.564673781 0.9566519856 
1.810424805 10.32714558 -1.495737553 0.9585216045 
1.33041501 10.25226498 -1.474852681 0.9590888023 
0.8835986257 10.42562485 -1.492653608 0.9586054087 
0.4169824123 10.40539551 -1.485628605 0.9587962031 
-0.04774902388 10.73831272 -1.531946063 0.9575392604 
-1.979194283 10.7274456 -1.556210876 0.9568814635 
-2.458017588 10.64435005 -1.558488727 0.9568197131 
-5.991782188 11.12780285 -1.80300045 0.9502164125 
-7.132392406 10.81707096 -1.848428607 0.9489946365 
-8.069067001 10.14474869 -1.849231362 0.9489730597 
-8.942983627 9.391832352 -1.850099564 0.9489497542 
-9.35422802 8.986937523 -1.850556254 0.9489374757 
-10.12001896 8.123153687 -1.851290703 0.9489176869 
-11.11219501 6.704557896 -1.851463556 0.9489130378 
-12.6258955 6.159582615 -2.004128933 0.9448189139 
-12.88768768 5.591967583 -2.004174471 0.9448177218 
-13.12392998 5.013242245 -2.00421524 0.9448167086 
-13.51803398 3.827097178 -2.00428319 0.9448148012 
-13.6750679 3.222023964 -2.004310369 0.9448141456 
-13.80501938 2.610551596 -2.004332542 0.9448134899 
-13.90761185 1.993886709 -2.004349709 0.9448130131 
-14.02991676 0.7499047518 -2.004369974 0.9448124766 
-14.04939651 0.1250585914 -2.004372835 0.9448124766 
-14.04103947 -0.5000854135 -2.004370689 0.9448124766 
-13.9409008 -1.746047378 -2.004351854 0.9448129535 
-13.84931374 -2.364440918 -2.004334927 0.9448134303 
-13.58402348 -3.585910559 -2.004287004 0.9448147416 
-13.41086197 -4.186564922 -2.00425601 0.9448155165 
-13.21112251 -4.778891563 -2.004220247 0.9448164701 
-11.82950878 -7.575339317 -2.003974438 0.9448230863 
-11.48046875 -8.093808174 -2.003912449 0.9448247552 
-11.10870361 -8.596200943 -2.003846645 0.9448264837 
-10.71493912 -9.081533432 -2.003776789 0.9448283911 
-10.29997063 -9.548830032 -2.003703356 0.944830358 
-8.771052361 -9.718073845 -1.867555857 0.9484806657 
-7.333093166 -10.70201683 -1.850780725 0.948931396 
-6.84946537 -11.01713371 -1.850695491 0.948933661 
-6.352294922 -11.31037807 -1.850607753 0.9489360452 
-5.842597485 -11.58119106 -1.850517869 0.9489384294 
-5.321372032 -11.82902813 -1.850425959 0.9489409328 
-4.789690018 -12.05344009 -1.85033226 0.9489433765 
-3.699055195 -12.43014336 -1.850140214 0.9489485621 
-2.579377413 -12.70835686 -1.849943042 0.948953867 
-1.439496994 -12.8859129 -1.849742532 0.948959291 
-0.8647900224 -12.93653297 -1.849648833 0.948961854 
2.010590792 -12.80494308 -1.849136114 0.948975563 
2.578061581 -12.70212173 -1.849036574 0.9489783049 
3.140375853 -12.57419872 -1.84893775 0.9489809275 
3.696430683 -12.42139912 -1.848840237 0.9489835501 
4.785297871 -12.04246807 -1.848649263 0.9489886761 
5.315966606 -11.8170948 -1.848556161 0.9489911795 
5.836098671 -11.56834888 -1.848465085 0.9489936233 
6.84054184 -11.00279522 -1.848289132 0.9489983916 
7.79068327 -10.3503437 -1.848122835 0.949002862 
8.243032455 -9.993115425 -1.84804368 0.9490050077 
9.572982788 -9.701605797 -1.944385648 0.946418941 
10.69481945 -9.06447506 -2.00001359 0.9449290633 
11.45735836 -8.077533722 -1.999880791 0.9449326396 
11.80497551 -7.559648037 -1.999820232 0.9449342489 
12.12923813 -7.026838303 -1.999763727 0.944935739 
12.42974091 -6.48013401 -1.999711514 0.9449363351 
13.18054199 -4.767841816 -1.999581456 0.9449406266 
13.69726086 -2.970976591 -1.999492407 0.9449430108 
13.81572247 -2.358713388 -1.99947226 0.9449435472 
13.90687466 -1.741735816 -1.999456882 0.9449439049 
14.01483822 0.1247485355 -1.999439955 0.9449443817 
13.87370586 1.989016056 -1.999466777 0.9449437857 
12.85853004 5.579340458 -1.999649048 0.9449390173 
11.43608379 6.223547459 -1.857414007 0.9487530589 
11.08875465 6.690422058 -1.84756124 0.949017942 
10.78049278 7.177279949 -1.847615957 0.9490164518 
10.45085907 7.650009632 -1.84767437 0.9490149021 
9.337719917 8.971059799 -1.847287536 0.9490252733 
8.500634193 9.762294769 -1.846683502 0.9490415454 
8.056777 10.1292944 -1.846412897 0.9490487576 
6.448740005 10.79650402 -1.794063687 0.9504568577 
5.984780312 11.11480904 -1.800895333 0.9502730966 
4.973720551 11.603899 -1.801073551 0.9502682686 
3.923100471 12.00126457 -1.801258683 0.9502633214 
2.494750977 10.8033886 -1.581770897 0.9561888576 
1.913525343 10.37181664 -1.504612684 0.9582806826 
0.0476318337 10.70091248 -1.526610255 0.9576839805 
-0.9024413824 10.6483078 -1.524536252 0.9577401876 
-1.37099123 10.56504345 -1.519850254 0.957867384 
-2.374614239 10.71743584 -1.566033244 0.9566152692 
-3.420693398 10.78859806 -1.614615083 0.9552998543 
-4.580585957 10.95503616 -1.693964243 0.9531553984 
-5.144233227 10.9119606 -1.721016169 0.9524253607 
-6.300844669 10.76539803 -1.779507995 0.9508488178 
-7.03558588 10.87964916 -1.848352194 0.9489966631 
-7.514150143 10.55812931 -1.848741412 0.9489862323 
-7.978132248 10.21567726 -1.849148035 0.9489753246 
-8.858652115 9.470567703 -1.850010037 0.9489521384 
-10.73811722 7.287848949 -1.851398468 0.9489148259 
-11.05200672 6.803161621 -1.851453066 0.9489133358 
-12.41718769 6.195202351 -1.979676008 0.9454734921 
-13.07874966 5.129846096 -2.004207611 0.9448168278 
-13.2942524 4.54307127 -2.004244804 0.9448158145 
-13.6458416 3.343554497 -2.004305124 0.9448142052 
-13.88927746 2.117538929 -2.004346609 0.9448131919 
-13.96983147 1.497600079 -2.004360199 0.9448127747 
-14.04494095 -0.3750805557 -2.004371405 0.9448124766 
-13.86983871 -2.241076708 -2.004338741 0.9448133111 
-13.61544895 -3.464868069 -2.004292727 0.9448145628 
-13.44764328 -4.067045689 -2.004262447 0.9448153377 
-13.2531786 -4.661128044 -2.004227638 0.9448162913 
-12.78592777 -5.820361137 -2.00414443 0.9448184967 
-12.21737003 -6.933437347 -2.004043341 0.9448212385 
-11.89652348 -7.469841003 -2.003986359 0.9448227286 
-11.55208683 -7.991388798 -2.003925085 0.9448244572 
-11.18480396 -8.49708271 -2.003860235 0.9448261857 
-10.79538822 -8.985898018 -2.003791094 0.9448280334 
-10.38460636 -9.45690155 -2.003718376 0.9448298812 
-9.744042397 -9.700793266 -1.961523294 0.9459597468 
-8.344819069 -9.934994698 -1.85095942 0.948926568 
-6.947321415 -10.95582008 -1.850712657 0.9489332438 
-5.945512772 -11.52884483 -1.850535989 0.9489379525 
-4.896831036 -12.01043892 -1.850351095 0.9489428997 
-3.809565306 -12.39686489 -1.850159526 0.9489480257 
-1.554062486 -12.87274361 -1.849762678 0.9489587545 
-0.4037646353 -12.95860767 -1.849575281 0.9489637613 
0.1730615199 -12.96304131 -1.849475384 0.9489664435 
0.7494921684 -12.94175243 -1.849367023 0.9489693642 
1.582749009 -15.41073704 -2.210064411 0.9393242002 
1.896552682 -12.82245541 -1.849156141 0.9489750862 
3.028364182 -12.60179901 -1.848957419 0.948980391 
4.677963734 -12.0847044 -1.848668218 0.9489881992 
5.210673809 -11.86403751 -1.848574638 0.9489907026 
6.243920803 -11.35285378 -1.848393679 0.9489955306 
6.742436409 -11.06332207 -1.848306179 0.9489979148 
9.40694809 -9.70463562 -1.928136349 0.9468547106 
10.6137743 -9.159377098 -2.000027895 0.9449287057 
11.01034641 -8.67787838 -1.999958634 0.9449304938 
11.73729992 -7.664470196 -1.999831915 0.9449338913 
12.65203094 -6.033564091 -1.999673009 0.9449380636 
12.90762138 -5.464616776 -1.999628544 0.9449393153 
13.34173298 -4.295629978 -1.99955368 0.9449412823 
13.51939392 -3.697827101 -1.999522924 0.9449421167 
13.6703167 -3.092734337 -1.999497056 0.9449428916 
13.79422379 -2.481545448 -1.999475956 0.9449433684 
13.89083004 -1.865451574 -1.999459624 0.9449439049 
13.95998478 -1.245681167 -1.99944818 0.9449442029 
14.00153732 -0.6234570146 -1.999441504 0.9449443221 
14.01539516 -7.324218586e-06 -1.999439597 0.9449443817 
13.96000957 1.245671391 -1.999450803 0.9449440837 
13.89081478 1.865436912 -1.999463558 0.9449439645 
13.79416466 2.481528282 -1.99948132 0.9449436069 
13.67036629 3.092739105 -1.999503732 0.9449426532 
13.13771915 4.885009766 -1.999599218 0.9449400902 
12.65208435 6.033603191 -1.999685764 0.9449378252 
11.66461372 6.214020729 -1.885473847 0.9479993582 
10.51846123 7.556640625 -1.847662449 0.9490152001 
10.17225075 8.017313957 -1.847723842 0.9490135908 
9.417529106 8.887905121 -1.847352386 0.9490235448 
8.587460518 9.686532974 -1.846740127 0.9490399957 
7.123500824 10.59712601 -1.821606517 0.9497157931 
4.557734489 11.77406216 -1.801146865 0.9502663016 
4.029672623 11.96576881 -1.801239848 0.9502637982 
1.521518469 10.28682137 -1.48348248 0.9588543773 
0.1429736316 10.70729923 -1.527642012 0.9576559663 
-0.8026733398 10.59062481 -1.515195489 0.9579936266 
-1.276726007 10.57539558 -1.519645691 0.9578729272 
-2.252387762 10.61216736 -1.547659874 0.9571132064 
-5.009213924 10.87537861 -1.708149076 0.9527724981 
-5.63334465 10.92354202 -1.753378749 0.9515528083 
-6.938173771 10.94138908 -1.848276377 0.9489987493 
-7.419560432 10.62413788 -1.848662257 0.948988378 
-9.191889763 9.151089668 -1.850371957 0.9489423633 
-10.6727562 7.38309288 -1.851387024 0.9489151239 
-10.9909668 6.901184082 -1.851442337 0.9489136338 
-11.28740406 6.405612469 -1.851493955 0.9489122033 
-13.2532444 4.661149979 -2.004237652 0.9448160529 
-13.44769955 4.067055702 -2.004271269 0.9448150992 
-13.75631809 2.855822802 -2.004324198 0.9448137283 
-13.95593262 1.621894479 -2.004357815 0.9448128343 
-14.01433563 0.9994848371 -2.00436759 0.9448125362 
-14.04495049 0.3750854433 -2.00437212 0.944812417 
-14.0477314 -0.2500537038 -2.00437212 0.9448124766 
-13.96982193 -1.49760735 -2.0043571 0.9448127747 
-13.78117847 -2.733312845 -2.004322529 0.9448137283 
-13.48333931 -3.94725585 -2.004268885 0.9448151588 
-13.29418182 -4.543044567 -2.004235029 0.9448161125 
-13.07866955 -5.129817009 -2.004196644 0.9448171854 
-11.26008511 -8.3972435 -2.003873348 0.9448257685 
-9.085058212 -9.712607384 -1.897289872 0.9476822019 
-7.522536278 -10.57000732 -1.850814223 0.9489305019 
-7.044587135 -10.89368153 -1.850729823 0.9489327669 
-6.047907352 -11.47559547 -1.850553989 0.9489374757 
-5.531174183 -11.73268318 -1.850462914 0.9489399195 
-5.003537655 -11.9665041 -1.85036993 0.9489424825 
-4.466062069 -12.17663097 -1.850275278 0.9489449263 
-3.365793467 -12.52406502 -1.850081444 0.9489501119 
-0.5191113353 -12.95461845 -1.849594235 0.9489633441 
0.6342675686 -12.94805622 -1.849389315 0.9489688277 
1.4443115 -15.41069317 -2.208128214 0.9393756986 
2.916167021 -12.62836933 -1.848977208 0.9489798546 
3.474828959 -12.48548317 -1.848879099 0.9489825368 
4.026581764 -12.31790733 -1.848782301 0.9489850998 
4.570297718 -12.12597179 -1.848686934 0.9489877224 
6.643769264 -11.12302208 -1.848323584 0.9489973783 
7.131650448 -10.81596375 -1.84823823 0.9489997029 
7.60536623 -10.48754883 -1.848155141 0.9490019679 
8.06401825 -10.13840294 -1.848075032 0.9490041733 
9.243749619 -9.707585335 -1.912297964 0.9472792149 
10.08813 -9.692033768 -1.995743394 0.9450433254 
10.93277836 -8.775548935 -1.999972224 0.9449301362 
11.31194305 -8.280268669 -1.999906063 0.9449319243 
12.3122797 -6.700414658 -1.999732018 0.9449366927 
12.5978756 -6.145927429 -1.999682307 0.9449379444 
12.85852051 -5.579313755 -1.999637127 0.9449390769 
13.30300713 -4.414226055 -1.999560237 0.9449411035 
13.48598099 -3.818027258 -1.999528766 0.9449419975 
13.64229012 -3.214304209 -1.999501944 0.9449427128 
13.77159595 -2.604230881 -1.999479771 0.9449433684 
13.94836426 -1.369899869 -1.999450088 0.9449440837 
14.00653267 0.4988525212 -1.999441743 0.9449443221 
13.97053146 1.121425748 -1.999448776 0.9449441433 
13.81583023 2.358720541 -1.999477386 0.94494313 
13.69730949 2.970983744 -1.999498844 0.944942832 
13.55175781 3.577392578 -1.99952507 0.9449421167 
13.37941837 4.176743031 -1.999555945 0.9449412823 
13.18062019 4.767853737 -1.99959147 0.9449403286 
12.95573711 5.349557877 -1.999631643 0.9449392557 
12.70528793 5.920707703 -1.999676347 0.9449378848 
11.9083004 6.208407879 -1.915856838 0.9471839666 
10.90640068 6.984199047 -1.847593665 0.9490170479 
9.880649567 8.374419212 -1.847758651 0.9490126371 
9.496601105 8.804035187 -1.847418189 0.9490217566 
8.389252663 8.502036095 -1.703965068 0.9528854489 
8.673574448 9.610038757 -1.846797585 0.9490385056 
8.236254692 9.984872818 -1.846518517 0.9490458965 
7.782851219 10.33992195 -1.846261144 0.9490528703 
7.261186123 10.59707737 -1.832631946 0.9494193196 
6.557499886 10.54754353 -1.771811366 0.9510561228 
5.948134422 10.59075642 -1.732864141 0.9521058202 
4.135991096 11.92930126 -1.801221132 0.9502642751 
3.059677601 12.2509737 -1.801410675 0.9502592087 
1.617954016 10.30424023 -1.488013744 0.9587313533 
1.185541987 10.6125927 -1.523413062 0.9577707052 
0.6944872737 10.3892231 -1.485437036 0.9588013887 
-0.2427343726 10.90788555 -1.556507707 0.9568733573 
-1.665546894 10.60741711 -1.53179884 0.9575432539 
-2.652421713 10.62034893 -1.56164062 0.9567342997 
-6.073090553 10.81322479 -1.769263625 0.9511247277 
-8.249140739 10.00041771 -1.849399924 0.9489684701 
-8.687866211 9.625806808 -1.849832773 0.9489569068 
-9.109653473 9.232051849 -1.850280523 0.9489448667 
-9.513690948 8.819886208 -1.850742936 0.9489324093 
-9.899160385 8.390105247 -1.8512187 0.9489196539 
-10.2631197 7.941864014 -1.851315618 0.9489170313 
-10.60657978 7.477705002 -1.851375341 0.948915422 
-10.92905235 6.99870348 -1.851431727 0.9489138722 
-11.22986794 6.50579071 -1.85148406 0.9489125609 
-11.90581226 6.207123756 -1.915461898 0.9471946955 
-12.73363972 5.933949947 -2.004147768 0.9448184371 
-13.41092968 4.186584473 -2.004264832 0.9448152781 
-13.58406448 3.585930109 -2.004294634 0.9448145628 
-13.84936047 2.364448071 -2.004339933 0.9448132515 
-13.94093704 1.745988727 -2.004355431 0.9448128939 
-14.00486565 1.124133229 -2.004365921 0.9448126554 
-14.04939938 -0.1250634789 -2.004372597 0.9448124766 
-14.0299139 -0.7499096394 -2.004368305 0.9448125362 
-13.98259449 -1.373256803 -2.004359484 0.9448127747 
-13.67502689 -3.222011566 -2.004303455 0.9448142648 
-13.51797295 -3.82708478 -2.004275084 0.9448150396 
-13.33413029 -4.424545765 -2.004242182 0.9448159337 
-13.1238718 -5.013217449 -2.00420475 0.944816947 
-12.88758469 -5.591923714 -2.004162312 0.9448181391 
-12.62582016 -6.159545898 -2.00411582 0.944819212 
-12.02774429 -7.256952763 -2.004009485 0.9448221326 
-11.33441639 -8.296787262 -2.003886461 0.9448254108 
-10.09061241 -9.69440937 -1.996235609 0.9450301528 
-7.141332626 -10.83063412 -1.85074687 0.9489323497 
-6.149870396 -11.42140865 -1.85057199 0.9489369988 
-5.635439396 -11.68310547 -1.850481272 0.9489394426 
-4.029692173 -12.32734108 -1.850198269 0.9489470124 
-2.352663517 -12.75197697 -1.849903107 0.9489549994 
-1.783000469 -12.84332466 -1.849802971 0.9489576221 
-0.6343554258 -12.94962883 -1.849612832 0.9489628077 
-0.05767577887 -12.96434498 -1.849516392 0.9489653707 
1.668095708 -12.85445786 -1.849196315 0.9489739537 
2.238124847 -12.76683807 -1.849096179 0.9489766955 
2.80368638 -12.65395927 -1.848996878 0.9489793181 
3.916831017 -12.35339069 -1.848801494 0.9489845634 
4.998774529 -11.95515156 -1.848611832 0.9489896894 
6.040942192 -11.46242619 -1.848429203 0.9489945769 
6.544604301 -11.18179703 -1.848340869 0.9489969015 
7.973549843 -10.20984554 -1.848090768 0.949003756 
9.913471222 -9.695304871 -1.978178859 0.9455136061 
10.85422325 -8.872588158 -1.999985933 0.944930017 
11.59916496 -7.87224102 -1.999856114 0.9449332952 
12.54272938 -6.257851601 -1.999691844 0.9449376464 
12.80841732 -5.693576336 -1.999645829 0.9449387789 
13.26322746 -4.532470703 -1.999567032 0.9449409842 
13.45150852 -3.937870979 -1.999534726 0.9449418783 
13.61316872 -3.335558891 -1.99950695 0.9449425936 
13.98823166 -0.87255615 -1.99944365 0.9449443221 
14.01317883 -0.2494433522 -1.999439836 0.9449443817 
14.01040459 0.3741528094 -1.999441028 0.9449443817 
13.9799366 0.9970214367 -1.999446988 0.9449442029 
13.92183113 1.617924809 -1.999457955 0.9449439049 
13.83617687 2.235627413 -1.999473691 0.9449434876 
13.7231884 2.848937988 -1.999494076 0.9449428916 
13.58304214 3.456616163 -1.999519467 0.9449422359 
13.00288582 5.233998775 -1.999623179 0.9449391365 
12.75736809 5.807355881 -1.999667048 0.9449383616 
12.15984344 6.202587605 -1.947369695 0.9463389516 
10.96802235 6.88684082 -1.847582698 0.9490174055 
10.31318855 7.834902287 -1.847698808 0.9490142465 
9.574896812 8.719516754 -1.847484708 0.9490199685 
9.175937653 9.135199547 -1.847160101 0.9490287304 
8.325043678 9.911447525 -1.846572638 0.949044466 
7.400624752 10.59703636 -1.843944669 0.9491151571 
6.59487772 10.40004349 -1.756825686 0.9514598846 
6.279203892 10.9507618 -1.800843358 0.9502744675 
5.281567097 11.4666357 -1.801019192 0.9502697587 
4.766508579 11.69082451 -1.801110029 0.9502672553 
4.241909027 11.89190674 -1.801202536 0.9502648115 
3.168520451 12.22313404 -1.801391602 0.9502597451 
1.718452096 10.34294415 -1.495751023 0.9585212469 
0.7877295017 10.39309025 -1.486933351 0.9587607384 
-0.1446044892 10.83278561 -1.54554522 0.9571704865 
-0.6132275462 10.58879852 -1.51313138 0.9580495954 
-1.084870577 10.56296158 -1.514842749 0.9580032229 
-2.072216749 10.6973505 -1.554457068 0.9569289684 
-3.078608274 10.69250011 -1.587364197 0.9560375214 
-3.646152258 10.82693863 -1.629807591 0.9548888803 
-6.090654373 11.07413673 -1.803017735 0.9502159357 
-6.50752449 10.67783165 -1.783904076 0.9507305026 
-7.228691101 10.75361347 -1.848505616 0.9489925504 
-7.701542854 10.42364025 -1.848902106 0.9489818811 
-8.159428596 10.07298279 -1.849315286 0.9489707947 
-8.601430893 9.70229435 -1.849745035 0.9489592314 
-9.026674271 9.312317848 -1.850189805 0.9489473104 
-9.434326172 8.903762817 -1.850649357 0.9489349723 
-10.1919508 8.032849312 -1.85130322 0.9489173889 
-10.53953552 7.571777344 -1.851363778 0.94891572 
-11.66219902 6.212760925 -1.885090947 0.948009789 
-12.68027592 6.046984673 -2.00413847 0.9448186755 
-13.37309074 4.305717468 -2.004258394 0.9448155165 
-14.04995346 0 -2.004372597 0.9448124766 
-13.99427986 -1.248735309 -2.004361629 0.9448127151 
-13.82770443 -2.487558603 -2.004331112 0.9448135495 
-13.55155468 -3.706616163 -2.004281044 0.9448148608 
-13.37301254 -4.305751801 -2.004249334 0.9448157549 
-12.93690109 -5.477067947 -2.004171133 0.9448178411 
-12.39831543 -6.604902267 -2.004075527 0.9448204041 
-12.09189415 -7.149697304 -2.004020929 0.9448218346 
-11.76154804 -7.680287838 -2.003962278 0.9448233843 
-11.40789986 -8.195630074 -2.003899574 0.9448250532 
-11.03166199 -8.694677353 -2.003833055 0.944826901 
-10.21450615 -9.640060425 -2.003688335 0.9448307157 
-9.409115791 -9.706850052 -1.928575277 0.9468428493 
-8.625637054 -9.729598999 -1.854949594 0.9488193393 
-8.166538239 -10.08176517 -1.85092783 0.9489274621 
-6.75110817 -11.07751656 -1.850678086 0.9489341378 
-5.739218712 -11.632617 -1.850499511 0.9489389658 
-4.682170391 -12.09545898 -1.850313425 0.948943913 
-3.588205576 -12.46243858 -1.850120664 0.9489491582 
-3.030129433 -12.60904503 -1.850022435 0.9489517808 
-1.897265553 -12.82707024 -1.849822998 0.9489571452 
-0.749599576 -12.94358349 -1.849630952 0.9489623308 
-0.1730712801 -12.96345711 -1.849536419 0.9489648938 
0.4037451148 -12.9576025 -1.849433064 0.9489676356 
0.9796874523 -12.92603016 -1.849321246 0.9489706755 
1.553618073 -12.86893559 -1.849216461 0.9489734173 
2.690942287 -12.67855644 -1.849016666 0.9489787817 
3.252153158 -12.5456171 -1.848918319 0.9489814639 
3.80675292 -12.38787842 -1.848820925 0.9489841461 
4.353881836 -12.20563412 -1.848724961 0.9489866495 
4.892241001 -11.99926758 -1.848630428 0.9489892125 
5.420903206 -11.76918888 -1.848537803 0.9489916563 
7.41764164 -10.62142754 -1.848188162 0.9490011334 
7.882426739 -10.28051472 -1.848106742 0.9490032792 
8.331591606 -9.919260025 -1.848028183 0.949005425 
10.36569786 -9.439684868 -2.000071287 0.9449275136 
10.77497578 -8.96890831 -1.999999762 0.9449294209 
11.16291523 -8.480442047 -1.999932051 0.9449311495 
11.52872562 -7.975175381 -1.999868274 0.9449329972 
11.87172794 -7.454226017 -1.999808669 0.9449345469 
12.48649883 -6.369243145 -1.999701619 0.9449377656 
12.75728989 -5.807329178 -1.999654651 0.9449386597 
13.00272465 -5.233981609 -1.999612093 0.9449397326 
13.22241688 -4.65031004 -1.999574065 0.9449408054 
13.41596603 -4.057458401 -1.999540806 0.9449416995 
13.92179203 -1.617936969 -1.999454498 0.9449440241 
13.98824692 0.872543931 -1.999445438 0.9449442625 
13.04877377 5.11809063 -1.999615073 0.9449397326 
12.80850029 5.69359827 -1.999657869 0.9449384809 
12.41986752 6.196537971 -1.980102539 0.9454620481 
11.02884293 6.788901329 -1.847571969 0.9490176439 
10.02809048 8.197201729 -1.847749233 0.9490128756 
8.116542816 8.677197456 -1.695029616 0.9531266093 
8.413192749 9.837241173 -1.846627593 0.9490430355 
7.966078758 10.20032978 -1.846361518 0.9490501285 
6.766391277 10.46349621 -1.777641058 0.9508990049 
5.885678768 11.16776562 -1.800912738 0.9502725601 
5.3833251 11.41907978 -1.80100143 0.9502702355 
3.277158022 12.19432354 -1.80137229 0.950260222 
-0.04774902388 10.73831272 -1.531946063 0.9575392604 
-0.5238720775 10.69441414 -1.527498484 0.9576599002 
-0.9911523461 10.57545662 -1.51530993 0.9579905272 
-1.469665527 10.58614254 -1.524706483 0.9577355981 
-2.458017588 10.64435005 -1.558488727 0.9568197131 
-2.974575043 10.68791485 -1.582691312 0.9561640024 
-4.019482136 10.66449642 -1.625873208 0.9549952745 
-4.59485817 10.72005081 -1.66388762 0.9539676905 
-5.275351524 10.93661499 -1.732243657 0.9521225691 
-5.991782188 11.12780285 -1.80300045 0.9502164125 
-6.429106236 10.76360703 -1.788602829 0.9506040215 
-7.132392406 10.81707096 -1.848428607 0.9489946365 
-7.608129501 10.49132824 -1.848821402 0.9489840269 
-8.514326096 9.778015137 -1.849657655 0.9489616156 
-8.942983627 9.391832352 -1.850099564 0.9489497542 
-10.47168446 7.665189266 -1.851351857 0.9489160776 
-11.43885517 6.225063324 -1.857867837 0.9487409592 
-12.6258955 6.159582615 -2.004128933 0.9448189139 
-13.12392998 5.013242245 -2.00421524 0.9448167086 
-13.51803398 3.827097178 -2.00428319 0.9448148012 
-13.6750679 3.222023964 -2.004310369 0.9448141456 
-13.80501938 2.610551596 -2.004332542 0.9448134899 
-13.98262405 1.373259306 -2.004362345 0.9448126554 
-14.02991676 0.7499047518 -2.004369974 0.9448124766 
-14.04940414 0.1250024438 -2.004372835 0.944812417 
-14.04103947 -0.5000854135 -2.004370689 0.9448124766 
-14.00485611 -1.124186993 -2.004363775 0.9448126554 
-13.9409008 -1.746047378 -2.004351854 0.9448129535 
-13.73027515 -2.978137255 -2.004313231 0.9448140264 
-13.41086197 -4.186564922 -2.00425601 0.9448155165 
-12.98519039 -5.361723423 -2.004179955 0.9448176026 
-12.45667458 -6.494316101 -2.004085779 0.944820106 
-11.48046875 -8.093808174 -2.003912449 0.9448247552 
-10.71493912 -9.081533432 -2.003776789 0.9448283911 
-8.771052361 -9.718073845 -1.867555857 0.9484806657 
-8.255983353 -10.0087986 -1.850943685 0.9489269853 
-7.333093166 -10.70201683 -1.850780725 0.948931396 
-6.352294922 -11.31037807 -1.850607753 0.9489360452 
-5.321372032 -11.82902813 -1.850425959 0.9489409328 
-4.789690018 -12.05344009 -1.85033226 0.9489433765 
-3.699055195 -12.43014336 -1.850140214 0.9489485621 
-0.8647412062 -12.93653297 -1.849648833 0.948961854 
-0.28840819 -12.96154308 -1.849556088 0.9489643574 
0.2884521484 -12.96082497 -1.849454403 0.9489670992 
1.439086914 -12.88239193 -1.849236608 0.9489728808 
2.010590792 -12.80494308 -1.849136114 0.948975563 
3.140375853 -12.57419872 -1.84893775 0.9489809275 
3.696430683 -12.42139912 -1.848840237 0.9489835501 
4.245082855 -12.24402523 -1.848744035 0.9489862323 
6.84054184 -11.00279522 -1.848289132 0.9489983916 
7.322870731 -10.68713856 -1.848204613 0.9490006566 
8.769379616 -9.716005325 -1.867166042 0.9484908581 
9.572982788 -9.701605797 -1.944385648 0.946418941 
10.28134251 -9.531647682 -2.000085831 0.9449270964 
11.45735836 -8.077533722 -1.999880791 0.9449326396 
12.12923813 -7.026838303 -1.999763727 0.944935739 
12.42974091 -6.480077744 -1.999711514 0.9449364543 
12.70516109 -5.920685768 -1.999663711 0.9449383616 
12.95568848 -5.349482536 -1.999620318 0.9449395537 
13.37937927 -4.176681995 -1.999547124 0.9449415207 
13.69726086 -2.970920324 -1.999492407 0.9449430108 
13.90687466 -1.741735816 -1.999456882 0.9449439049 
14.00651836 -0.4987988174 -1.99944067 0.9449443817 
13.94837379 1.369826674 -1.999452949 0.9449440837 
13.87370586 1.989016056 -1.999466777 0.9449437857 
13.77170372 2.604182005 -1.999485254 0.9449430108 
13.30306149 4.414228439 -1.999569654 0.9449409246 
12.85853004 5.579340458 -1.999649048 0.9449390173 
11.08874512 6.690468788 -1.84756124 0.949017942 
8.056777 10.1292944 -1.846412897 0.9490487576 
7.597250938 10.47621536 -1.846164346 0.9490554333 
6.875507832 10.427495 -1.781851888 0.9507856369 
4.973720551 11.603899 -1.801073551 0.9502682686 
3.923100471 12.00126457 -1.801258683 0.9502633214 
2.494750977 10.8033886 -1.581770897 0.9561888576 
1.913525343 10.37181664 -1.504612684 0.9582806826 
0.9786034822 10.44174576 -1.496150374 0.9585105181 
0.5085888505 10.38091755 -1.482719898 0.9588751793 
0.0476318337 10.70091248 -1.526610255 0.9576839805 
-0.4297656119 10.72620296 -1.531430483 0.9575532079 
-1.371044874 10.56508255 -1.519856811 0.9578672051 
-2.374667883 10.71744633 -1.56603539 0.9566152096 
-3.901518583 10.63747692 -1.616396427 0.9552516937 
-4.580607891 10.95495415 -1.693953633 0.9531556368 
-7.03558588 10.87964916 -1.848352194 0.9489966631 
-7.514108658 10.55816364 -1.848741412 0.9489862323 
-8.858652115 9.470567703 -1.850010037 0.9489521384 
-9.273410797 9.069389343 -1.850463867 0.9489399195 
-9.670136452 8.650046349 -1.850931644 0.9489273429 
-10.04727745 8.212817192 -1.851277828 0.948917985 
-10.40296841 7.758049011 -1.851339936 0.9489163756 
-11.34403038 6.304916859 -1.851503849 0.9489119649 
-12.83736038 5.706384182 -2.004165649 0.9448179603 
-13.07874966 5.129846096 -2.004207611 0.9448168278 
-13.29426956 4.543015003 -2.004244804 0.9448158145 
-13.88927746 2.117538929 -2.004346609 0.9448131919 
-13.96982861 1.497668386 -2.004360199 0.9448127151 
-14.02267838 0.8746997118 -2.004368782 0.9448125362 
-14.04494095 -0.3750805557 -2.004371405 0.9448124766 
-13.95590019 -1.621889591 -2.004354477 0.9448129535 
-13.75627422 -2.85580802 -2.004317999 0.9448139071 
-13.44764328 -4.067045689 -2.004262447 0.9448153377 
-13.25315857 -4.661189079 -2.004227638 0.9448162913 
-13.03246784 -5.245959282 -2.004188299 0.9448173642 
-12.78590107 -5.820410252 -2.00414443 0.9448185563 
-12.51406479 -6.383212566 -2.004096031 0.944819808 
-10.38464069 -9.456843376 -2.003718376 0.9448299408 
-9.744042397 -9.700793266 -1.961523294 0.9459597468 
-8.926753044 -9.7153759 -1.882227182 0.9480866194 
-7.894230843 -10.29595947 -1.850879788 0.9489287138 
-7.428132057 -10.63641834 -1.850797534 0.9489309788 
-5.426508904 -11.78131294 -1.850444436 0.9489404559 
-4.357480526 -12.21574402 -1.850256205 0.9489455223 
-2.692365646 -12.68503189 -1.849962831 0.9489533901 
-2.125322104 -12.79154301 -1.849863052 0.9489560723 
-0.979926765 -12.92844677 -1.849666357 0.9489613175 
-0.4037646353 -12.95860767 -1.849575281 0.9489637613 
0.7494921684 -12.94175243 -1.849367023 0.9489693642 
4.135986328 -12.28147221 -1.848763108 0.9489855766 
5.732993126 -11.61992168 -1.848483086 0.9489931464 
6.243862152 -11.35287571 -1.848393679 0.9489955902 
7.227509499 -10.75199223 -1.848221421 0.9490002394 
8.153813362 -10.06618881 -1.848059297 0.9490045905 
9.407031059 -9.704630852 -1.928144217 0.9468544722 
10.6138134 -9.15933609 -2.000027895 0.9449287057 
11.01034641 -8.67787838 -1.999958634 0.9449304938 
11.38512135 -8.17919445 -1.999893308 0.944932282 
11.73729992 -7.664470196 -1.999831915 0.9449338913 
12.90756798 -5.464672565 -1.999628544 0.9449393749 
13.89081955 -1.865510225 -1.999459624 0.9449439049 
13.95998478 -1.245681167 -1.99944818 0.9449442029 
14.00153732 -0.6234033108 -1.999441504 0.9449443221 
14.01539516 -7.324218586e-06 -1.999439597 0.9449443817 
13.96000957 1.245671391 -1.999450803 0.9449440837 
13.89078617 1.865495563 -1.999463558 0.9449440241 
13.51943302 3.697829485 -1.999530911 0.9449419975 
13.34177208 4.295685768 -1.999562621 0.9449410439 
11.14781666 6.591413498 -1.84755075 0.94901824 
10.84383297 7.081039906 -1.847604752 0.9490168691 
8.146801949 10.05749989 -1.84646523 0.9490473866 
7.690346718 10.40847588 -1.846212387 0.9490541816 
7.123446941 10.59712124 -1.821601272 0.9497159123 
6.451254845 10.58552265 -1.768478513 0.9511458874 
