# .PCD v0.7 - Point Cloud Data file format
VERSION 0.7
FIELDS x y z intensities
SIZE 4 4 4 4
TYPE F F F F
COUNT 1 1 1 1
WIDTH 925
HEIGHT 1
VIEWPOINT 0 0 0 1 0 0 0
POINTS 925
DATA ascii
4.265449047 13.8804903 -1.801344991 0.9431503415 
3.015175819 14.20604229 -1.801519275 0.9431449771 
0.7880077958 10.39698219 -1.293444157 0.9588440061 
0.320566386 10.28792477 -1.276835561 0.9593615532 
-0.6028320193 10.40965557 -1.293483377 0.9588428736 
-1.095932603 10.6708107 -1.330679893 0.9576847553 
-1.569907188 10.61399651 -1.330993176 0.9576749802 
-2.53493166 10.54848099 -1.345796227 0.9572144747 
-3.07712388 10.6873579 -1.379628539 0.9561628103 
-4.157477856 10.73996067 -1.428633809 0.954641521 
-5.267565727 10.67654514 -1.476852894 0.9531469941 
-6.613061428 10.85104942 -1.576354384 0.9500704408 
-7.222807407 10.74484444 -1.606059074 0.9491539001 
-8.8492136 11.97696781 -1.847291827 0.9417433143 
-9.883662224 11.14864635 -1.848221898 0.9417149425 
-10.8413105 10.23163223 -1.849225402 0.9416842461 
-12.11732864 8.705291748 -1.850851655 0.9416344166 
-12.49516106 8.15935421 -1.85123682 0.9416226745 
-13.17156696 7.016840458 -1.851329565 0.941619873 
-13.47100353 6.424064636 -1.851370692 0.9416185617 
-15.58286381 4.262224197 -2.004061937 0.9369584918 
-15.75720692 3.564858437 -2.004085302 0.9369578362 
-15.90033436 2.860422373 -2.004104614 0.9369572401 
-16.01194 2.150302649 -2.004119158 0.9369568229 
-16.09184074 1.435910583 -2.004129648 0.9369564652 
-16.15585136 -7.324218586e-06 -2.004137039 0.9369562268 
-16.01192665 -2.150300264 -2.004114628 0.9369568825 
-15.9002924 -2.860414982 -2.004098415 0.9369574189 
-15.75715256 -3.564848661 -2.004077673 0.936958015 
-15.58278561 -4.262202263 -2.004052877 0.9369587898 
-15.37751675 -4.951147556 -2.004023552 0.9369596839 
-15.14178181 -5.630199909 -2.003989935 0.9369607568 
-14.58088303 -6.953422546 -2.003910542 0.936963141 
-14.25680637 -7.594975471 -2.003864765 0.9369645715 
-13.11807346 -9.424233437 -2.003704548 0.9369692206 
-12.31232166 -9.704035759 -1.944708705 0.9387671947 
-10.3849678 -10.71359634 -1.850923419 0.9416322708 
-9.39095211 -11.59333515 -1.850784302 0.9416365027 
-7.188901424 -13.07112026 -1.850529075 0.9416442513 
-6.600405216 -13.37810802 -1.850550532 0.9416436553 
-5.998798847 -13.65856171 -1.850561023 0.9416432977 
-5.385268211 -13.91189671 -1.850560904 0.9416432977 
-3.485590696 -14.50436211 -1.850495696 0.9416453242 
-2.83686018 -14.64471912 -1.850452662 0.9416466355 
-2.182543993 -14.75599289 -1.850399137 0.9416483045 
-0.1991064399 -14.91339111 -1.850176215 0.941655159 
1.78732419 -14.80471897 -1.849863648 0.9416646361 
2.443954945 -14.70957279 -1.849740386 0.9416684508 
3.095649242 -14.58525562 -1.849608064 0.9416724443 
4.379096508 -14.25013351 -1.849317312 0.941681385 
5.008227348 -14.0400362 -1.849159241 0.941686213 
6.830439091 -13.24480724 -1.848639011 0.9417021275 
9.065536499 -11.8234911 -1.848218203 0.9417150021 
9.582128525 -11.40808582 -1.848146796 0.9417172074 
10.07974052 -10.97012424 -1.848078132 0.9417193532 
11.6684761 -9.712641716 -1.883311987 0.9406417608 
12.75925732 -9.693178177 -1.98773253 0.9374557137 
14.36120129 -7.325419903 -1.999886751 0.9370855689 
14.95489216 -6.019773006 -1.999805689 0.9370878339 
15.20754814 -5.348481178 -1.999771237 0.9370890856 
15.43018532 -4.666630745 -1.999740958 0.9370900393 
16.11398315 -0.4303368926 -1.999650478 0.9370926619 
16.0279789 1.718232393 -1.999664664 0.9370923042 
15.93576145 2.429599524 -1.999678254 0.9370919466 
15.81205082 3.136105776 -1.999696255 0.9370914102 
15.6570797 3.836425781 -1.999718547 0.9370906949 
15.47113228 4.529170036 -1.999745131 0.9370898604 
15.00796795 5.886488914 -1.999810934 0.9370874763 
13.97507763 6.212180138 -1.897173405 0.9402182102 
13.32764626 6.649440765 -1.847645402 0.9417325258 
13.01895523 7.235900879 -1.847688913 0.9417312145 
12.68452168 7.808068752 -1.847736001 0.9417297244 
12.32492638 8.364780426 -1.847779155 0.9417284131 
11.52711391 9.422531128 -1.8468858 0.9417558312 
11.09405708 9.923757553 -1.846470237 0.9417684674 
10.6393795 10.40520954 -1.846076369 0.9417805076 
7.28270483 8.515398026 -1.389971733 0.9558415413 
8.279198647 10.60124207 -1.668608308 0.9472268224 
6.146279335 10.50133991 -1.509412646 0.9521390796 
5.505654335 10.44672108 -1.46487236 0.9535179734 
5.251748085 11.14001179 -1.527783275 0.9515708685 
5.601142406 13.39574432 -1.801158905 0.943156004 
4.388789177 13.84183788 -1.801327944 0.943150878 
1.856249928 10.58848381 -1.333534837 0.9575958848 
0.4120800793 10.28352261 -1.276695371 0.9593659639 
-0.5060937405 10.33174801 -1.283192992 0.9591635466 
-0.9956445098 10.62363529 -1.323640704 0.9579038024 
-1.478706002 10.65128613 -1.333967209 0.9575824738 
-2.44601059 10.5923605 -1.348564744 0.9571284056 
-4.023598671 10.67541504 -1.415227294 0.9550574422 
-4.616254807 10.76996517 -1.453569651 0.9538683295 
-5.137963772 10.65178299 -1.467042804 0.9534508586 
-6.466616154 10.82644272 -1.564355254 0.9504408836 
-7.697953701 10.61519241 -1.626623392 0.9485198855 
-9.271674156 11.65672207 -1.847654581 0.9417322874 
-9.783525467 11.23560524 -1.848125458 0.9417178631 
-10.27636242 10.79213524 -1.848614931 0.9417029023 
-11.63128185 9.336216927 -1.850185156 0.9416548014 
-12.77793884 7.709592342 -1.851275563 0.9416214824 
-13.10854912 7.13371563 -1.851320863 0.9416201711 
-13.41322708 6.543691158 -1.851362705 0.9416188002 
-14.29745579 6.203666687 -1.933366299 0.9391132593 
-15.09114456 5.764707088 -2.00399518 0.9369605184 
-15.33289051 5.087780476 -2.004028082 0.9369595051 
-15.54426193 4.40073967 -2.004056692 0.9369586706 
-15.72481155 3.70496583 -2.004081011 0.9369579554 
-15.87420845 3.001838207 -2.004101038 0.9369573593 
-15.99216747 2.292741537 -2.004116535 0.9369568229 
-16.07839966 1.579089284 -2.004127979 0.9369565845 
-15.92515373 -2.718840361 -2.004101992 0.9369572401 
-15.78827572 -3.424531221 -2.004082203 0.9369578958 
-15.62011909 -4.123410702 -2.004058123 0.9369586706 
-15.42101002 -4.814086914 -2.004029751 0.9369595051 
-15.19137859 -5.495224476 -2.003997087 0.9369603992 
-14.32392311 -7.467809677 -2.003874302 0.9369642138 
-13.60281467 -8.710927963 -2.003772736 0.9369672537 
-13.20144272 -9.307135582 -2.003716469 0.936969161 
-12.53521919 -9.700082779 -1.966199756 0.9381119013 
-11.46813488 -9.719909668 -1.864864111 0.9412058592 
-10.47995377 -10.62086678 -1.850936651 0.941631794 
-9.493788719 -11.50941181 -1.850798607 0.9416360855 
-8.972064972 -11.91986752 -1.850725651 0.9416382909 
-7.304936409 -13.0065546 -1.850523591 0.9416444898 
-6.120121956 -13.60462093 -1.850559831 0.9416433573 
-4.886733055 -14.0946703 -1.850552917 0.9416435957 
0.3318408132 -14.91044617 -1.850101471 0.9416573644 
0.9947216511 -14.8800993 -1.849999189 0.9416605234 
1.655561447 -14.82021713 -1.849887252 0.9416639209 
2.313022375 -14.7309494 -1.849765897 0.9416676164 
3.612602472 -14.46494865 -1.849496007 0.9416759014 
6.114506721 -13.59208679 -1.848855138 0.9416954517 
6.71241188 -13.30535412 -1.848675847 0.9417009354 
7.86720705 -12.65409184 -1.848383904 0.9417098761 
8.421942711 -12.29110336 -1.848307133 0.9417122602 
9.981816292 -11.05945778 -1.848091722 0.9417188764 
11.46377945 -9.716217995 -1.864152431 0.9412274957 
13.1773243 -9.290106773 -2.000049353 0.9370806813 
13.95014572 -8.081727982 -1.999943137 0.9370838404 
14.2955513 -7.452934265 -1.999895692 0.9370852113 
14.61256313 -6.809555531 -1.999852419 0.9370866418 
15.15938473 -5.483652115 -1.999777794 0.9370889068 
15.75376892 -3.416970253 -1.999697328 0.937091291 
15.99484348 -2.003232479 -1.99966538 0.9370923638 
16.11903191 0.1434008777 -1.999650359 0.9370928407 
16.04261208 1.575483322 -1.999662638 0.9370924234 
15.83925724 2.995151281 -1.999692321 0.9370917678 
15.69058037 3.696892023 -1.999713659 0.9370908141 
15.05958939 5.752709866 -1.999803543 0.9370880127 
14.30145454 6.205392838 -1.933902979 0.9390967488 
13.38621044 6.530570984 -1.847637177 0.9417328238 
12.01700687 8.79641819 -1.847412229 0.9417396188 
10.7320118 10.31051254 -1.846153378 0.9417782426 
10.08950138 10.59586143 -1.814994574 0.9427320957 
6.985312462 10.59400082 -1.5741539 0.9501383305 
5.606469631 10.41224575 -1.466975689 0.9534527659 
3.893476486 13.98983383 -1.801396847 0.9431487322 
1.958964825 10.61805439 -1.33940208 0.9574133754 
1.99715817 14.38565636 -1.801660895 0.9431406856 
0.9771191478 10.42611027 -1.299028277 0.9586701393 
0.5049120784 10.30615425 -1.280011535 0.9592626095 
-0.4139355421 10.33165264 -1.282671809 0.959179759 
-0.8896239996 10.49729443 -1.306860924 0.9584262371 
-1.399023414 10.78068829 -1.348561168 0.9571284652 
-2.334120989 10.53450203 -1.338501573 0.9574413896 
-2.893964767 10.76847172 -1.383229852 0.9560509324 
-3.366171837 10.61648178 -1.381592989 0.9561017752 
-3.910253763 10.66127205 -1.408682466 0.9552605748 
-5.034164906 10.67846012 -1.464488149 0.9535300136 
-6.376252174 10.89428329 -1.565895319 0.9503933787 
-7.057709694 10.91386223 -1.612288117 0.9489617944 
-7.588540077 10.66273785 -1.623494864 0.9486163259 
-9.167153358 11.7381773 -1.847562671 0.9417350292 
-9.682621956 11.32165623 -1.848029613 0.9417208433 
-10.17939949 10.8825531 -1.84851563 0.9417058825 
-11.11249447 9.94025898 -1.849539757 0.9416745901 
-11.54705048 9.438765526 -1.850076199 0.9416581988 
-11.95901871 8.91848278 -1.850627422 0.9416413307 
-12.34770489 8.380188942 -1.851192236 0.9416240454 
-13.04450607 7.250024319 -1.85131216 0.9416204095 
-13.35439205 6.662795067 -1.851354599 0.9416190386 
-15.03917408 5.898781776 -2.003988028 0.9369607568 
-15.97111797 2.434929132 -2.004113913 0.9369568825 
-16.06370354 1.722148418 -2.004126072 0.9369565845 
-16.15327835 0.2876025438 -2.004136801 0.9369562268 
-16.15006638 -0.4313085973 -2.004135609 0.9369562864 
-16.11483765 -1.14934814 -2.004130125 0.9369565248 
-16.04769325 -1.864987731 -2.004119873 0.9369567633 
-15.94873047 -2.57705307 -2.004105568 0.9369571805 
-15.81816101 -3.283864737 -2.004086494 0.9369577765 
-15.46331024 -4.676655293 -2.004035711 0.9369593263 
-15.2397213 -5.359865665 -2.004003763 0.9369602203 
-14.048769 -7.972765923 -2.00383544 0.9369654059 
-12.76308823 -9.69601059 -1.988325953 0.9374377131 
-11.6715765 -9.715241432 -1.883815289 0.9406264424 
-10.57415485 -10.52722645 -1.850949764 0.9416314363 
-7.988984108 -12.59861088 -1.850588202 0.9416424036 
-7.420385361 -12.940979 -1.850517631 0.9416446686 
-5.01200676 -14.05064201 -1.850555539 0.9416434765 
-3.097094774 -14.59206295 -1.850471139 0.9416460395 
-1.787792921 -14.80869865 -1.850361943 0.941649437 
-0.4645019472 -14.90779018 -1.850211263 0.9416539669 
0.862236321 -14.88853741 -1.850020409 0.9416598082 
2.83571291 -14.6384449 -1.849662185 0.941670835 
4.124931335 -14.32631111 -1.849378109 0.9416794181 
4.757656097 -14.12744808 -1.849223495 0.9416842461 
5.380971432 -13.90060234 -1.849060655 0.9416891932 
5.993373871 -13.6462326 -1.848890185 0.9416944385 
6.593891621 -13.36479664 -1.848712087 0.9416999221 
9.377655983 -11.57703304 -1.848175049 0.941716373 
10.36884212 -10.69687271 -1.848038316 0.9417204261 
11.27778339 -9.732299805 -1.847912908 0.9417242408 
12.30884743 -9.701295853 -1.94415915 0.9387839437 
13.09424782 -9.407040596 -2.000060797 0.9370802045 
15.11004829 -5.618327618 -1.99978447 0.937088728 
15.5491209 -4.252997875 -1.999724984 0.9370905757 
15.97638607 -2.145595551 -1.999667764 0.9370923042 
16.05594635 -1.432709932 -1.999657512 0.9370926023 
15.54920864 4.253015041 -1.999734044 0.9370902181 
15.11008739 5.618351936 -1.99979651 0.9370885491 
14.64051723 6.198325157 -1.972217321 0.9379284382 
11.6940918 9.216753006 -1.847058058 0.9417504668 
11.2698822 9.725642204 -1.846633911 0.9417634606 
10.82378387 10.21506596 -1.846231222 0.9417757988 
10.27071285 10.59580326 -1.830565453 0.9422553182 
9.426772118 10.63326359 -1.762781382 0.9443328977 
7.051523209 10.49014378 -1.567981482 0.9503288865 
5.838549614 13.29369354 -1.801125765 0.9431570172 
5.241718769 13.54083729 -1.801209092 0.9431545734 
4.634355545 13.76126957 -1.801293612 0.9431519508 
2.761977434 14.25771713 -1.801554561 0.9431439638 
1.075898409 10.47591972 -1.306373835 0.9584413171 
0.1381738186 10.35219955 -1.284303904 0.9591287971 
-0.7971581817 10.51743412 -1.30843246 0.9583772421 
-1.313627958 10.88106155 -1.359600186 0.9567852616 
-1.754628897 10.56043434 -1.327983975 0.9577686191 
-2.238935471 10.5488348 -1.337736011 0.9574652314 
-3.791186333 10.62820816 -1.399800062 0.9555363059 
-4.938315392 10.72143936 -1.464296818 0.9535359144 
-5.491948128 10.64946842 -1.486391902 0.9528515935 
-6.167443752 10.75589657 -1.538056731 0.9512534142 
-9.061903954 11.81867981 -1.847471595 0.9417378902 
-10.56254101 10.51566029 -1.848917007 0.9416936636 
-11.02297783 10.03814888 -1.849434257 0.9416778684 
-11.87848568 9.023983002 -1.850515962 0.9416447282 
-12.27183342 8.489287376 -1.851078272 0.941627562 
-12.97937489 7.365883827 -1.85130322 0.9416205883 
-13.29451847 6.781313419 -1.851346374 0.9416193366 
-15.23978996 5.359885216 -2.004015207 0.9369599223 
-15.46338558 4.676674843 -2.004045725 0.9369590282 
-15.6563282 3.984160185 -2.004071712 0.9369582534 
-15.81822491 3.283867121 -2.004093647 0.9369575381 
-15.94878101 2.576921225 -2.004111052 0.9369570613 
-16.04773331 1.864990234 -2.004123926 0.9369566441 
-16.15328026 -0.2876025438 -2.004136324 0.9369562268 
-15.97106171 -2.434916973 -2.004108667 0.9369571209 
-15.84678459 -3.143010139 -2.004090786 0.9369576573 
-15.69114017 -3.844716787 -2.004068136 0.936958313 
-15.2868824 -5.223947525 -2.004010677 0.9369601011 
-15.03906441 -5.898747444 -2.003975391 0.9369612336 
-14.76153564 -6.561706543 -2.003936052 0.9369623661 
-14.45469475 -7.211770058 -2.00389266 0.9369636774 
-14.1192112 -7.847497463 -2.003845453 0.9369651079 
-13.75584412 -8.467538834 -2.003794432 0.936966598 
-13.36514854 -9.070866585 -2.003739357 0.9369683266 
-12.94806576 -9.656076431 -2.003680944 0.9369701743 
-11.88063431 -9.711610794 -1.903535008 0.9400239587 
-11.121418 -9.948244095 -1.851026535 0.9416291118 
-10.66747761 -10.43280506 -1.850962996 0.9416310191 
-9.697289467 -11.33880615 -1.850827098 0.9416351914 
-8.100908279 -12.52707481 -1.850603938 0.9416419864 
-6.955209732 -13.19702339 -1.850539088 0.9416440129 
-5.13682127 -14.00551033 -1.850557685 0.9416434169 
-4.508617878 -14.22003174 -1.850542426 0.9416439533 
-1.259589791 -14.86250687 -1.850306511 0.9416511059 
-0.597114265 -14.90319538 -1.850228071 0.9416534901 
0.06635253876 -14.91428947 -1.850139737 0.9416562319 
1.391494155 -14.84771729 -1.849933147 0.9416624904 
2.705297709 -14.66334724 -1.849688649 0.9416699409 
3.354711771 -14.52740002 -1.849552751 0.9416741729 
3.99724102 -14.36268806 -1.849408031 0.9416785836 
4.631865025 -14.1694603 -1.849254966 0.9416832924 
8.202021599 -12.43923092 -1.84833765 0.9417113066 
11.19029713 -9.832404137 -1.847924948 0.9417251348 
13.01011181 -9.523322105 -2.000072241 0.9370796084 
13.42042923 -8.934860229 -2.000015736 0.937081635 
14.48915958 -7.068656921 -1.999869347 0.9370860457 
14.78896427 -6.416943073 -1.999828339 0.937087357 
15.30024338 -5.076952934 -1.99975872 0.9370894432 
15.5107317 -4.391186237 -1.999730229 0.9370903373 
15.95668888 -2.287656307 -1.999670386 0.937092185 
16.11906242 -0.1434179693 -1.999650121 0.9370927215 
16.10949707 0.5736889243 -1.999652267 0.9370927215 
15.99496078 2.003244638 -1.999669552 0.937091887 
15.89006805 2.712841749 -1.999685049 0.9370917082 
15.75381756 3.416977406 -1.999704719 0.9370911121 
15.58639145 4.11449194 -1.99972868 0.9370903969 
15.38818359 4.803757191 -1.999756932 0.9370895028 
13.50025845 6.29117918 -1.847620964 0.9417331815 
13.20729446 6.885715008 -1.84766233 0.9417319298 
12.54364681 8.032721519 -1.84775579 0.9417291284 
12.17288017 8.581943512 -1.847594142 0.9417341352 
11.77618122 9.112771034 -1.847145319 0.9417478442 
11.35657215 9.625329018 -1.846717 0.9417608976 
10.45164013 10.59205341 -1.845924973 0.9417851567 
7.033354282 8.526501656 -1.37112999 0.9564268589 
7.948393345 10.55982685 -1.639559746 0.9481212497 
6.672890663 10.73311996 -1.567786694 0.9503349066 
4.762880802 10.58764362 -1.440175772 0.9542835355 
3.518710852 14.08919621 -1.80144906 0.9431471229 
2.252768517 14.34756565 -1.801625371 0.9431417584 
1.175258756 10.52062702 -1.313202739 0.9582286477 
0.2296728492 10.31986809 -1.28049624 0.9592474699 
-0.229208976 10.30041695 -1.278086662 0.959322691 
-1.209042907 10.82336617 -1.350993156 0.9570528865 
-1.659731388 10.57068825 -1.327362299 0.9577879906 
-4.836525917 10.75114727 -1.462420106 0.9535940289 
-7.325453758 10.69076061 -1.607659578 0.9491046071 
-9.478672028 11.49097061 -1.847840548 0.941726625 
-10.46797848 10.60863304 -1.84881568 0.941696763 
-10.93252373 10.13534355 -1.849329472 0.941681087 
-11.79693794 9.128849983 -1.850405097 0.9416481853 
-12.19508266 8.597621918 -1.850964785 0.9416309595 
-12.56731415 8.047894478 -1.851246715 0.941622436 
-15.62019253 4.123422623 -2.004066944 0.9369583726 
-15.92518044 2.718840361 -2.004107714 0.9369571209 
-16.03047371 2.007692814 -2.004121542 0.9369567633 
-16.10398674 1.292683125 -2.004131079 0.9369564652 
-16.14560318 0.5749731064 -2.004136086 0.9369562268 
-16.13277245 -0.8623046875 -2.004132748 0.9369564056 
-15.72474861 -3.704958439 -2.004073143 0.9369581938 
-15.54416752 -4.400805473 -2.004047394 0.936958909 
-15.33280277 -5.087753773 -2.004017115 0.9369598627 
-15.0910368 -5.764740944 -2.003982782 0.936960876 
-14.18860817 -7.721486568 -2.003855228 0.9369648099 
-13.4454689 -8.951539993 -2.003750801 0.9369679689 
-10.28912067 -10.80553913 -1.850909948 0.9416326284 
-9.797951698 -11.25207043 -1.850841165 0.9416347742 
-9.287306786 -11.67637634 -1.850769758 0.9416369796 
-8.758313179 -12.07751465 -1.850695729 0.941639185 
-7.072333813 -13.13458252 -1.85053432 0.9416441917 
-6.481054306 -13.43635941 -1.850553393 0.9416435957 
-5.2612257 -13.95926476 -1.850559473 0.9416433573 
-4.635087967 -14.17935753 -1.85054636 0.9416437745 
-3.999648333 -14.37133026 -1.850522399 0.9416445494 
-3.35639143 -14.53476238 -1.850487947 0.941645503 
-2.706381798 -14.66932869 -1.850442767 0.941646874 
-1.391787052 -14.85082245 -1.850321054 0.9416506886 
-0.06635253876 -14.91444588 -1.850158215 0.9416556358 
5.132851601 -13.99466991 -1.849126697 0.9416872263 
5.749834061 -13.75122738 -1.848959208 0.9416922927 
6.355185509 -13.48059273 -1.848784089 0.9416976571 
7.526792049 -12.85993385 -1.848430991 0.9417083859 
8.639247894 -12.1390667 -1.848277092 0.9417130947 
10.17691422 -10.87988758 -1.848064661 0.9417197108 
11.1028614 -9.931650162 -1.847936988 0.9417235851 
11.87760735 -9.708964348 -1.903033733 0.9400391579 
12.92484856 -9.638745308 -2.000083923 0.9370796084 
14.09165955 -7.83203125 -1.999923706 0.9370844364 
14.42573166 -7.197311878 -1.999878049 0.9370859265 
14.73149872 -6.548273563 -1.999836206 0.9370866418 
15.25450134 -5.212880611 -1.9997648 0.937089324 
15.81200123 -3.136105776 -1.999689579 0.937091589 
15.93574142 -2.429545879 -1.999673128 0.9370920658 
16.08843803 -1.003561974 -1.999653459 0.9370927215 
16.11711884 -0.2869677544 -1.99965024 0.9370928407 
16.01203156 1.860832453 -1.999667168 0.9370923638 
15.91350555 2.571347713 -1.999681473 0.9370919466 
15.78355885 3.276667356 -1.999700427 0.937091291 
15.62233829 3.97564435 -1.999723434 0.9370905757 
15.43024826 4.666640759 -1.999750972 0.9370898008 
13.66202164 6.219235897 -1.862115145 0.9412898421 
13.26802731 6.767785549 -1.847653747 0.9417322278 
12.61462879 7.920656681 -1.847745895 0.9417294264 
12.24936485 8.47372818 -1.847686291 0.9417312741 
11.85744095 9.007975578 -1.847233534 0.9417451024 
11.44227505 9.524337769 -1.846800923 0.9417583346 
11.00485325 10.02162552 -1.846389771 0.9417709708 
10.54590321 10.49906254 -1.846000195 0.9417828321 
9.820575714 10.68814659 -1.800569415 0.9431741834 
7.152851582 8.515881538 -1.379601002 0.9561636448 
8.000029564 10.43392563 -1.630999923 0.9483850002 
6.73951149 10.62820053 -1.561159611 0.9505395889 
4.265449047 13.8804903 -1.801344991 0.9431503415 
3.644008636 14.05715561 -1.801431656 0.9431476593 
1.276123047 10.57027817 -1.320764184 0.957993269 
-1.095981479 10.6708374 -1.330683231 0.9576845765 
-1.569907188 10.61399651 -1.330993176 0.9576749802 
-2.046225548 10.56296349 -1.334697485 0.9575597048 
-3.077167988 10.68734837 -1.379628897 0.9561628103 
-5.267565727 10.67654514 -1.476852894 0.9531469941 
-5.948515415 10.81585026 -1.531241775 0.951464057 
-6.613061428 10.85104942 -1.576354384 0.9500704408 
-7.22275877 10.74486446 -1.606058598 0.9491539598 
-11.28897476 9.741962433 -1.849752426 0.9416681528 
-11.71457005 9.232913971 -1.850294948 0.9416514635 
-12.11736774 8.705244064 -1.850851655 0.9416344166 
-12.49516106 8.15935421 -1.85123682 0.9416226745 
-15.14192581 5.630168438 -2.004002094 0.9369602799 
-15.37759686 4.951176643 -2.004034042 0.9369593263 
-15.75719738 3.564929008 -2.004085302 0.9369577765 
-16.01193047 2.150371075 -2.004119158 0.9369568825 
-16.09184074 1.435910583 -2.004129648 0.9369564652 
-15.01375008 -0.6685400009 -2.003977537 0.9411557913 
-14.96909428 -1.335732341 -2.003970623 0.9411560297 
-14.89478207 -2.000280619 -2.003959656 0.9411562681 
-14.30469704 -4.60569334 -2.003874779 0.9411586523 
-13.83828831 -5.858666897 -2.003808498 0.9411605 
-13.563694 -6.468310356 -2.003769875 0.9411616921 
-13.26224136 -7.065122128 -2.003727198 0.9411629438 
-12.93453598 -7.647927284 -2.003680944 0.9411641955 
-12.58121777 -8.215529442 -2.003631353 0.941165626 
-12.20297337 -8.766811371 -2.003578186 0.9411671758 
-11.80059338 -9.300700188 -2.003521681 0.9411687851 
-11.23736286 -9.697519302 -1.979249835 0.9418603778 
-10.29329777 -9.714435577 -1.887288332 0.9444852471 
-9.66064167 -9.966357231 -1.850823522 0.94552809 
-9.207433701 -10.38587379 -1.850759983 0.9455298781 
-7.742297173 -11.51769733 -1.850555062 0.9455357194 
-5.579794884 -12.70447731 -1.850253224 0.9455443621 
-4.428344727 -13.14953804 -1.850171804 0.9455467463 
-3.838979483 -13.33337116 -1.850151658 0.9455472827 
-3.242011547 -13.49072456 -1.850121617 0.9455481768 
-2.638627768 -13.62131119 -1.850081444 0.9455492496 
-0.8020849228 -13.84995365 -1.849903107 0.9455544353 
-0.1851757765 -13.87134457 -1.849824429 0.9455566406 
0.432031244 -13.86519718 -1.849736571 0.945559144 
1.662470698 -13.77041245 -1.849533796 0.9455649853 
2.273237228 -13.6819849 -1.849419236 0.9455682039 
4.658422947 -13.05951405 -1.848878741 0.9455837011 
5.23439455 -12.83847427 -1.848749638 0.945587337 
6.89576149 -12.02604198 -1.848519564 0.9455939531 
7.423564434 -11.70692825 -1.848446608 0.9455961585 
8.914735794 -10.61351585 -1.848240495 0.9456019402 
9.822128296 -9.778500557 -1.848115206 0.9456055164 
11.52952099 -9.596867561 -2.000277996 0.9412607551 
12.703125 -7.976284027 -2.000116587 0.9412657022 
13.04506779 -7.403124809 -2.000069618 0.9412670732 
13.36121082 -6.815351486 -2.000026464 0.9412682056 
13.65088844 -6.214138031 -1.999986649 0.9412692785 
13.91353512 -5.600632191 -1.999950767 0.941270411 
14.53457928 -3.698774338 -1.999866605 0.9412727356 
14.91202641 1.598632812 -1.999819756 0.9412741065 
14.71114254 2.91771245 -1.999849081 0.941273272 
14.56693363 3.569277287 -1.999869823 0.9412727356 
14.3939209 4.213788986 -1.9998945 0.9412720203 
14.19243622 4.849985123 -1.999923229 0.9412711859 
13.96285152 5.476589203 -1.999955893 0.9412702918 
12.47249985 6.222773075 -1.858634949 0.9453045726 
11.46670914 7.782321453 -1.847905278 0.9456114769 
11.10946274 8.284914017 -1.847955465 0.945610106 
10.32507801 9.235905647 -1.847230077 0.9456308484 
6.845087528 10.58512211 -1.680873632 0.9504036307 
5.759902 12.21780205 -1.80113554 0.9469509125 
5.210913181 12.46245289 -1.801212072 0.9469487667 
4.651591778 12.68245602 -1.801290035 0.9469465613 
4.083007812 12.87739944 -1.801369429 0.9469442368 
3.506274223 13.04686737 -1.801449656 0.9469419122 
1.856249928 10.58848572 -1.433441758 0.957547009 
-0.5106005669 10.42361069 -1.391593575 0.9587605596 
-1.003422856 10.70685291 -1.433950782 0.9575322866 
-2.969960928 10.67142296 -1.477052093 0.9562841654 
-3.471774817 10.62068558 -1.489949107 0.9559109807 
-4.023169041 10.67430687 -1.521096349 0.9550103545 
-4.604775429 10.7432003 -1.558585167 0.9539273977 
-5.154394627 10.68586159 -1.581997395 0.9532517791 
-7.752058029 10.68978119 -1.760776997 0.9481082559 
-8.628640175 10.84824181 -1.848332644 0.9455993772 
-9.104838371 10.45616341 -1.848770976 0.9455868006 
-10.00315666 9.610357285 -1.849698782 0.9455602765 
-10.42351055 9.158283234 -1.850186467 0.945546329 
-12.73318863 6.211950779 -1.889172792 0.9444314241 
-14.03831291 5.36253643 -2.003848314 0.9411594272 
-14.26317596 4.732824802 -2.003878832 0.9411585331 
-14.45977306 4.093713284 -2.003905535 0.9411578178 
-14.95662785 1.468898892 -2.003971815 0.9411559701 
-15.02806091 0.1337499917 -2.003980398 0.9411556721 
-15.01911354 -0.5348974466 -2.003978491 0.9411557317 
-14.98041439 -1.20247066 -2.003972292 0.9411559105 
-14.91201591 -1.867658615 -2.00396204 0.9411562085 
-14.81406689 -2.529123545 -2.003947735 0.9411566257 
-14.68675232 -3.185580969 -2.003929377 0.9411571622 
-14.34515572 -4.47823 -2.003880501 0.9411585331 
-13.62079334 -6.347377777 -2.003777981 0.9411613941 
-13.32466793 -6.946847916 -2.003736019 0.9411626458 
-12.65389347 -8.103271484 -2.003641367 0.941165328 
-12.28057861 -8.657919884 -2.003588915 0.9411668181 
-11.88297558 -9.195368767 -2.003533125 0.9411683679 
-11.43735123 -9.693844795 -1.999198675 0.9412919283 
-10.47510719 -9.711235046 -1.904700398 0.9439876676 
-9.753911018 -9.885016441 -1.851764321 0.9455011487 
-9.299555779 -10.30358887 -1.850772858 0.9455295205 
-8.831684113 -10.70670605 -1.850707412 0.9455313683 
-6.377314091 -16.04891396 -2.30275631 0.9326832294 
-3.957504749 -13.29871273 -1.850156546 0.9455471635 
-3.361958027 -13.46136951 -1.850128293 0.945547998 
-2.759760618 -13.59733105 -1.850090265 0.9455490708 
0.9251952767 -13.84045124 -1.849659681 0.945561409 
2.151420832 -13.70184326 -1.84944272 0.9455675483 
3.360263586 -13.45457745 -1.849191666 0.9455747604 
4.542114258 -13.10067081 -1.848908663 0.9455828071 
6.788496017 -12.08703327 -1.848534465 0.9455935955 
8.335927963 -11.07466984 -1.848320365 0.9455996156 
8.819990158 -10.69250202 -1.848253608 0.9456015825 
9.734760284 -9.865607262 -1.848127246 0.9456051588 
10.47257805 -9.708901405 -1.904242039 0.9440007806 
11.86339855 -9.180216789 -2.000231981 0.941262424 
12.25968742 -8.643180847 -2.000177622 0.9412639737 
12.9787302 -7.518969536 -2.000078917 0.9412667751 
13.86319351 -5.724252701 -1.999957681 0.9412701726 
14.31665993 -4.469316483 -1.999896049 0.9412719011 
14.5011034 -3.827993155 -1.999871016 0.941272676 
14.65687943 -3.179101467 -1.999850154 0.941273272 
14.88120079 -1.863788962 -1.999820352 0.9412741661 
14.94932556 -1.199968219 -1.99981153 0.9412743449 
14.97601509 0.8004540801 -1.99980998 0.9412744045 
14.8457756 2.128366709 -1.999829531 0.9412737489 
14.43080044 4.085505486 -1.999889374 0.9412721992 
14.23499012 4.723459244 -1.999917269 0.9412713647 
14.0110054 5.352092266 -1.999948978 0.9412704706 
13.75942802 5.97016573 -1.999984741 0.9412689805 
12.7363472 6.213488579 -1.889641047 0.9444180131 
12.17178726 6.623932838 -1.847806096 0.9456143975 
11.86536121 7.158986568 -1.84784925 0.9456131458 
11.53544903 7.679924011 -1.847895622 0.9456117749 
11.18269062 8.185666084 -1.847945213 0.945610404 
10.80604458 8.673845291 -1.847696781 0.945617497 
9.988232613 9.596008301 -1.846934915 0.9456392527 
9.092455864 10.4419384 -1.846256375 0.9456587434 
8.428319931 10.59637928 -1.805418491 0.9468281865 
7.507460594 10.3525219 -1.705219269 0.9497035742 
6.957245827 10.55143261 -1.685287595 0.9502766132 
6.21916008 10.41215038 -1.61720407 0.9522365332 
5.603784084 10.40726757 -1.57612884 0.9534209967 
3.039804697 13.16386414 -1.801514745 0.9469400644 
1.857949138 13.38316154 -1.801679134 0.9469353557 
0.9847558141 10.50729752 -1.407219529 0.9583070874 
0.5025146604 10.25793171 -1.369471312 0.9594025612 
0.04733398184 10.6304903 -1.417525649 0.9580083489 
-0.4157031178 10.37506104 -1.384561896 0.9589645267 
-0.90375489 10.66415024 -1.427096963 0.9577308893 
-1.410673738 10.87081242 -1.461711049 0.95672822 
-2.34407711 10.57964325 -1.444943309 0.957213819 
-2.898991585 10.78720188 -1.489446044 0.9559255242 
-3.917419434 10.68079281 -1.516991258 0.9551289678 
-4.518188477 10.80574894 -1.561765432 0.9538356066 
-5.689526081 10.79559708 -1.627209187 0.9519484043 
-8.531362534 10.92411518 -1.84824717 0.9456017613 
-9.473080635 10.12746334 -1.849134207 0.9455764294 
-9.91672802 9.69849968 -1.849603057 0.9455629587 
-10.34103203 9.250200272 -1.850087643 0.9455491304 
-10.74519539 8.783390999 -1.85058701 0.9455348253 
-11.1280365 8.298768044 -1.85104692 0.9455217123 
-11.48648453 7.795755386 -1.851096153 0.9455202818 
-11.8221941 7.277257919 -1.851142287 0.9455189705 
-14.22044373 4.859545708 -2.00387311 0.9411587715 
-14.59643269 3.57650876 -2.003924131 0.941157341 
-15.02625656 0.267490238 -2.00398016 0.9411557317 
-15.02327633 -0.4011962712 -2.003979206 0.9411557913 
-14.99053955 -1.069108844 -2.003973722 0.9411558509 
-14.17651558 -4.985881329 -2.003856421 0.9411591887 
-13.38601494 -6.828012466 -2.003744602 0.9411624074 
-12.72558117 -7.990373135 -2.003651619 0.94116503 
-11.54788589 -9.61224556 -2.003486156 0.9411697984 
-10.66030502 -9.707943916 -1.922587872 0.9434767962 
-9.390947342 -10.22049332 -1.850785613 0.9455291629 
-8.44478035 -11.01392841 -1.850653291 0.945532918 
-7.946196079 -11.37824154 -1.850583553 0.9455349445 
-7.431889534 -11.72000694 -1.850511789 0.9455369711 
-6.902904987 -12.03852272 -1.85043788 0.9455391169 
-5.805136681 -12.60336876 -1.850284696 0.945543468 
-5.238534927 -12.84857655 -1.85020566 0.9455456734 
-4.075712681 -13.26300049 -1.850160956 0.9455469847 
-3.481640577 -13.43098354 -1.85013473 0.9455477595 
-1.662875891 -13.77386951 -1.849997044 0.9455516934 
-1.04849124 -13.83370304 -1.849931717 0.9455536008 
-0.432045877 -13.86609554 -1.849856973 0.9455557466 
0.1851855367 -13.87096405 -1.84977293 0.9455581307 
0.801992178 -13.84828377 -1.84967947 0.945560813 
1.417153239 -13.79814625 -1.849577188 0.9455637336 
2.029413939 -13.72061729 -1.849466085 0.9455668926 
2.637587786 -13.6158905 -1.84934628 0.9455702901 
3.836767435 -13.32566166 -1.849082351 0.9455779195 
4.425405025 -13.14078331 -1.848938346 0.9455819726 
5.005166054 -12.92984581 -1.848786831 0.9455863237 
5.575112343 -12.69382286 -1.84870255 0.9455887675 
6.133984089 -12.43274403 -1.848625183 0.9455909729 
7.214179516 -11.83739758 -1.848475575 0.9455952048 
7.733305454 -11.50431824 -1.848403692 0.9455972314 
8.237090111 -11.14849854 -1.848334193 0.9455992579 
8.724550247 -10.77066612 -1.848266721 0.9456011653 
10.29092789 -9.712145805 -1.886840582 0.9444978237 
12.18235779 -8.751984596 -2.000188351 0.9412636161 
12.55927753 -8.20119381 -2.000136375 0.9412651658 
12.91135216 -7.634211063 -2.000087976 0.9412665367 
13.23788071 -7.052153111 -2.000043392 0.9412677884 
13.53818798 -6.456159592 -2.000002146 0.9412690401 
14.05796814 -5.227160454 -1.999931097 0.9412708879 
14.46650314 -3.956889629 -1.999875784 0.9412725568 
14.98250008 -0.6671410799 -1.999807596 0.9412745833 
14.98252392 0.667124033 -1.999808908 0.9412745237 
12.23020458 6.515322208 -1.847797751 0.9456145763 
11.25504398 8.085773468 -1.847934961 0.945610702 
10.88328075 8.577710152 -1.847777367 0.945615232 
10.07363224 9.507097244 -1.847007513 0.9456372261 
7.908583641 10.70384979 -1.774617314 0.9477111697 
6.540122032 10.73141289 -1.675765991 0.950550437 
5.724433422 10.40834713 -1.583945751 0.9531955123 
5.431816101 12.36752415 -1.801181316 0.9469496012 
1.976962805 13.36598873 -1.801662683 0.9469357729 
1.079570293 10.5112133 -1.408976078 0.9582561851 
-0.3232421875 10.37442875 -1.384038329 0.9589797258 
-0.795063436 10.49031448 -1.402831554 0.9584344625 
-1.321904302 10.94966507 -1.470673084 0.956468761 
-1.762355924 10.60714054 -1.433786988 0.957537055 
-2.755781174 10.63089371 -1.464420557 0.9566497803 
-4.435656548 10.87940884 -1.566643 0.9536948204 
-4.927348614 10.69766426 -1.570509791 0.9535832405 
-5.621948242 10.90149498 -1.635565042 0.9517077208 
-6.962043285 10.97907543 -1.733522892 0.9488905072 
-7.509306431 10.75265026 -1.748835444 0.948450923 
-8.433412552 10.99909115 -1.848162293 0.9456042647 
-8.916433334 10.61554527 -1.848593593 0.945591867 
-9.829499245 9.785868645 -1.849508047 0.9455657601 
-10.66602993 8.878186226 -1.850485921 0.9455376863 
-11.05344009 8.397242546 -1.850996375 0.9455231428 
-11.41658688 7.897623062 -1.851086497 0.9455205798 
-11.75689411 7.3821311 -1.851133347 0.9455192685 
-12.07394218 6.852001667 -1.851176858 0.9455179572 
-12.36705494 6.30826664 -1.851217031 0.9455168247 
-14.71460152 3.054763079 -2.003939867 0.9411568642 
-14.83605671 2.397199631 -2.003956079 0.9411563873 
-14.92808819 1.734877944 -2.003968239 0.9411560297 
-15.023283 0.4012084901 -2.003979921 0.9411557317 
-15.02625656 -0.2675048709 -2.003979683 0.9411557317 
-14.99947453 -0.9356616139 -2.003975153 0.9411557913 
-14.94291973 -1.601955533 -2.00396657 0.9411560893 
-14.85678959 -2.265078068 -2.003953934 0.9411563873 
-14.74119568 -2.923691273 -2.003937244 0.9411569238 
-14.4226799 -4.222207069 -2.003891468 0.9411581755 
-13.73169136 -6.103993893 -2.003793478 0.9411610365 
-13.44630337 -6.708659649 -2.003753185 0.941162169 
-12.79624748 -7.876847744 -2.003661633 0.941164732 
-12.43286324 -8.438066483 -2.003610373 0.9411662221 
-9.020978928 -10.547966 -1.850733876 0.945530653 
-8.047194481 -11.30717278 -1.85059762 0.9455345273 
-6.469880104 -12.27616215 -1.85037744 0.9455408454 
-5.917138577 -12.551301 -1.850300193 0.9455429912 
-4.777817249 -13.02668667 -1.850179076 0.9455465078 
-4.193588734 -13.22623253 -1.85016489 0.9455469251 
-3.601039886 -13.39949417 -1.85014081 0.9455476403 
-1.785410166 -13.75859547 -1.850008965 0.9455513954 
-1.171577096 -13.82392311 -1.849945664 0.9455532432 
0.06175292656 -13.87219906 -1.849790454 0.9455575943 
0.6787256002 -13.85502625 -1.849698901 0.9455602169 
1.294311523 -13.81036377 -1.849598289 0.9455631375 
1.907250881 -13.73831272 -1.849488974 0.945566237 
3.120336771 -13.51263905 -1.849244595 0.9455732107 
4.308364391 -13.17985535 -1.848967671 0.9455811381 
5.461992264 -12.74304199 -1.848718166 0.9455882907 
6.023188114 -12.48695278 -1.848640442 0.9455904365 
6.572402 -12.20613956 -1.848564386 0.9455927014 
8.62840271 -10.84795666 -1.848279953 0.9456008077 
9.102124214 -10.45300961 -1.848214507 0.9456026554 
9.557758331 -10.03742123 -1.848151684 0.9456045032 
10.11240196 -9.715310097 -1.869898677 0.9449824095 
11.03851509 -9.698635101 -1.95934844 0.9424276948 
11.69824219 -9.390024185 -2.000254869 0.9412618279 
12.10407734 -8.860107422 -2.000198841 0.9412632585 
12.48585892 -8.312700272 -2.000146389 0.9412648082 
12.84295845 -7.748849869 -2.000097513 0.9412662387 
13.75921822 -5.97012949 -1.999971867 0.9412697554 
14.0109272 -5.352067947 -1.999937534 0.9412707686 
14.43074226 -4.085502625 -1.999880672 0.9412724376 
14.84570312 -2.128378868 -1.999824882 0.9412740469 
14.10393524 5.101845741 -1.999935865 0.9412708879 
13.86319828 5.724289417 -1.99996984 0.941270113 
13.30658627 6.200949669 -1.957554936 0.9424788952 
11.99079037 6.946596622 -1.847831488 0.9456136823 
11.67017555 7.473302841 -1.847876668 0.9456124306 
11.32647896 7.985270977 -1.847925067 0.9456110001 
10.95965767 8.480895996 -1.847858548 0.9456129074 
10.5692873 8.958087921 -1.847459793 0.9456242919 
10.15825176 9.417448044 -1.847080827 0.9456351399 
9.277528763 10.27915764 -1.846385121 0.9456550479 
7.93521452 10.5422821 -1.759468675 0.9481457472 
7.192426682 10.4966774 -1.696722627 0.9499477744 
5.334858418 10.57477283 -1.579356194 0.9533278942 
4.988373756 12.55343723 -1.801243067 0.9469478726 
4.425209999 12.76346874 -1.801321626 0.9469456077 
3.853237152 12.94825935 -1.801401377 0.9469433427 
3.273579121 13.10743618 -1.801482201 0.9469410181 
2.687363148 13.24069023 -1.80156374 0.9469386339 
2.095810413 13.34772873 -1.801646113 0.9469363093 
1.182895422 10.5891819 -1.42078197 0.9579138756 
0.6903271079 10.32692623 -1.380102992 0.9590938687 
0.2288330048 10.28287315 -1.371494889 0.9593437314 
-0.2307617068 10.37127399 -1.383288741 0.9590014815 
-0.6993457079 10.46232128 -1.39820075 0.9585688114 
-2.155087948 10.61808586 -1.444725275 0.9572200775 
-2.660551786 10.65292168 -1.464132905 0.9566580653 
-4.856567383 10.79582787 -1.578513503 0.9533523321 
-5.349518776 10.60384274 -1.583701849 0.9532026052 
-6.048120022 10.76882458 -1.646930695 0.951380372 
-8.82117939 10.69395161 -1.848505855 0.94559443 
-9.290410042 10.29344463 -1.848951221 0.9455816746 
-9.741522789 9.872459412 -1.849413514 0.9455684423 
-10.58598137 8.972270012 -1.850385547 0.9455406666 
-11.34578609 7.998858452 -1.851076722 0.9455208778 
-13.30313969 6.199345589 -1.957050085 0.9424933791 
-14.34521675 4.47824955 -2.003890038 0.9411582947 
-14.91204548 1.86764884 -2.003966093 0.9411560893 
-15.02804184 -0.1337402314 -2.00398016 0.9411557317 
-14.76665974 -2.792390108 -2.003940821 0.9411568046 
-14.03822708 -5.362499714 -2.00383687 0.9411597848 
-12.50752449 -8.327121735 -2.003621101 0.9411659837 
-12.12439919 -8.875029564 -2.003567219 0.9411674738 
-10.11475086 -9.717556 -1.87033093 0.9449700117 
-9.571513176 -10.05186462 -1.850811005 0.945528388 
-9.114545822 -10.46733093 -1.850746989 0.9455302954 
-8.639604568 -10.86204529 -1.85068047 0.9455321431 
-6.57892561 -12.21821976 -1.85039258 0.945540309 
-6.028595924 -12.49824715 -1.850315809 0.9455426931 
-4.311132908 -13.1884203 -1.850168586 0.9455468059 
-3.720146418 -13.36697006 -1.850146413 0.9455474615 
-1.907802701 -13.74226284 -1.850020528 0.9455510378 
-0.6787890196 -13.85643768 -1.849887967 0.9455548525 
-0.06175292656 -13.87231636 -1.849807501 0.9455571175 
0.5554150343 -13.86065674 -1.849717975 0.9455596805 
1.171372056 -13.82150078 -1.84961915 0.9455624819 
2.394882679 -13.66102219 -1.849395275 0.9455689788 
3.00001955 -13.54005623 -1.849270582 0.9455724955 
4.774384499 -13.01732635 -1.848848343 0.9455845952 
5.348383904 -12.79125977 -1.848733902 0.9455878735 
6.463583946 -12.26424789 -1.848579526 0.9455922246 
7.002441406 -11.96410084 -1.848504901 0.94559443 
7.527455807 -11.64030266 -1.848432302 0.9455964565 
8.531581879 -10.92439938 -1.848293424 0.9456003904 
9.944032669 -9.725187302 -1.854692459 0.9454173446 
12.77358341 -7.862878323 -2.000106812 0.9412658811 
13.1103611 -7.286698818 -2.000060797 0.9412673712 
13.42124939 -6.696161747 -2.00001812 0.9412685037 
13.9627924 -5.476557732 -1.999944091 0.9412705898 
14.3938427 -4.213769436 -1.999885559 0.9412723184 
14.96827126 -0.9336889386 -1.999809265 0.9412745237 
14.99498463 -0.2669116259 -1.999806166 0.9412745237 
14.68461418 3.048530102 -1.999852896 0.9412732124 
14.5346384 3.698779106 -1.999874353 0.9412725568 
14.35587883 4.341713905 -1.999899983 0.9412719011 
13.60730457 6.194289207 -1.993605494 0.9414512515 
11.73614216 7.369113445 -1.84786737 0.9456127286 
11.39705086 7.884088993 -1.847915053 0.9456112385 
10.24205017 9.327057838 -1.847154975 0.9456329942 
9.368974686 10.19655991 -1.846450925 0.9456531405 
8.136283875 10.6115284 -1.783042312 0.9474695921 
7.264506817 10.40211678 -1.691823721 0.9500887394 
6.79491663 10.71547127 -1.691903949 0.9500864148 
5.440097332 10.54886913 -1.58265543 0.9532327056 
5.650971413 12.26868153 -1.801150799 0.9469504952 
3.968276262 12.91335392 -1.801385283 0.9469437599 
3.390058517 13.07767296 -1.801465869 0.9469414353 
0.3202490211 10.27785397 -1.371152043 0.959353745 
-0.6037109494 10.4250145 -1.392440438 0.9587358832 
-2.044741154 10.55554867 -1.433684707 0.9575400352 
-3.05501461 10.61048603 -1.472321868 0.9564210176 
-4.744160175 10.80185795 -1.573158503 0.9535067677 
-5.965119362 10.84598637 -1.650546789 0.9512762427 
-6.630317211 10.8794117 -1.698880553 0.9498858452 
-7.241230488 10.77230072 -1.730790973 0.9489690065 
-9.197982788 10.37520599 -1.84886086 0.9455842376 
-9.652792931 9.958260536 -1.849319816 0.9455711246 
-10.08882332 9.52146244 -1.849794984 0.9455574751 
-10.50515556 9.065635681 -1.850285649 0.9455435276 
-11.27409172 8.09949398 -1.851066947 0.9455211163 
-11.62354183 7.590138912 -1.851115108 0.9455197453 
-11.94996357 7.065734863 -1.851159811 0.9455184937 
-13.01318836 6.205771446 -1.922442794 0.9434809685 
-13.83835888 5.858691216 -2.003821135 0.9411602616 
-14.08555603 5.237404823 -2.003854752 0.9411591291 
-14.49567127 3.964890003 -2.003910542 0.941157639 
-14.79099083 2.660856962 -2.003950119 0.9411565661 
-14.89481926 2.000278234 -2.003963947 0.9411561489 
-14.96913815 1.335729957 -2.003973484 0.9411558509 
-15.02864933 0 -2.003980398 0.9411557317 
-15.01375484 -0.6685253978 -2.003977537 0.9411557913 
-14.89478493 -2.000273466 -2.003959656 0.9411562681 
-14.79093742 -2.660881281 -2.003944397 0.941156745 
-14.08543873 -5.237377644 -2.003843546 0.9411595464 
-13.83829117 -5.858659744 -2.003808498 0.9411605 
-13.26226044 -7.065124512 -2.003727198 0.9411628842 
-12.58121586 -8.215544701 -2.003631353 0.9411655664 
-11.23736095 -9.697514534 -1.979248881 0.9418603778 
-9.660651207 -9.966357231 -1.850823522 0.9455280304 
-8.735993385 -10.7847805 -1.85069406 0.9455318451 
-8.247280121 -11.16232681 -1.850625753 0.9455337524 
-6.139662743 -12.44419861 -1.850331426 0.9455422163 
-5.579794884 -12.70447731 -1.850253224 0.9455443621 
-5.00894022 -12.93960667 -1.850181937 0.9455464482 
-3.241997004 -13.49072456 -1.850121617 0.9455481768 
-2.030029297 -13.72481632 -1.850031734 0.9455507398 
-1.417446256 -13.80109119 -1.849972129 0.9455524087 
-0.8020849228 -13.84995842 -1.849903107 0.9455544353 
0.4320117235 -13.86519718 -1.849736571 0.945559144 
1.662490249 -13.77040291 -1.849533796 0.9455649853 
2.879443407 -13.56641293 -1.849296093 0.9455717206 
3.479814291 -13.42394733 -1.849164844 0.9455754757 
4.073212624 -13.25485611 -1.849025488 0.9455795288 
4.658422947 -13.05951405 -1.848878741 0.9455837011 
5.800038815 -12.59238052 -1.848671317 0.9455896616 
6.895751953 -12.02605438 -1.848519564 0.9455939531 
7.936718464 -11.36467266 -1.848375678 0.9455980659 
8.914735794 -10.61351776 -1.848240495 0.9456019402 
11.52953053 -9.596850395 -2.000277996 0.9412607551 
13.65085888 -6.214142799 -1.999986649 0.9412693977 
13.91354465 -5.600615025 -1.999950767 0.941270411 
14.14867115 -4.976066589 -1.999918818 0.9412713647 
14.35581493 -4.341703892 -1.999890685 0.9412721395 
14.68455982 -3.048525333 -1.999846458 0.9412733912 
14.80552673 -2.392270565 -1.999830246 0.9412738085 
14.897192 -1.731289029 -1.999818206 0.9412741661 
14.95941353 -1.066889644 -1.999810338 0.9412743449 
14.99201584 -0.4003808498 -1.999806523 0.9412745237 
14.99497986 0.2669409215 -1.999806762 0.9412745833 
14.82625484 2.26041007 -1.999832392 0.9412737489 
14.71113205 2.917721987 -1.999849081 0.9412733316 
14.56693363 3.569277287 -1.999869823 0.9412727356 
13.9628315 5.476606369 -1.999955893 0.9412703514 
13.70565414 6.092411995 -1.999992132 0.9412692785 
11.46670914 7.782321453 -1.847905278 0.9456114769 
11.10946274 8.284914017 -1.847955465 0.945610106 
10.32508755 9.23588562 -1.847230077 0.945630908 
9.902035713 9.684144974 -1.846863389 0.9456413984 
7.405009747 10.40481186 -1.702912211 0.9497699142 
6.214589596 10.61800003 -1.640523791 0.9515648484 
5.759877682 12.21780777 -1.80113554 0.9469509125 
4.651576996 12.68245792 -1.801290035 0.9469465613 
2.92257309 13.19051933 -1.801531076 0.9469395876 
1.4048388 10.82574463 -1.455647588 0.9569036365 
0.8846386671 10.43812752 -1.396848083 0.9586079717 
-0.5105810165 10.42360115 -1.391591191 0.9587605596 
-1.003403306 10.70685005 -1.433950186 0.9575323462 
-1.963056564 10.64006329 -1.442732096 0.9572778344 
-2.969980478 10.67142582 -1.477053165 0.9562841058 
-4.604784966 10.74319077 -1.558586121 0.9539274573 
-5.84105444 10.84792709 -1.64286828 0.951497376 
-6.529785156 10.93220425 -1.697983503 0.949911654 
-7.159584999 10.85831261 -1.734306574 0.9488680959 
-9.104828835 10.45617199 -1.848770976 0.9455868006 
-11.20152092 8.199432373 -1.851056933 0.9455214143 
-11.55548286 7.693242073 -1.851105571 0.9455199838 
-12.1940918 6.636054516 -1.851193309 0.94551754 
-13.7856369 5.981589317 -2.003813982 0.9411603808 
-14.45977306 4.093713284 -2.003905535 0.9411578178 
-14.76669121 2.792407274 -2.003946781 0.9411566854 
-15.00720692 0.8021435142 -2.003978252 0.9411557913 
-15.01909924 -0.5349267721 -2.003978491 0.9411557913 
-14.91201115 -1.867683053 -2.00396204 0.9411562085 
-14.53036594 -3.835732222 -2.003906965 0.9411576986 
-14.34515095 -4.47823 -2.003880501 0.9411585331 
-14.1315403 -5.111845493 -2.003850222 0.9411593676 
-13.00214767 -7.532534122 -2.003690481 0.9411639571 
-11.88298321 -9.195363998 -2.003533125 0.9411683679 
-11.43738461 -9.693842888 -1.999201894 0.9412918091 
-10.47514629 -9.711235046 -1.904703975 0.9439875484 
-9.753871918 -9.885019302 -1.851760864 0.9455012679 
-8.831674576 -10.70671368 -1.850707412 0.9455313683 
-7.844543457 -11.44843769 -1.850569367 0.9455353022 
-7.327221394 -11.7855978 -1.850497127 0.9455373883 
-5.692695141 -12.65442085 -1.85026896 0.9455438852 
-4.545205116 -13.10963058 -1.850174665 0.945546627 
-2.759780169 -13.59733582 -1.850090265 0.9455490112 
-0.9253368974 -13.84239006 -1.849917531 0.9455539584 
-0.3086034954 -13.86926937 -1.849840999 0.9455561638 
0.9252148271 -13.84045124 -1.849659681 0.945561409 
1.539892554 -13.78483105 -1.849555612 0.9455643296 
2.151430607 -13.70183849 -1.84944272 0.9455676079 
3.360273361 -13.45457268 -1.849191666 0.9455747604 
3.955165863 -13.29079342 -1.849054098 0.9455786347 
4.542114258 -13.10067081 -1.848908663 0.9455828071 
5.119951248 -12.88467503 -1.848765492 0.9455868602 
6.244321346 -12.37755299 -1.848609924 0.9455914497 
6.788461685 -12.08703804 -1.848534465 0.9455936551 
7.319135666 -11.77263355 -1.848460913 0.9455956817 
7.835321903 -11.43495846 -1.848389745 0.9455976486 
8.819970131 -10.69252872 -1.848253608 0.9456015825 
9.286611557 -10.28919888 -1.848188996 0.9456033707 
11.43439388 -9.691306114 -1.9986763 0.9413067102 
11.86342716 -9.180216789 -2.000231981 0.9412623644 
13.86319351 -5.724252701 -1.999957681 0.9412701726 
14.10386658 -5.101833344 -1.999924898 0.9412711263 
14.5011034 -3.828005314 -1.999871016 0.941272676 
14.65687466 -3.179118633 -1.999850154 0.941273272 
14.78366184 -2.523964882 -1.999833226 0.9412737489 
14.88121033 -1.86376214 -1.999820352 0.9412741661 
14.97600555 0.8004687428 -1.99980998 0.9412744641 
14.73647404 2.786684513 -1.999845386 0.9412734509 
14.43080044 4.085505486 -1.999889374 0.9412721992 
14.0110054 5.352092266 -1.999948978 0.9412704706 
13.75937462 5.970148563 -1.999984741 0.9412692189 
12.73646927 6.213488579 -1.88964498 0.9444175959 
12.17180157 6.623918533 -1.847806096 0.9456143975 
11.86537075 7.158974648 -1.84784925 0.9456131458 
11.53544903 7.679897308 -1.847895622 0.9456118345 
10.80602551 8.673864365 -1.847696781 0.945617497 
8.428296089 10.59637451 -1.805416226 0.9468282461 
7.507460594 10.3525219 -1.705219269 0.9497035742 
5.603784084 10.40726757 -1.57612884 0.9534209967 
4.764233112 12.64044189 -1.801274419 0.9469470382 
4.197421551 12.84043407 -1.801353455 0.9469447136 
3.622236252 13.01501179 -1.801433563 0.9469424486 
3.039834023 13.16385937 -1.801514745 0.9469400644 
1.958964825 10.61798573 -1.43973875 0.9573645592 
1.857929587 13.38317871 -1.801679134 0.9469353557 
0.9847363234 10.50729752 -1.407220721 0.9583070874 
-0.4157177508 10.3750658 -1.384562254 0.9589645267 
-1.410673738 10.87081242 -1.461711049 0.95672822 
-2.34407711 10.57964325 -1.444943309 0.957213819 
-3.917402267 10.6807909 -1.516990304 0.9551289678 
-5.014638424 10.63705921 -1.568100095 0.9536527395 
-6.393320084 10.92344952 -1.687716842 0.9502068758 
-7.11346674 11.00008965 -1.746772766 0.94851017 
-8.531384468 10.92409801 -1.84824717 0.9456017613 
-9.01101017 10.53625679 -1.848681927 0.945589304 
-9.473085403 10.12745571 -1.849134207 0.9455764294 
-9.916730881 9.69849968 -1.849603057 0.9455629587 
-10.34103966 9.250184059 -1.850087643 0.9455491304 
