# .PCD v0.7 - Point Cloud Data file format
VERSION 0.7
FIELDS x y z intensities
SIZE 4 4 4 4
TYPE F F F F
COUNT 1 1 1 1
WIDTH 924
HEIGHT 1
VIEWPOINT 0 0 0 1 0 0 0
POINTS 924
DATA ascii
6.037797928 -4.935405254 -2.002948284 0.9683074951 
6.452812195 -4.379421234 -2.003029585 0.9683062434 
6.641347408 -4.088141918 -2.00306654 0.9683056474 
6.978642464 -3.481794357 -2.00313282 0.9683046341 
7.126738071 -3.167927265 -2.003162146 0.9683041573 
7.260683537 -2.847839355 -2.003188372 0.96830374 
7.380273342 -2.522043467 -2.003211975 0.9683033824 
7.650478363 -1.517375469 -2.003265619 0.9683026075 
7.710463524 -1.175527334 -2.003277779 0.9683023691 
7.755146503 -0.8314062357 -2.0032866 0.9683022499 
7.784492016 -0.4855785966 -2.003292799 0.9683021307 
7.798388481 -0.1388452053 -2.003295898 0.9683021307 
7.747456074 0.9003710747 -2.003287077 0.9683021903 
7.699697018 1.244140625 -2.003278255 0.9683023691 
7.558559418 1.92354238 -2.003251553 0.9683027267 
7.465434551 2.2578125 -2.003233671 0.9683030844 
7.235063553 2.912328959 -2.003189564 0.96830374 
6.413564205 4.436713696 -2.003031254 0.9683061838 
5.993608475 4.988986492 -2.002950191 0.9683074355 
5.526162148 5.501689434 -2.002859831 0.9683090448 
4.332284927 6.203402996 -1.943396449 0.9692350626 
3.301401377 6.401760101 -1.850027919 0.9706913233 
3.013300657 6.542072773 -1.84997201 0.9706921577 
2.419760704 6.783576488 -1.849856853 0.9706940055 
2.115498066 6.884291649 -1.849797726 0.9706948996 
1.180341721 7.103906155 -1.849616051 0.9706977606 
0.8631054759 7.149145126 -1.84955442 0.9706987143 
0.5442236066 7.180226803 -1.849492311 0.9706996679 
-0.0961669907 7.199689865 -1.849367738 0.9707016349 
-1.053417921 7.122126102 -1.849181533 0.9707044959 
-1.369179606 7.067973614 -1.849120021 0.9707054496 
-3.788332462 6.216037273 -1.869689584 0.970384419 
-4.903310299 6.053293228 -2.000831366 0.9683403969 
-5.897070408 5.08895731 -2.000637054 0.9683434963 
-6.704394341 3.964138031 -2.000478745 0.9683459401 
-6.873976707 3.66194582 -2.000445366 0.968346417 
-7.029965878 3.352460861 -2.00041461 0.9683469534 
-7.299911976 2.714301586 -2.000361681 0.9683477879 
-7.413322449 2.386901855 -2.00033927 0.9683481455 
-7.51210928 2.054711819 -2.000319481 0.9683484435 
-7.596003056 1.718532681 -2.000302792 0.9683486819 
-7.718588829 1.036594272 -2.000278234 0.9683490396 
-7.780129433 0.3463989198 -2.000265598 0.968349278 
-7.495270729 -0.3337475657 -2.000320196 0.9694182873 
-7.435983658 -0.998605907 -2.000331163 0.9694181085 
-7.317885399 -1.655580997 -2.000353336 0.9694177508 
-7.237043381 -1.9794873 -2.000368834 0.969417572 
-6.772533894 -3.229707003 -2.000457764 0.9694162011 
-6.458871841 -3.818989277 -2.000518084 0.9694152474 
-6.282697678 -4.102590084 -2.000552177 0.9694147706 
-6.094094276 -4.378083229 -2.000588655 0.9694142342 
-5.681078911 -4.902599812 -2.000668287 0.9694129825 
-4.459767818 -6.03605938 -2.000904799 0.9694094062 
-4.18694067 -6.228627682 -2.000957489 0.9694086909 
-2.395644426 -7.113815784 -2.001305103 0.9694035649 
-2.077011585 -7.213576317 -2.001367092 0.9694024324 
-1.754052639 -7.299050331 -2.001429796 0.969401598 
-1.427729487 -7.370087624 -2.001493216 0.9694005847 
-1.098364234 -7.426530361 -2.00155735 0.9693997502 
-0.7669872642 -7.468290806 -2.001621723 0.969398737 
-0.4339892566 -7.49524641 -2.001686335 0.9693977833 
0.8997656107 -7.454684734 -2.001945972 0.9693938494 
2.523105383 -7.073442459 -2.002262115 0.969389081 
2.835297823 -6.954418659 -2.002323151 0.9693882465 
3.142011642 -6.821599007 -2.002382994 0.9693872929 
4.022294998 -6.343256474 -2.002554655 0.9693847895 
4.300663948 -6.158203125 -2.002609015 0.9693838954 
4.831303596 -5.751874924 -2.002712727 0.9693821669 
5.323613167 -5.299973011 -2.002809048 0.969380796 
5.773857117 -4.806049824 -2.002897024 0.9693794847 
6.362538815 -3.995031595 -2.003012419 0.9693777561 
6.969760418 -2.805554152 -2.003131866 0.969375968 
7.191699028 -2.175031662 -2.003175497 0.9693753123 
7.356674671 -1.527248502 -2.003208399 0.9693747759 
7.463378906 -0.8673559427 -2.003229856 0.9693744779 
7.510966778 -0.2005834877 -2.00323987 0.9693743587 
7.512460709 0.1337353438 -2.003240347 0.969374299 
7.499062538 0.4677856266 -2.00323844 0.9693743587 
7.427763462 1.132436514 -2.003225088 0.9693745375 
7.210810184 2.110949755 -2.00318408 0.9693751335 
7.109687328 2.429594755 -2.00316453 0.9693754911 
6.86545372 3.051816225 -2.0031178 0.9693761468 
6.566855431 3.649833918 -2.003060341 0.9693769813 
6.21625948 4.218901157 -2.00299263 0.9693780541 
6.022324085 4.491174221 -2.002955198 0.9693785906 
5.816459656 4.754523754 -2.002915382 0.9693791866 
5.131606102 5.486025333 -2.00278306 0.9693810344 
4.623378754 5.920109749 -2.002684593 0.9693827629 
4.355292797 6.119762897 -2.002632618 0.9693835974 
4.008554459 6.19878912 -1.96813345 0.969902873 
3.63351059 6.208061218 -1.917807221 0.9706610441 
3.276171684 6.216232777 -1.873411775 0.9713302851 
2.676630735 6.40147686 -1.849906445 0.9716849923 
2.096953154 6.613637447 -1.849793792 0.9716866612 
1.800615191 6.70016098 -1.849736333 0.9716875553 
1.500751972 6.773412704 -1.84967804 0.9716883898 
1.19791007 6.833251953 -1.84961915 0.9716892838 
0.8927245736 6.879550457 -1.849559903 0.9716902375 
0.2777099609 6.931227684 -1.849440217 0.9716920257 
-0.03089355491 6.936493874 -1.849380136 0.9716929197 
-0.6472362876 6.905849457 -1.849260211 0.9716947079 
-0.9537597299 6.870004654 -1.849200606 0.9716956019 
-1.258378863 6.820566177 -1.849141359 0.9716964364 
-2.735625029 6.38235569 -1.851343989 0.9716632962 
-3.01233387 6.24575901 -1.848799348 0.9717022181 
-3.345905781 6.213889122 -1.881603956 0.9712067842 
-4.085244179 6.195820332 -1.978656292 0.9697445035 
-4.928297997 5.659655571 -2.00082612 0.9694104195 
-5.411557674 5.19898653 -2.000731707 0.9694119096 
-5.637272835 4.953012466 -2.000687361 0.969412744 
-5.851896763 4.697248459 -2.000645399 0.9694133401 
-6.054943562 4.432185173 -2.000605583 0.9694139361 
-6.24599123 4.158378601 -2.000568151 0.9694145322 
-6.424674988 3.876354933 -2.000533104 0.969415009 
-6.743566513 3.28988266 -2.0004704 0.9694159627 
-7.121181488 2.362958908 -2.000396013 0.9694170952 
-7.30287838 1.720654249 -2.000360012 0.9694176912 
-7.372140884 1.39408195 -2.000345945 0.96941787 
-7.426823616 1.06475091 -2.000334978 0.9694180489 
-7.466789246 0.7333276272 -2.000326872 0.9694182277 
-7.502399921 0.06677734107 -2.000319242 0.9694182873 
-7.497944355 -0.2670288086 -2.000319719 0.9694182873 
-7.254364967 -1.91499269 -2.000365496 0.969417572 
-7.162060261 -2.235822678 -2.000383139 0.9694173336 
-7.05559063 -2.552226543 -2.000403404 0.969416976 
-6.935153484 -2.863596201 -2.000426531 0.969416678 
-6.800988674 -3.169296741 -2.00045228 0.9694162607 
-6.65336895 -3.468740225 -2.000480652 0.9694158435 
-6.492575645 -3.761332989 -2.000511646 0.9694154263 
-6.132790565 -4.323664665 -2.000581264 0.9694143534 
-5.724460125 -4.851820946 -2.000659943 0.9694131613 
-4.513305664 -5.996100903 -2.000894308 0.9694095254 
-4.242189884 -6.191086292 -2.000946999 0.9694088697 
-3.079155207 -6.845114708 -2.001172543 0.9694058299 
-2.771943331 -6.975578308 -2.001232147 0.9694043994 
-2.458896399 -7.092177391 -2.001292944 0.9694036245 
-2.141108274 -7.194763184 -2.001354694 0.9694026113 
-1.164458036 -7.416413307 -2.001544476 0.969399929 
-0.5007665753 -7.491056919 -2.00167346 0.9693979025 
-0.1672851592 -7.506176472 -2.00173831 0.9693968296 
0.5005468726 -7.491811275 -2.001868248 0.9693949223 
0.8333495855 -7.46235323 -2.001932859 0.9693940282 
1.493691325 -7.359177113 -2.002061605 0.9693920612 
1.819438457 -7.285700321 -2.002125025 0.9693911672 
2.77323246 -6.979333401 -2.002310991 0.969388485 
3.677890539 -6.548676491 -2.002487421 0.9693857431 
3.965634584 -6.378769398 -2.002543688 0.9693849683 
4.779765606 -5.79462862 -2.002702475 0.9693825841 
5.032968521 -5.576406002 -2.002752066 0.9693817496 
5.941347599 -4.597582817 -2.002929688 0.9693790078 
6.140107155 -4.328820705 -2.002968788 0.9693784118 
6.326718807 -4.051476955 -2.003005266 0.9693778157 
6.500771523 -3.766098499 -2.003039598 0.9693773389 
6.661987305 -3.473237276 -2.003071308 0.969376862 
6.809989929 -3.173493624 -2.003100395 0.9693764448 
6.944511414 -2.86746335 -2.00312686 0.9693760276 
7.406411171 -1.264445782 -2.003218412 0.9693746567 
7.455356121 -0.9337426424 -2.003228188 0.9693745375 
7.489541054 -0.6011791825 -2.00323534 0.9693744183 
7.508886337 -0.2674194276 -2.003239393 0.9693743587 
7.502929688 0.401032716 -2.003238916 0.9693743587 
7.382724285 1.396076679 -2.003216743 0.9693746567 
7.313261509 1.723103046 -2.00320363 0.9693748951 
7.018651962 2.681071758 -2.003147125 0.9693757296 
6.752411842 3.294196606 -2.003095865 0.9693765044 
6.59909153 3.591257334 -2.00306654 0.9693769217 
6.432714462 3.881193876 -2.003034353 0.9693773985 
6.253573895 4.163434982 -2.002999783 0.9693779349 
6.06207037 4.437411785 -2.002962828 0.9693784714 
5.643466473 4.958444595 -2.002882004 0.9693796635 
5.417705059 5.204465389 -2.002838373 0.9693789482 
5.180156231 5.440170765 -2.002792358 0.969381094 
4.932939529 5.665078163 -2.002744436 0.9693818092 
4.409609318 6.080788612 -2.002643347 0.9693834782 
3.707021475 6.206293583 -1.927378178 0.9705168009 
2.735859394 6.383566856 -1.85169363 0.9716584086 
2.155761719 6.594758034 -1.849805236 0.9716864824 
1.25867188 6.8223629 -1.849630952 0.9716891646 
0.953935504 6.87138176 -1.849571824 0.9716899991 
0.03086913936 6.936545372 -1.849392176 0.9716926813 
-0.892578125 6.87826395 -1.849212408 0.9716954231 
-1.500273347 6.771279335 -1.849094152 0.9716972113 
-2.387949228 6.510736942 -1.84892118 0.9716998339 
-2.675146341 6.397871017 -1.848865151 0.9717006683 
-2.956972599 6.272350788 -1.848810196 0.9717015624 
-3.275654316 6.215448856 -1.873176098 0.9713340402 
-4.007912636 6.197836876 -1.967831016 0.9699074626 
-4.351691723 6.114580154 -2.000938654 0.9694089293 
-4.619333267 5.914802074 -2.00088644 0.9694095254 
-4.877692699 5.703315258 -2.000835896 0.9694104791 
-5.364663124 5.246970177 -2.000740767 0.9694129229 
-5.809889793 4.74915266 -2.000653744 0.9694132209 
-6.208754539 4.213820934 -2.000575304 0.969414413 
-6.558478832 3.645180464 -2.000506639 0.9694154859 
-6.985012054 2.739709377 -2.000422716 0.969416678 
-7.287294865 1.785578609 -2.000362873 0.9694176316 
-7.417050838 1.130813003 -2.000337124 0.9694180489 
-7.459982872 0.7997460961 -2.000328302 0.9694181681 
-7.483705997 -0.5337206721 -2.000322342 0.9694182277 
-7.406693935 -1.196765065 -2.000336647 0.9694180489 
-7.346169472 -1.525065899 -2.000348091 0.96941787 
-6.960336685 -2.801750422 -2.000421762 0.9694167972 
-6.828906059 -3.108642578 -2.000447035 0.9694163799 
-5.975104809 -4.539262772 -2.000611544 0.9694139361 
-5.548246861 -5.05257082 -2.000694036 0.9694126248 
-4.297101974 -6.153051853 -2.00093627 0.969408989 
-3.733391047 -6.510981083 -2.001045704 0.9694073796 
-3.440158606 -6.670798302 -2.001102448 0.9694065452 
-3.140073061 -6.817426682 -2.001160622 0.9694057107 
-2.205117226 -7.175397873 -2.001342058 0.9694026709 
-1.558671832 -7.343420029 -2.001467705 0.9694009423 
-1.230517507 -7.405725002 -2.001531363 0.9693999887 
-0.567617178 -7.486269474 -2.001660347 0.9693979621 
0.7669970393 -7.469423771 -2.001920223 0.969394207 
2.077773333 -7.216486454 -2.002175331 0.9693903923 
2.396543026 -7.11716795 -2.002237558 0.9693896174 
2.71124506 -7.003669262 -2.002298832 0.9693884254 
3.323051691 -6.735407352 -2.00241828 0.9693867564 
4.463613033 -6.041288853 -2.002640724 0.969383359 
4.72803688 -5.836906433 -2.002692461 0.9693826437 
5.687348366 -4.908017635 -2.002880096 0.9693797827 
5.900175571 -4.650251389 -2.00292182 0.969379127 
6.466982365 -3.823791504 -2.003032923 0.9693774581 
6.630781174 -3.532385111 -2.003065109 0.9693769813 
6.918701172 -2.929133177 -2.003121853 0.9693760872 
7.151816368 -2.302675724 -2.003167868 0.9693754315 
7.24724102 -1.982267976 -2.003186703 0.9693751335 
7.446743011 -1.000058532 -2.003226519 0.9693745375 
7.483891487 -0.6678026915 -2.003234148 0.9693744183 
7.506210804 -0.3342334032 -2.003238678 0.969374299 
7.483906269 0.6678100228 -2.003235579 0.9693743587 
7.446762562 1.000056148 -2.003228664 0.9693744779 
7.328315258 1.657949209 -2.003206253 0.9693748355 
7.247128963 1.982270479 -2.003190756 0.9693755507 
7.042260647 2.618518114 -2.003151655 0.9693756104 
6.918715477 2.929152727 -2.003128052 0.9693760276 
6.467006683 3.823811054 -2.003041029 0.9693773389 
5.900205135 4.650285721 -2.002931595 0.9693789482 
5.687382698 4.908044338 -2.002890587 0.9693796039 
5.228437424 5.393877029 -2.002801657 0.9693808556 
4.983163834 5.620981216 -2.002754211 0.96938169 
4.463623047 6.041332722 -2.002653599 0.9693832397 
3.781240225 6.20448494 -1.937190771 0.9703689814 
3.417124033 6.213090897 -1.890496016 0.9710727334 
2.790185452 6.352897644 -1.849928379 0.9716846347 
2.504736185 6.470534325 -1.849872947 0.9716854692 
2.214355469 6.57534647 -1.84981668 0.9716863632 
1.6210742 6.74571991 -1.849701285 0.9716880322 
1.015029311 6.862663269 -1.849583745 0.9716898799 
0.7087304592 6.900800705 -1.849524021 0.971690774 
0.4010742009 6.925275803 -1.849464178 0.9716916084 
0.09261718392 6.936035156 -1.849404216 0.9716925621 
-0.2160449177 6.933063984 -1.849344134 0.9716934562 
-0.5242236257 6.916367054 -1.849284172 0.9716943502 
-0.8313476443 6.885978699 -1.849224448 0.9716952443 
-1.136772394 6.841962814 -1.849164963 0.9716961384 
-1.439980388 6.784406662 -1.849105954 0.9716970325 
-2.0371387 6.629150391 -1.848989487 0.9716988206 
-2.901162148 6.298461914 -1.848821044 0.9717012048 
-3.206079006 6.216984749 -1.864964962 0.9714578986 
-3.931430578 6.199801922 -1.957269073 0.9700664878 
-4.297126293 6.153095722 -2.000949383 0.9694088101 
-4.826760292 5.746532917 -2.000845909 0.9694103003 
-5.318132401 5.294538498 -2.000749826 0.9694117904 
-5.975139141 4.539284706 -2.00062108 0.9694137573 
-6.525800705 3.703417778 -2.000513315 0.9694153666 
-6.828920841 3.108659506 -2.000453711 0.9694162607 
-6.960368633 2.80177474 -2.000427723 0.9694166183 
-7.078029633 2.489333391 -2.000404358 0.969416976 
-7.181706429 2.171992064 -2.000384092 0.9694172144 
-7.271127701 1.850363731 -2.000366211 0.969417572 
-7.406713486 1.196767569 -2.00033927 0.9694179296 
-7.452573299 0.8661132455 -2.000329733 0.9694181085 
-7.483695984 0.5337328911 -2.000323534 0.9694182277 
-7.500029087 0.200302735 -2.000319958 0.9694182277 
-7.501508713 -0.1335400343 -2.000319242 0.9694182873 
-7.488149166 -0.4671020508 -2.000321388 0.9694182277 
-7.459980488 -0.7997412086 -2.000326633 0.9694181681 
-7.417045593 -1.130800724 -2.000334501 0.9694180489 
-7.359443188 -1.45962882 -2.000345469 0.96941787 
-7.099863052 -2.426228046 -2.00039506 0.9694171548 
-6.856279373 -3.047736645 -2.00044179 0.9694164395 
-6.558449745 -3.64516592 -2.00049901 0.9694156051 
-6.389921665 -3.933364153 -2.000531435 0.9694150686 
-6.015246391 -4.485881329 -2.000603676 0.9694140553 
-4.877646446 -5.703280926 -2.000823736 0.9694106579 
-4.351657391 -6.11453867 -2.000925779 0.9694091678 
-4.07549572 -6.302240849 -2.000979185 0.9694082737 
-3.499304056 -6.639867783 -2.001091003 0.9694069028 
-3.200634718 -6.789169788 -2.001148939 0.9694058299 
-2.584804535 -7.047211647 -2.001268387 0.969403863 
-1.948344707 -7.249496937 -2.001392126 0.9694020152 
-1.623984337 -7.329218388 -2.001455069 0.9694010615 
-1.296508789 -7.394438267 -2.001518726 0.9694000483 
-0.9662451148 -7.445019245 -2.001582861 0.9693991542 
0.7002733946 -7.475922585 -2.00190711 0.9693943858 
1.032324195 -7.437580585 -2.001971722 0.9693934321 
2.013310432 -7.234660625 -2.002162933 0.9693906307 
2.333388567 -7.138136864 -2.002225161 0.9693896174 
2.648583889 -7.02750206 -2.002286673 0.969388783 
3.262910128 -6.764679909 -2.002406359 0.9693869948 
3.85166502 -6.448242188 -2.002521276 0.9693849683 
4.675898552 -5.878725529 -2.002682209 0.9693827033 
5.180175781 -5.440122128 -2.002780914 0.9693812132 
5.417158127 -5.204428673 -2.002827168 0.9693805575 
5.643427372 -4.958413124 -2.002871513 0.9693799019 
6.253549576 -4.163413048 -2.002990961 0.9693780541 
6.432670593 -3.881186485 -2.003026247 0.9693775177 
6.59907198 -3.591235161 -2.00305891 0.9693770409 
6.752392292 -3.294174671 -2.003088951 0.9693766236 
7.018632889 -2.681066751 -2.003141403 0.9693757892 
7.131025314 -2.366232872 -2.003163815 0.9693754911 
7.313241959 -1.723098159 -2.003199816 0.9693749547 
7.382704735 -1.396081567 -2.003213644 0.9693747163 
7.437543869 -1.066296339 -2.003224611 0.9693745375 
7.502929688 -0.4010156095 -2.003238201 0.9693743587 
7.513349533 -0.06686279178 -2.003240347 0.9693743587 
7.508886337 0.2674243152 -2.003240108 0.9693743587 
7.489550591 0.6011767387 -2.003236532 0.9693743587 
7.455370903 0.93374753 -2.003230333 0.9693744779 
7.406405926 1.264457941 -2.003221035 0.9693746567 
7.342792988 1.592661142 -2.003209114 0.9693747759 
7.264599323 1.917714834 -2.003194332 0.9693750739 
7.172070026 2.238952637 -2.003176451 0.9693752527 
7.065292835 2.555749416 -2.003156185 0.9693755507 
6.662011623 3.473254204 -2.003078461 0.9693767428 
6.326733112 4.051494122 -2.003014088 0.9693777561 
5.276259422 5.347155571 -2.002811193 0.9693807364 
4.779853344 5.794667721 -2.002714872 0.9693822861 
4.517251015 6.001403809 -2.002664089 0.9693830013 
2.846640587 6.327856541 -1.849939346 0.9716844559 
1.978886724 6.649828911 -1.849770904 0.9716870189 
1.681074142 6.731061935 -1.849713087 0.9716879129 
1.076088786 6.853403091 -1.849595428 0.9716896415 
0.770136714 6.894262314 -1.849535942 0.9716905951 
0.4626513422 6.921474457 -1.849476218 0.9716914892 
0.1543310583 6.934980392 -1.849416256 0.9716923833 
-0.4626415968 6.920805454 -1.849296212 0.9716941714 
-0.7700097561 6.893149376 -1.849236369 0.9716950655 
-1.680507779 6.728683949 -1.849059105 0.9716977477 
-2.271728516 6.552289963 -1.848943949 0.9716994762 
-2.560878754 6.44454813 -1.848887444 0.9717003107 
-4.242224216 6.191127777 -2.000960112 0.9694086313 
-4.51330328 5.996135235 -2.000907183 0.9694094062 
-5.270795822 5.341677189 -2.000759125 0.9694117308 
-5.503112793 5.101811409 -2.000713587 0.9694123268 
-5.93453598 4.592302322 -2.000629187 0.9694135785 
-6.318972111 4.046523571 -2.000553846 0.969414711 
-6.492607117 3.761359692 -2.000519753 0.9694152474 
-7.05561018 2.552246094 -2.000408888 0.9694169164 
-7.254379749 1.914999962 -2.000369549 0.9694175124 
-7.444580078 0.9323949814 -2.00033164 0.9694181085 
-7.478652 0.6003124714 -2.000324488 0.9694182277 
-7.502392292 -0.06676513702 -2.000319242 0.9694182873 
-7.492006779 -0.4004321098 -2.000320911 0.9694182873 
-7.46679163 -0.7333251834 -2.000325441 0.9694182277 
-7.372126102 -1.394072175 -2.000343084 0.9694179296 
-7.009072304 -2.677414417 -2.000412464 0.9694169164 
-6.245959282 -4.158361912 -2.000559092 0.9694146514 
-6.054904461 -4.432162762 -2.000596046 0.969414115 
-5.851867676 -4.697214127 -2.000635386 0.9694135189 
-4.40587616 -6.075537205 -2.000915289 0.9694093466 
-3.558285952 -6.608427525 -2.001079559 0.9694069624 
-3.260961771 -6.760390282 -2.001137257 0.9694058895 
-2.647441387 -7.023900986 -2.001256466 0.9694039226 
-2.332382679 -7.134916782 -2.001317501 0.9694031477 
-2.012656212 -7.231816292 -2.00137949 0.9694023728 
-1.689130783 -7.314433575 -2.001442432 0.9694012403 
-1.032407165 -7.436074257 -2.001569986 0.9693993926 
-0.7006640434 -7.474882603 -2.001634598 0.9693983793 
-0.3674218655 -7.498884201 -2.001699209 0.9693974853 
1.296372056 -7.396310806 -2.00202322 0.9693927169 
1.624199152 -7.331542969 -2.002087116 0.9693917632 
1.948774338 -7.252253056 -2.002150297 0.9693908691 
2.269545794 -7.158600807 -2.002212763 0.9693899155 
2.586171865 -7.05073452 -2.002274513 0.9693887234 
3.202529192 -6.793417931 -2.002394676 0.9693871737 
3.50173831 -6.644411564 -2.00245285 0.96938622 
4.078593731 -6.307238579 -2.002565622 0.9693846703 
4.355302811 -6.119723797 -2.002619505 0.9693837166 
4.623369217 -5.920075417 -2.002671957 0.9693828821 
5.599052429 -5.008418083 -2.002862692 0.9693800211 
6.022284985 -4.491145134 -2.002945662 0.9693787694 
6.566825867 -3.649819136 -2.003052473 0.9693771601 
6.994487286 -2.743410587 -2.003136635 0.9693758488 
7.210785866 -2.11093998 -2.003179312 0.9693752527 
7.297616959 -1.788102984 -2.003196716 0.9693749547 
7.369980335 -1.461721182 -2.00321126 0.9693747759 
7.427743912 -1.132438898 -2.003222704 0.9693745971 
7.4708004 -0.8009008765 -2.003231525 0.9693744779 
7.510976315 0.2005883753 -2.003240347 0.969374299 
7.191718578 2.175026894 -2.003180265 0.9693751931 
6.83800745 3.112785578 -2.003112555 0.9693762064 
6.178447247 4.274045467 -2.002985239 0.9693781137 
5.323901176 5.300012112 -2.002820253 0.9693799615 
5.082499981 5.531457424 -2.002773523 0.9693812728 
4.831308365 5.751923561 -2.002724886 0.969381988 
3.560624838 6.209777832 -1.908472896 0.9708018899 
3.206542969 6.217749119 -1.865191579 0.9714543223 
2.61954093 6.425009727 -1.849895239 0.9716851115 
2.331064463 6.534977913 -1.84983933 0.9716860056 
1.137060523 6.843603134 -1.849607348 0.9716894627 
0.5242577791 6.917131424 -1.849488139 0.9716912508 
0.2160205096 6.933378696 -1.849428177 0.9716922045 
-0.09260741621 6.935900688 -1.849368215 0.9716930985 
-0.7086425424 6.899777889 -1.84924829 0.9716948867 
-1.319023371 6.809045315 -1.849129438 0.9716966748 
-1.620566368 6.743410587 -1.849070668 0.9716975689 
-1.918857336 6.664445877 -1.849012613 0.971698463 
-2.213344574 6.572285175 -1.848955154 0.9716992974 
-2.503427744 6.467123985 -1.848898768 0.9717001915 
-2.788554668 6.349167347 -1.848842978 0.971701026 
-3.780705452 6.203588963 -1.936909795 0.9703732133 
-4.163456917 6.193757057 -1.989750266 0.9695774317 
-4.459787369 6.036091328 -2.000917673 0.969409287 
-4.723769188 5.831582069 -2.000865936 0.9694100022 
-4.978369236 5.615539551 -2.000816345 0.9694107771 
-5.457507133 5.150595665 -2.000722647 0.9694122672 
-6.28273201 4.10260725 -2.00056076 0.9694146514 
-6.45890379 3.818999052 -2.000526428 0.9694151282 
-7.032629013 2.614936352 -2.000413418 0.9694168568 
-7.141906738 2.299489737 -2.000391722 0.9694172144 
-7.237055302 1.979499459 -2.000373125 0.9694175124 
-7.317902565 1.655578613 -2.000356913 0.9694176912 
-7.435993671 0.9986107945 -2.000333309 0.9694180489 
-7.473027229 0.6668432355 -2.00032568 0.9694181681 
-7.502699852 4.882812391e-06 -2.000319242 0.9694182873 
-7.237043381 -1.979492188 -2.000368834 0.969417572 
-7.141891956 -2.29948473 -2.000386953 0.969417274 
-6.909409046 -2.925202608 -2.000431538 0.9694166183 
-6.772539139 -3.229704618 -2.000457764 0.9694162011 
-6.622258186 -3.52782464 -2.000486612 0.9694157839 
-6.458862305 -3.818996429 -2.000518084 0.969415307 
-6.094086647 -4.378088474 -2.000588655 0.9694142342 
-5.893417835 -4.644931316 -2.000627279 0.9694136381 
-5.681078911 -4.902599812 -2.000668287 0.9694129825 
-5.457495213 -5.150566101 -2.000711679 0.9694123864 
-5.223078728 -5.388356686 -2.000756979 0.9694117308 
-4.459736347 -6.036054611 -2.000904799 0.9694095254 
-4.186938286 -6.228630066 -2.000957489 0.9694086909 
-3.616970062 -6.576474667 -2.001068115 0.969407022 
-3.32094717 -6.731054306 -2.001125574 0.9694061279 
-1.427714825 -7.370092392 -2.001493216 0.9694005847 
-0.7669872642 -7.468290806 -2.001621723 0.969398737 
-0.4339892566 -7.49524641 -2.001686335 0.9693977833 
-0.1003906205 -7.507414341 -2.001751423 0.9693966508 
0.2334081978 -7.504704475 -2.001816273 0.9693956375 
1.230498075 -7.407506943 -2.002010345 0.9693928957 
1.559042931 -7.345646858 -2.00207448 0.9693918824 
1.884155273 -7.269269943 -2.002137661 0.969391048 
2.522968769 -7.073449612 -2.002262115 0.9693892598 
3.142011642 -6.821599007 -2.002382994 0.9693872929 
3.736059427 -6.515725136 -2.002498627 0.9693855643 
4.570390701 -5.960974216 -2.002661705 0.9693831801 
4.831220627 -5.751889706 -2.002712727 0.9693823457 
5.323632717 -5.299977779 -2.002809048 0.9693807364 
5.982060432 -4.54453373 -2.002937794 0.9693788886 
6.178422928 -4.274018288 -2.002976418 0.9693782926 
6.362543583 -3.995024443 -2.003012419 0.9693777561 
6.534057617 -3.708105326 -2.003046036 0.9693772793 
6.969785213 -2.805546761 -2.003131866 0.9693759084 
7.087749004 -2.492753744 -2.003155231 0.9693756104 
7.281405926 -1.85297358 -2.003193378 0.9693750143 
7.356674671 -1.527248502 -2.003208399 0.9693747759 
7.417372704 -1.198491216 -2.003220558 0.9693745971 
7.510971546 -0.2005883753 -2.00323987 0.969374299 
7.512460709 0.1337426752 -2.003240347 0.969374299 
7.499062538 0.4677880704 -2.00323844 0.9693743587 
7.427763462 1.132436514 -2.003225088 0.9693745375 
7.369989872 1.461726069 -2.003214121 0.9693747163 
7.109687328 2.429597139 -2.00316453 0.9693754911 
6.994492054 2.743437529 -2.003142595 0.9693757892 
6.865458965 3.051826 -2.0031178 0.9693761468 
6.397880554 3.938281059 -2.003027678 0.9693775177 
6.21625948 4.218901157 -2.00299263 0.9693780541 
6.022324085 4.491174221 -2.002955198 0.9693785906 
5.816464901 4.75452137 -2.002915382 0.9693791866 
5.599067211 5.008449554 -2.002873421 0.9693799019 
5.131542683 5.486025333 -2.00278306 0.9693812132 
4.623432636 5.920119286 -2.002684593 0.9693825841 
3.633520365 6.208061218 -1.917807698 0.9706610441 
3.276181459 6.216232777 -1.873413086 0.9713302851 
2.959267616 6.276262283 -1.849961162 0.9716834426 
1.800595641 6.700158596 -1.849736333 0.9716875553 
1.500751972 6.773412704 -1.84967804 0.9716883898 
1.19791007 6.833249569 -1.84961915 0.9716893435 
-0.6472167969 6.905849457 -1.849260211 0.9716947079 
-0.9537597299 6.87000227 -1.849200606 0.9716956019 
-1.258388638 6.820556641 -1.849141359 0.971696496 
-1.560493112 6.757609844 -1.84908247 0.9716973901 
-1.85947752 6.681298733 -1.849024177 0.9716982841 
-2.154770374 6.591760159 -1.848966599 0.9716991782 
-2.445810556 6.489186764 -1.848909855 0.9716999531 
-2.735634804 6.382353306 -1.851344466 0.9716632962 
-3.345905781 6.213889122 -1.881603956 0.9712067842 
-3.706494093 6.205414772 -1.927105308 0.9705209136 
-4.08520031 6.195815086 -1.978656173 0.9697446227 
-4.671711445 5.873425007 -2.000876188 0.9694098234 
-5.411906719 5.198998928 -2.000731468 0.9694108963 
-6.245995998 4.158376217 -2.000568151 0.9694145322 
-6.424682617 3.876337767 -2.000533104 0.9694150686 
-6.590646744 3.586650372 -2.000500441 0.9694155455 
-6.743574142 3.289872885 -2.0004704 0.9694159627 
-6.883141994 2.986596584 -2.000442982 0.9694164395 
-7.121181488 2.362958908 -2.000396013 0.9694170952 
-7.219174862 2.043825626 -2.000376463 0.9694173932 
-7.302883148 1.720659137 -2.000360012 0.9694176316 
-7.426823616 1.064753413 -2.000334978 0.9694180489 
-7.46679163 0.7333276272 -2.000326872 0.9694181681 
-7.49200201 0.4004565477 -2.000321865 0.9694182873 
-7.502392292 0.06678710878 -2.000319242 0.9694182873 
-7.497944355 -0.2670409977 -2.000319719 0.9694182873 
-7.395754337 -1.262651324 -2.000338793 0.9694179893 
-7.254364967 -1.915004849 -2.000365496 0.969417572 
-6.9351511 -2.863591194 -2.000426531 0.969416678 
-6.65336895 -3.468740225 -2.000480652 0.9694158435 
-6.318947792 -4.046494007 -2.000545263 0.9694148898 
-5.724467754 -4.851811409 -2.000659943 0.9694131613 
-5.270805359 -5.341657639 -2.000747681 0.9694117904 
-5.028088093 -5.570959568 -2.000794649 0.9694111347 
-4.51328373 -5.996108055 -2.000894308 0.969409585 
-3.380722523 -6.70120573 -2.001113892 0.9694062471 
-2.4589746 -7.092187405 -2.001292944 0.9694035053 
-1.818994045 -7.283110142 -2.00141716 0.9694017172 
-1.164584994 -7.416425705 -2.001544237 0.9693998098 
-0.8334472179 -7.461118221 -2.00160861 0.9693989158 
-0.1672851592 -7.506176472 -2.00173831 0.9693968296 
0.1670263708 -7.506401062 -2.001803398 0.9693959355 
0.5007812381 -7.491786957 -2.001868248 0.9693949819 
1.493691325 -7.359177113 -2.002061605 0.9693920612 
1.819560528 -7.285678387 -2.002125025 0.9693911672 
2.460092783 -7.095566273 -2.002249956 0.9693892002 
2.77323246 -6.979333401 -2.002310991 0.969388485 
3.677900314 -6.548674107 -2.002487421 0.9693857431 
4.517148495 -6.001381874 -2.002651215 0.9693832994 
5.276083946 -5.347133636 -2.002799749 0.9693812728 
5.508984089 -5.10723114 -2.002845049 0.9693802595 
5.730839729 -4.857219219 -2.00288868 0.9693796039 
6.140102386 -4.328813553 -2.002968788 0.9693784714 
6.326718807 -4.051476955 -2.003005266 0.9693778157 
6.500776291 -3.766093731 -2.003039598 0.9693773389 
6.809989929 -3.173493624 -2.003100395 0.9693764448 
7.065263748 -2.555742025 -2.003150702 0.96937567 
7.172040939 -2.23894763 -2.003171682 0.9693753719 
7.406405926 -1.264462829 -2.003218412 0.9693746567 
7.489541054 -0.601162076 -2.00323534 0.9693744183 
7.513349533 0.06687988341 -2.003240585 0.9693743587 
7.477655888 0.7343944907 -2.003234386 0.9693744183 
7.437548637 1.066298842 -2.003226995 0.9693745375 
7.229331017 2.04670167 -2.003187418 0.9693750739 
7.018651962 2.681071758 -2.003147125 0.9693757296 
6.892363071 2.99060297 -2.003123045 0.9693760872 
6.752411842 3.294191837 -2.003095865 0.9693765044 
6.599101543 3.591244936 -2.00306654 0.9693769217 
6.432714462 3.881186485 -2.003034353 0.9693773985 
6.062060356 4.437424183 -2.002962828 0.9693784714 
5.858554363 4.702597618 -2.002923727 0.9693790674 
5.643452168 4.958456993 -2.002882004 0.9693796635 
5.417705059 5.204467773 -2.002838373 0.9693789482 
5.180156231 5.440173149 -2.002792358 0.969381094 
4.675947189 5.878767014 -2.002694845 0.9693824649 
4.409609318 6.080788612 -2.002643347 0.9693834782 
4.085971355 6.19678688 -1.978965998 0.9697396755 
3.014863253 6.249716759 -1.84997201 0.9716835022 
2.735869169 6.383559227 -1.851694107 0.9716584086 
2.155751944 6.59475565 -1.849805236 0.9716864824 
0.953935504 6.871386528 -1.849571824 0.9716899991 
0.3393847644 6.928525448 -1.849452138 0.9716918468 
-0.277734369 6.930819988 -1.849332213 0.971693635 
-0.5857421756 6.911381721 -1.849272251 0.9716945291 
-1.197612286 6.831530571 -1.849153042 0.9716963172 
-1.500273347 6.771279335 -1.849094152 0.9716972113 
-2.096044779 6.610722542 -1.848978043 0.9716989398 
-4.351699352 6.114572525 -2.000938654 0.969408989 
-4.61928463 5.914792538 -2.00088644 0.9694097042 
-4.877697468 5.70331049 -2.000835896 0.9694104791 
-5.365097523 5.246962547 -2.000740528 0.9694117308 
-5.809889793 4.74915266 -2.000653744 0.9694132209 
-6.015280724 4.485918045 -2.000613451 0.9694138169 
-6.389936447 3.933386087 -2.00053978 0.9694149494 
-6.984994888 2.739711761 -2.000422716 0.9694167376 
-7.20070076 2.10801506 -2.000380278 0.9694173932 
-7.287297249 1.78556633 -2.000362873 0.9694176316 
-7.359455585 1.459626436 -2.000348568 0.9694178104 
-7.417055607 1.130795836 -2.000337124 0.9694180489 
-7.459990025 0.799736321 -2.000328302 0.9694181085 
-7.500021935 -0.200290516 -2.000319481 0.9694182873 
-7.452568054 -0.8660986423 -2.000328064 0.9694181681 
-7.406693935 -1.196765065 -2.000336647 0.9694180489 
-7.346169472 -1.525065899 -2.000348091 0.96941787 
-7.271083832 -1.850351572 -2.000362396 0.9694177508 
-7.181660175 -2.171982288 -2.000379324 0.9694173932 
-6.828913212 -3.108630419 -2.000447035 0.9694163799 
-6.354626179 -3.990095139 -2.000538349 0.9694151282 
-6.171308517 -4.268962383 -2.000573635 0.9694133401 
-5.975102425 -4.539269924 -2.000611544 0.9694138765 
-5.767385006 -4.800666332 -2.000651598 0.9694132805 
-5.548239708 -5.052575588 -2.000694036 0.9694126248 
-5.318107605 -5.294501781 -2.000738621 0.9694119692 
-4.826713562 -5.746489048 -2.00083375 0.9694105387 
-3.73340559 -6.510978699 -2.001045704 0.9694073796 
-3.140073061 -6.817424297 -2.001160622 0.9694057107 
-2.833867073 -6.950575829 -2.001219988 0.9694046974 
-2.521933556 -7.069982529 -2.001280546 0.9694037437 
-1.230517507 -7.405725002 -2.001531363 0.9693999887 
-0.2341943234 -7.504357815 -2.001725197 0.9693969488 
0.1001171842 -7.507548809 -2.001790285 0.9693961143 
1.098505855 -7.428142071 -2.001984596 0.9693932533 
1.428017497 -7.372143269 -2.002048731 0.9693922997 
2.077783108 -7.216491699 -2.002175331 0.9693903327 
2.396835804 -7.117136002 -2.002237558 0.9693894386 
4.190273285 -6.233708382 -2.002587318 0.9693843126 
4.983076096 -5.620949745 -2.00274229 0.969381988 
5.228466511 -5.393823147 -2.002790213 0.9693809152 
5.687348366 -4.908017635 -2.002880096 0.9693797827 
6.466977596 -3.823801279 -2.003032923 0.9693774581 
6.781440258 -3.233984232 -2.003094673 0.969376564 
6.918701172 -2.929123402 -2.003121853 0.9693761468 
7.042236328 -2.618488789 -2.003146172 0.9693757296 
7.151816368 -2.30266118 -2.003167868 0.9693754315 
7.247236252 -1.982263088 -2.003186703 0.9693751335 
7.394848347 -1.33031249 -2.003216028 0.9693747163 
7.513657093 -4.882812391e-06 -2.003240585 0.969374299 
7.483886719 0.6678100228 -2.003235579 0.9693744183 
7.446757793 1.00005126 -2.003228664 0.9693744779 
7.394863129 1.330317378 -2.003218889 0.9693746567 
7.151835918 2.302702665 -2.003172636 0.9693753123 
7.042245865 2.618530273 -2.003151655 0.96937567 
6.78147459 3.233999014 -2.003101587 0.9693763852 
6.467001915 3.823811054 -2.003041029 0.9693773389 
6.101347446 4.383300781 -2.002970457 0.9693783522 
5.900205135 4.650285721 -2.002931595 0.9693789482 
5.463300705 5.15606451 -2.002847195 0.9693802595 
4.983222485 5.620976448 -2.002754211 0.9693815708 
4.72801733 5.836940765 -2.002704859 0.9693825841 
4.463623047 6.041323185 -2.002653599 0.9693832397 
4.16424799 6.194746017 -1.990072131 0.9695723653 
2.790175676 6.352905273 -1.849928379 0.9716846347 
2.504736185 6.470537186 -1.849872947 0.9716854692 
2.214345694 6.575351238 -1.84981668 0.9716863632 
0.7087304592 6.900800705 -1.849524021 0.971690774 
-0.8313476443 6.885976315 -1.849224448 0.9716952443 
-1.439970613 6.784409046 -1.849105954 0.9716970325 
-1.740302682 6.713415146 -1.849047303 0.9716979265 
-2.037148476 6.629150391 -1.848989487 0.9716988206 
-3.560217142 6.208930492 -1.908214927 0.970805645 
-4.566520691 5.955698013 -2.000896692 0.9694094658 
-4.826760292 5.746532917 -2.000845909 0.9694103003 
-5.077475548 5.525990963 -2.000797033 0.9694110751 
-5.548266411 5.052612305 -2.000704765 0.9694125056 
-5.767416954 4.800703049 -2.00066185 0.9694131017 
-5.975131512 4.539301872 -2.00062108 0.9694137573 
-6.525805473 3.703403234 -2.000513315 0.9694153666 
-6.828938007 3.108649731 -2.000453711 0.9694162607 
-7.406713486 1.196767569 -2.00033927 0.9694179296 
-7.452573299 0.8661132455 -2.000329733 0.9694181085 
-7.483695984 0.5337328911 -2.000323534 0.9694182277 
-7.500029087 0.200302735 -2.000319958 0.9694182277 
-7.501506329 -0.1335204989 -2.000319242 0.9694182873 
-7.459977627 -0.799724102 -2.000326633 0.9694181681 
-7.417053223 -1.130783677 -2.000334501 0.9694180489 
-7.359438419 -1.459643483 -2.000345469 0.96941787 
-7.20069313 -2.108002901 -2.000375509 0.9694173932 
-6.984985352 -2.739697218 -2.000416994 0.9694167972 
-6.714013577 -3.349763155 -2.000468969 0.9694160223 
-6.558449745 -3.64516592 -2.00049901 0.9694156051 
-6.389921665 -3.933364153 -2.000531435 0.9694150686 
-6.015246391 -4.485881329 -2.000603676 0.9694140553 
-5.809860706 -4.749121189 -2.000643492 0.9694133997 
-4.877658367 -5.703266621 -2.000823736 0.9694107175 
-3.499372482 -6.639892578 -2.001091003 0.9694066644 
-3.200634718 -6.789182186 -2.001148939 0.9694058299 
-2.895576 -6.925043583 -2.001208067 0.9694048762 
-2.584804535 -7.047211647 -2.001268387 0.969403863 
-1.948344707 -7.249496937 -2.001392126 0.9694020152 
-0.9662451148 -7.445019245 -2.001582861 0.9693991542 
-0.6340038776 -7.480849266 -2.001647472 0.9693983197 
-0.3005615175 -7.501894474 -2.001712322 0.969397366 
0.03336913884 -7.50809288 -2.001777411 0.9693962932 
1.032485366 -7.437568188 -2.00197196 0.9693934321 
1.362314463 -7.384509087 -2.002035856 0.9693924785 
2.013754845 -7.234611511 -2.002162933 0.9693903923 
2.333388567 -7.138136864 -2.002225161 0.9693896174 
3.262910128 -6.764679909 -2.002406359 0.9693869948 
3.85166502 -6.448242188 -2.002521276 0.9693849683 
4.932909966 -5.665048599 -2.002732515 0.9693819284 
5.417148113 -5.20443821 -2.002827168 0.9693805575 
5.643446922 -4.958403111 -2.002871513 0.9693798423 
6.062045574 -4.437380314 -2.002953529 0.9693786502 
6.253554344 -4.163398266 -2.002990961 0.9693781137 
6.432675838 -3.881169319 -2.003026247 0.9693775773 
6.59907198 -3.591235161 -2.00305891 0.9693770409 
6.752392292 -3.294174671 -2.003088951 0.9693766236 
6.892353535 -2.990590811 -2.003116608 0.9693761468 
7.313241959 -1.723098159 -2.003199816 0.9693749547 
7.382704735 -1.396081567 -2.003213644 0.9693747163 
7.489550591 0.6011938453 -2.003236532 0.9693743587 
7.455361366 0.9337597489 -2.003230333 0.9693744779 
7.342797756 1.592678189 -2.003209114 0.9693747759 
7.264599323 1.917714834 -2.003194332 0.9693750739 
7.172070026 2.238952637 -2.003176451 0.9693752527 
7.065292835 2.555749416 -2.003156185 0.9693755507 
6.944526196 2.867473125 -2.00313282 0.969375968 
6.81000948 3.173508167 -2.003107071 0.9693763256 
6.500810623 3.76610589 -2.003047705 0.9693772197 
6.140141487 4.328840256 -2.002978086 0.969378233 
5.941396236 4.597597599 -2.002939463 0.969378829 
5.73087883 4.857243538 -2.002898932 0.969379425 
5.509013653 5.107255936 -2.002856016 0.9693800807 
5.033017635 5.576445103 -2.002763987 0.9693815112 
4.779843807 5.794665337 -2.002714872 0.9693822861 
4.51724577 6.001413345 -2.002664089 0.9693830013 
4.243242264 6.192646503 -2.001446247 0.9694013 
3.856274366 6.202631474 -1.947249889 0.9702173471 
3.139736176 6.224274635 -1.858693004 0.971552968 
2.562246084 6.448029518 -1.849884152 0.9716852903 
1.681074142 6.731061935 -1.849713087 0.9716879129 
1.076108336 6.853403091 -1.849595428 0.9716896415 
0.4626562297 6.921476841 -1.849476218 0.9716914892 
-0.1543408185 6.934755802 -1.849356174 0.9716932774 
-0.4626562297 6.920805454 -1.849296212 0.9716941714 
-1.379565358 6.79699707 -1.849117637 0.9716968536 
-1.978085876 6.647060394 -1.849001169 0.9716986418 
-2.271728516 6.552289963 -1.848943949 0.9716994762 
-2.844921827 6.324067116 -1.848832011 0.9717011452 
-3.488098145 6.210624695 -1.899114966 0.9709427953 
-3.855666399 6.201715946 -1.94696188 0.9702217579 
-5.028137207 5.570976257 -2.00080657 0.9694109559 
-5.270856857 5.341664791 -2.000759125 0.9694116116 
-5.724494457 4.851843357 -2.000670195 0.9694129825 
-5.93453598 4.592302322 -2.000629187 0.9694135785 
-6.132824421 4.323684216 -2.000590324 0.9694141746 
-6.318972111 4.046523571 -2.000553846 0.969414711 
-6.653390884 3.468762159 -2.000488043 0.9694157243 
-6.801012993 3.169313908 -2.000459194 0.9694162011 
-6.935180664 2.863610744 -2.00043273 0.9694165587 
-7.162077427 2.235839844 -2.000387907 0.9694172144 
-7.395773888 1.262653828 -2.000341177 0.9694179296 
-7.444589615 0.9323754907 -2.00033164 0.9694180489 
-7.478654385 0.6002954245 -2.000324488 0.9694182277 
-7.497949123 0.2670214772 -2.000320435 0.9694182277 
-7.492009163 -0.400441885 -2.000320911 0.9694182277 
-7.372126102 -1.394072175 -2.000343084 0.9694179296 
-7.219157696 -2.043813467 -2.000372171 0.9694175124 
-7.121161938 -2.36295414 -2.000390768 0.9694172144 
-6.883124828 -2.986582041 -2.000436544 0.9694164991 
-6.743544579 -3.289860725 -2.000463247 0.9694160819 
-5.851862431 -4.69722414 -2.000635386 0.9694135189 
-5.637233734 -4.952988148 -2.00067687 0.9694129229 
-5.174943924 -5.434665203 -2.000766277 0.969411552 
-4.928193092 -5.659621239 -2.000813961 0.9694107771 
-4.40587616 -6.075537205 -2.000915289 0.9694093466 
-4.131391525 -6.265683651 -2.000968456 0.9694084525 
-3.260961771 -6.760390282 -2.001137257 0.9694058895 
-2.956962824 -6.89893055 -2.001196146 0.9694052935 
-2.647382736 -7.023881912 -2.001256466 0.9694041014 
-2.332382679 -7.13490963 -2.001317501 0.9694031477 
-1.362119079 -7.382563114 -2.00150609 0.9694003463 
-1.032412052 -7.436076641 -2.001569986 0.9693993926 
-0.03372558579 -7.508063793 -2.001764297 0.9693964124 
0.6338427663 -7.481796741 -2.001894236 0.9693946242 
1.948774338 -7.252253056 -2.002150297 0.9693908691 
2.897050619 -6.928957462 -2.002335072 0.9693880677 
3.202636719 -6.793405533 -2.002394676 0.9693870544 
3.501635551 -6.644423485 -2.00245285 0.9693863392 
3.793852568 -6.482253075 -2.002510071 0.9693855047 
4.078593731 -6.307236195 -2.002565622 0.9693846703 
4.355439186 -6.119697094 -2.002619743 0.9693835378 
4.623295784 -5.920075417 -2.002671957 0.9693830609 
4.88219738 -5.70869875 -2.002722502 0.9693822861 
5.131528378 -5.485973835 -2.002771139 0.969381392 
5.8164258 -4.754497051 -2.002905369 0.9693793654 
6.022284985 -4.491145134 -2.002945662 0.9693787694 
6.566825867 -3.649819136 -2.003052473 0.9693771601 
6.722783089 -3.35414052 -2.003083229 0.9693766832 
6.865419865 -3.051811457 -2.003111124 0.969376266 
6.994472504 -2.743427753 -2.003136635 0.9693759084 
7.109672546 -2.429601908 -2.003159523 0.9693755507 
7.210781097 -2.110925198 -2.003179312 0.9693752527 
7.297616959 -1.788093209 -2.003196716 0.9693749547 
7.369980335 -1.461704016 -2.00321126 0.9693747759 
7.499062538 -0.4677758813 -2.003237247 0.9693743587 
7.512460709 -0.1337231398 -2.003240347 0.969374299 
7.494599342 0.5345067978 -2.003237486 0.9693743587 
7.463378906 0.8673583865 -2.003231764 0.9693744779 
7.356689453 1.527255774 -2.003211737 0.9693747163 
7.191718578 2.175026894 -2.003180265 0.9693751931 
7.08778286 2.492761135 -2.003160238 0.9693754911 
6.83800745 3.112773418 -2.003112555 0.969376266 
6.534081936 3.708129883 -2.003053904 0.9693771005 
5.982079983 4.54457283 -2.002947569 0.9693787098 
5.323901176 5.300012112 -2.002820253 0.9693799615 
5.082499981 5.531457424 -2.002773523 0.9693812728 
4.831308365 5.751923561 -2.002724886 0.969381988 
4.570429802 5.96099329 -2.002674341 0.9693830609 
3.560644388 6.209775448 -1.908474684 0.9708018303 
2.902973652 6.302304745 -1.849950314 0.9716840982 
2.619536161 6.425002098 -1.849895239 0.9716851711 
2.331059456 6.534977913 -1.84983933 0.9716860056 
2.037978411 6.631997108 -1.849782348 0.9716868401 
1.137040973 6.843595982 -1.849607348 0.9716895223 
0.8314501643 6.887187481 -1.849547982 0.9716903567 
0.2160205096 6.933378696 -1.849428177 0.9716922045 
-0.09260741621 6.935900688 -1.849368215 0.9716930985 
-0.7086425424 6.899777889 -1.84924829 0.9716948867 
-1.014824152 6.861203671 -1.849188685 0.9716957808 
-1.918837905 6.664450645 -1.849012613 0.971698463 
-2.788559437 6.349162579 -1.848842978 0.971701026 
-3.07307601 6.229255199 -1.851942897 0.9716547728 
-3.780725002 6.203586102 -1.93691206 0.9703731537 
-4.163493633 6.193754673 -1.989753485 0.9695773721 
-4.978369236 5.615539551 -2.000816345 0.9694107771 
-5.223083496 5.388395786 -2.000768423 0.9694116116 
-5.457507133 5.150595665 -2.000722647 0.9694122672 
-5.681105614 4.902626991 -2.000678778 0.9694128633 
-5.893449783 4.64496088 -2.000637054 0.9694134593 
-6.282726765 4.102617264 -2.00056076 0.9694146514 
-6.622270584 3.527863741 -2.000494242 0.9694156647 
-7.032639027 2.614924192 -2.000413418 0.9694168568 
-7.141911507 2.299477577 -2.000391722 0.9694172144 
-7.237058163 1.979479909 -2.000373125 0.9694175124 
-7.317902565 1.655578613 -2.000356913 0.9694176912 
-7.384243011 1.32841301 -2.000343561 0.9694179296 
-7.435993671 0.9986107945 -2.000333309 0.9694180489 
-7.473027229 0.6668432355 -2.00032568 0.9694181681 
-7.495270729 0.3337499797 -2.000320911 0.9694182873 
-7.473020077 -0.6668310165 -2.000324249 0.9694182277 
-7.435986042 -0.9985986352 -2.000331163 0.9694181085 
-7.317885399 -1.655571222 -2.000353336 0.9694177508 
-7.141889572 -2.299494505 -2.000386953 0.969417274 
-5.893417835 -4.644931316 -2.000627279 0.9694136381 
-5.457495213 -5.150566101 -2.000711679 0.9694123864 
-4.186957836 -6.228625298 -2.000957489 0.9694086909 
-3.905817747 -6.408876896 -2.001012087 0.9694079161 
-3.616892099 -6.576467037 -2.001068115 0.9694072008 
-3.320925236 -6.731061935 -2.001125574 0.9694061875 
-3.018261671 -6.872319221 -2.001184225 0.9694053531 
-2.709736347 -7.000009537 -2.001244068 0.9694042802 
-2.395654202 -7.113818169 -2.001305103 0.9694035053 
-2.076923847 -7.213569164 -2.001367092 0.9694025517 
-1.754062414 -7.299052715 -2.001429796 0.969401598 
-0.7669872642 -7.468290806 -2.001621723 0.969398737 
-0.1003906205 -7.507414341 -2.001751423 0.9693966508 
1.23069334 -7.407490253 -2.002010345 0.9693928361 
1.558871984 -7.345664024 -2.002074242 0.969391942 
2.205820322 -7.178452015 -2.002200365 0.9693900943 
2.522968769 -7.073447227 -2.002262115 0.9693892598 
3.442519426 -6.675261021 -2.002441406 0.9693863392 
3.736059427 -6.515725136 -2.002498627 0.9693855643 
4.30059576 -6.158210278 -2.002609015 0.9693840146 
5.323632717 -5.299977779 -2.002809048 0.9693807364 
5.982050419 -4.54454565 -2.002937794 0.9693788886 
6.178417683 -4.274011135 -2.002976418 0.9693782926 
6.692651272 -3.413810968 -2.003077269 0.9693768024 
6.837978363 -3.112763643 -2.003105879 0.9693763852 
6.969785213 -2.805546761 -2.003131866 0.9693759084 
7.087749004 -2.492753744 -2.003155231 0.9693756104 
7.191699028 -2.175024271 -2.003175497 0.9693753123 
7.281405926 -1.85297358 -2.003193378 0.9693750143 
7.463378906 -0.8673583865 -2.003229856 0.9693744779 
7.494589806 -0.534504354 -2.003236294 0.9693744183 
7.512460709 0.1337255836 -2.003240347 0.969374299 
7.499062538 0.4677758813 -2.00323844 0.9693743587 
7.427753925 1.132460952 -2.003225088 0.9693745971 
7.369989872 1.461743116 -2.003214121 0.9693747163 
7.297616959 1.788127422 -2.003200531 0.9693749547 
7.210727215 2.110952139 -2.003183842 0.9693754315 
7.109692097 2.429606915 -2.00316453 0.9693754315 
6.994492054 2.743437529 -2.003142595 0.9693757892 
6.865458965 3.051826 -2.0031178 0.9693761468 
6.566845417 3.649833918 -2.003060341 0.9693770409 
6.397880554 3.938281059 -2.003027678 0.9693775177 
6.21625948 4.218901157 -2.00299263 0.9693780541 
6.022324085 4.491174221 -2.002955198 0.9693785906 
5.816464901 4.75452137 -2.002915382 0.9693791866 
5.599067211 5.008449554 -2.002873421 0.9693799019 
5.370175838 5.252439022 -2.002829313 0.9693817496 
5.131542683 5.486012936 -2.00278306 0.9693812132 
4.882285118 5.708723068 -2.0027349 0.969381988 
4.623305798 5.920129299 -2.002684593 0.9693828821 
4.355292797 6.119770527 -2.002632618 0.9693835974 
4.00853014 6.198786259 -1.968130589 0.9699029326 
3.633442402 6.208061218 -1.917805552 0.9706611633 
2.959267616 6.276262283 -1.849961162 0.9716834426 
2.676630735 6.401479244 -1.849906445 0.9716849923 
2.389160156 6.514018536 -1.849850535 0.9716857672 
1.19791007 6.833249569 -1.84961915 0.9716893435 
0.5858203173 6.912231445 -1.849500179 0.9716911316 
0.2777441442 6.931230545 -1.849440217 0.9716919661 
-0.3393847644 6.928031921 -1.849320173 0.9716938138 
-1.560493112 6.757609844 -1.84908247 0.9716973901 
-2.154770374 6.591760159 -1.848966599 0.9716991782 
-2.735634804 6.382353306 -1.851344466 0.9716632962 
-4.08520031 6.195815086 -1.978656173 0.9697446227 
-4.928193092 5.659660339 -2.00082612 0.9694106579 
-5.174970627 5.43470192 -2.00077796 0.9694113731 
-5.637285233 4.953000546 -2.000687361 0.969412744 
-5.851916313 4.69722414 -2.000645399 0.9694133401 
-6.245995998 4.158376217 -2.000568151 0.9694145322 
-6.424682617 3.876337767 -2.000533104 0.9694150686 
-6.590646744 3.586650372 -2.000500441 0.9694155455 
-7.009099007 2.677426815 -2.000417948 0.9694167972 
-7.372136116 1.394084454 -2.000345945 0.96941787 
-7.46679163 0.7333276272 -2.000326872 0.9694181681 
-7.49200201 0.4004565477 -2.000321865 0.9694182873 
-7.444572449 -0.932399869 -2.000329494 0.9694181085 
-7.395754337 -1.262651324 -2.000338793 0.9694179893 
-7.162060261 -2.235822678 -2.000383139 0.9694173336 
-7.055585861 -2.552231312 -2.000403404 0.9694170356 
-6.9351511 -2.863591194 -2.000426531 0.969416678 
-6.65336895 -3.468740225 -2.000480652 0.9694158435 
-6.318947792 -4.046494007 -2.000545263 0.9694148898 
-6.132800102 -4.323652267 -2.000581264 0.9694143534 
-5.934509277 -4.592270374 -2.000619411 0.9694137573 
-5.724467754 -4.851811409 -2.000659943 0.9694131613 
-5.270805359 -5.341657639 -2.000747681 0.9694117904 
-5.028088093 -5.570959568 -2.000794649 0.9694111347 
-4.51328373 -5.996108055 -2.000894308 0.969409585 
-4.242197037 -6.191095829 -2.000946999 0.9694088101 
-3.380722523 -6.70120573 -2.001113892 0.9694062471 
-2.771943331 -6.975578308 -2.001232147 0.9694043994 
-2.4589746 -7.092187405 -2.001292944 0.9694035053 
-2.141108274 -7.194763184 -2.001354694 0.9694026113 
-1.818994045 -7.283110142 -2.00141716 0.9694017172 
