# .PCD v0.7 - Point Cloud Data file format
VERSION 0.7
FIELDS x y z intensities
SIZE 4 4 4 4
TYPE F F F F
COUNT 1 1 1 1
WIDTH 942
HEIGHT 1
VIEWPOINT 0 0 0 1 0 0 0
POINTS 942
DATA ascii
-18.25193787 -15.46958256 3.860845327 0.9076095223 
-15.26527309 -15.47051525 3.50716114 0.915705502 
-12.76185036 -15.47130108 3.236322641 0.9219539165 
-11.64549732 -15.47165203 3.124829531 0.9245384932 
-10.6048727 -17.05755043 3.241136312 0.9218424559 
-10.60543442 -18.88317108 3.494829655 0.9159890413 
-9.682636261 -27.92735481 4.769747734 0.8871310949 
-8.310932159 -27.92778969 4.701958656 0.8886423707 
-3.864653349 -15.47413254 2.573721886 0.9374207854 
-3.14074707 -15.4743576 2.54797411 0.9380270243 
-2.429780245 -15.47457695 2.527690887 0.9385048747 
-1.728676677 -15.47479725 2.512664318 0.9388590455 
1.034526348 -15.47566128 2.502845764 0.9390905499 
3.141142607 -15.4763155 2.548296213 0.9380194545 
4.605663776 -15.47677422 2.605689287 0.936668694 
6.150185585 -15.4772625 2.687486172 0.9347468615 
6.962666035 -15.47751141 2.738650084 0.9335467815 
7.767861366 -15.39744377 2.78292942 0.9325094819 
9.623042107 -15.47834206 2.941062212 0.9288142323 
11.65101051 -15.47898197 3.126306057 0.9245041013 
13.70002365 -15.17908382 3.299544096 0.920491457 
33.57795715 -12.14626408 5.762007713 0.8653019071 
62.89661026 34.22847366 11.55506325 0.7481636405 
20.66018105 13.75483608 4.005164146 0.9043264985 
61.97224426 54.45004654 13.31196785 0.7158767581 
28.15381241 32.33235931 6.918175697 0.8405432701 
9.816298485 12.34141827 2.544652462 0.9381052852 
8.587621689 13.02406979 2.517405748 0.9387472868 
15.94914532 33.06490707 5.923892498 0.8617916703 
15.82985783 36.9317627 6.483970642 0.8497573137 
15.76000977 48.2118721 8.184950829 0.8142284751 
8.89494133 48.2127533 7.911278725 0.8198429346 
2.431181669 49.62992096 8.018260002 0.8176434636 
-4.086557388 48.21887589 7.808860779 0.8219538927 
-6.440712929 49.63267517 8.076266289 0.8164536953 
-8.707468033 49.66945267 8.137276649 0.8152039051 
-7.041176796 31.77922249 5.252504826 0.8764427304 
-12.95932102 48.22172928 8.057530403 0.8168377876 
-15.37264824 41.91340637 7.204041481 0.8345317245 
-15.35530949 32.57161713 5.810795784 0.8642424345 
-17.08045769 32.40932465 5.911670208 0.8620562553 
-18.96781158 32.40774155 6.059437275 0.8588637114 
-23.0219841 32.34816742 6.406961441 0.8514019847 
-27.66661263 32.34959793 6.868917465 0.8415834904 
-21.39258003 15.9535799 4.306311607 0.8975144029 
-29.33908081 -16.65011978 5.443641663 0.872246623 
-15.53940868 -15.47043133 3.538360596 0.9149883986 
-14.21516037 -15.47084713 3.390328884 0.9183956981 
-12.99493599 -15.47122288 3.260377169 0.9213972688 
-11.8626461 -15.47158432 3.146017313 0.9240467548 
-10.74902344 -15.39161301 3.02943325 0.9267556667 
-10.60531235 -18.49538803 3.440395355 0.9172418714 
-8.724877357 -21.39950371 3.729173422 0.9106151462 
-8.582104683 -27.92770767 4.714612484 0.8883600235 
-4.011235237 -15.47408867 2.579547882 0.9372836351 
-2.57104969 -15.47453785 2.531320095 0.938419342 
-1.868207932 -15.47475338 2.515256643 0.9387979507 
0.2066064477 -15.47540283 2.497452259 0.9392176867 
1.589448214 -15.47583199 2.51043582 0.9389115572 
2.997949123 -15.47627163 2.543793917 0.9381254911 
3.719208956 -15.4764967 2.568508625 0.937543571 
5.212128639 -15.47696018 2.635298967 0.9359725118 
5.991210938 -15.47720909 2.678110838 0.9349669218 
6.762441158 -15.39713573 2.713674307 0.9341323972 
7.596738338 -15.39738941 2.770594358 0.932798326 
10.40487766 -15.47859097 3.009617329 0.9272168279 
11.43665504 -15.47891331 3.105619192 0.9249844551 
14.21931648 -16.03920555 3.458862782 0.9168165922 
15.03295422 -15.50865936 3.485345364 0.9162071347 
53.29515457 -22.56324387 9.339087486 0.7909715772 
34.73389435 9.500388145 5.810805321 0.8642421961 
61.90325165 48.78938293 12.7188158 0.7266182899 
28.66367149 32.3321991 6.972454548 0.8393983245 
26.1906929 32.33296204 6.714469433 0.8448534012 
9.071967125 12.27843475 2.463489532 0.9400189519 
8.629096031 12.8368721 2.495970011 0.9392526746 
8.330966949 13.66983604 2.583240271 0.9371967912 
16.12146378 32.67605209 5.879687786 0.8627487421 
15.82957935 36.04213715 6.352250099 0.8525722623 
16.23711395 41.94562531 7.258102417 0.8333996534 
11.9260397 49.62697983 8.236180305 0.8131818771 
7.131357193 48.2142067 7.864850998 0.8207990527 
4.952060223 48.21600342 7.821427822 0.8216944933 
-3.654550791 48.21851349 7.803224087 0.822070241 
-5.991967678 49.63253784 8.0672369 0.8166386485 
-8.240893364 49.59992981 8.113470078 0.8156898022 
-6.755548954 31.82897568 5.250580788 0.8764850497 
-14.81850529 48.22133636 8.140496254 0.815138042 
-14.89004803 36.52083969 6.364283085 0.8523147702 
-15.11862755 32.8235817 5.831521511 0.8637928963 
-24.80298996 32.34871674 6.577839851 0.8477567434 
-27.17167854 32.34944534 6.817256927 0.8426758051 
-19.96172714 13.80891609 3.916810274 0.9063351154 
-20.5039978 11.63603497 3.804348707 0.9088978767 
-29.30850983 -16.28957748 5.410847664 0.8729650974 
-26.32385635 -16.20389938 4.988093853 0.882280767 
-20.74250984 -15.46880054 4.175453186 0.9004681706 
-17.29421806 -15.46988487 3.744311333 0.910269022 
-14.47116184 -15.47076416 3.418402672 0.9177485108 
-12.0826807 -15.47151566 3.167739153 0.9235429168 
-11.0111227 -15.47184753 3.064383507 0.925942719 
-10.6046629 -16.39892769 3.151357412 0.9239228368 
-10.60519981 -18.11967087 3.387923002 0.9184510708 
-10.60583019 -20.12407494 3.670752525 0.9119517207 
-8.947699547 -21.39943504 3.742886305 0.9103016257 
-8.854892731 -27.92761993 4.727720737 0.8880677819 
-2.008110285 -15.47470951 2.518053293 0.9387319684 
-1.304697275 -15.39461136 2.49309659 0.9393203855 
-0.6201074123 -15.47513866 2.499193907 0.9391767383 
0.06884276867 -15.47536373 2.497248173 0.9392225146 
1.45042479 -15.47579288 2.508234501 0.9389634132 
4.307343483 -15.47668171 2.592355013 0.9369823337 
5.833388329 -15.47716522 2.6690166 0.9351804256 
6.633994102 -15.47740936 2.717308998 0.9340472221 
7.443637371 -15.43178463 2.764747143 0.9329352379 
9.245141029 -15.47822475 2.909312725 0.9295550585 
10.20598125 -15.47852707 2.991822958 0.9276311994 
11.22498512 -15.47884464 3.085434437 0.9254533648 
13.86302662 -15.92057323 3.406532526 0.9180220366 
14.91765594 -15.66635418 3.490806103 0.9160814881 
53.51105499 -23.21847916 9.412765503 0.7895097136 
29.18138695 32.33203888 7.028135777 0.8382256031 
26.67048264 32.33281326 6.763451576 0.8438149691 
9.252289772 12.29213142 2.482655525 0.9395666718 
8.670092583 12.65324879 2.475166798 0.9397433996 
8.414169312 13.53388882 2.571594477 0.9374707937 
4.831469536 8.602509499 1.592120647 0.9608122706 
16.39175224 32.49172974 5.872546196 0.8629034758 
15.83074665 39.83882141 6.917652607 0.8405541778 
15.89601994 45.8483963 7.830506325 0.8215073943 
10.06717777 49.60053635 8.167114258 0.8145932555 
5.386137486 48.21564484 7.828835964 0.821541667 
-1.073046803 48.21639633 7.782491684 0.8224982619 
-7.817150593 49.78510666 8.132138252 0.8153090477 
-6.519989967 32.12378693 5.289433479 0.8756303787 
-8.002846718 32.04350662 5.329612255 0.8747475147 
-14.88807583 42.9412384 7.333991051 0.8318131566 
-18.20166016 32.40838623 5.998027325 0.8601890802 
-22.4202404 32.72041321 6.40060854 0.8515377641 
-24.34873962 32.34857559 6.53347826 0.8487015367 
-19.77579498 13.94207096 3.904515266 0.9066149592 
-20.53816605 13.15215778 3.935507774 0.9059096575 
-23.39455605 12.19679928 4.257383347 0.8986177444 
-29.87993622 -14.57703304 5.364839554 0.8739740849 
-21.13208961 -15.4686842 4.226000786 0.8993259668 
-16.10251999 -15.47025585 3.603308678 0.9134975076 
-12.24202633 -15.39114475 3.173466682 0.9234099984 
-10.60455513 -16.08299446 3.108661413 0.9249138832 
-10.60569763 -19.69668198 3.609877825 0.913346827 
-10.30168915 -21.35692596 3.826295137 0.9083971381 
-9.172299385 -21.39936638 3.757003784 0.9099789858 
-8.065634727 -21.39971352 3.690358162 0.9115030766 
-2.854926586 -15.47444534 2.539217234 0.9382333159 
-1.45028317 -15.47488022 2.508088112 0.9389669299 
-0.7580566406 -15.4750948 2.500175714 0.9391534925 
2.008281231 -15.47596359 2.518258333 0.9387271404 
2.69901371 -15.39586163 2.522282124 0.938632369 
3.429033041 -15.476408 2.557957649 0.9377919436 
4.159257889 -15.47663784 2.586043358 0.9371308088 
6.471503735 -15.47736073 2.707080364 0.9342871308 
7.29665041 -15.4776144 2.761214495 0.9330180287 
8.114872932 -15.39755058 2.808612108 0.9319083095 
10.00950623 -15.47846413 2.974478483 0.9280352592 
14.88196754 -15.90995789 3.515445471 0.9155150056 
33.66122818 -11.5031395 5.740252495 0.8657746911 
20.16334343 12.66057873 3.841940165 0.9080403447 
19.85859299 15.08653069 4.024394035 0.9038900733 
23.66554642 23.56047058 5.388700008 0.8734506369 
27.15758705 32.3326683 6.81372261 0.8427506089 
8.042275429 14.02552414 2.60893774 0.9365922213 
15.89112282 34.50069427 6.129472733 0.8573545814 
15.83043957 38.82736588 6.766221046 0.8437561989 
15.83213806 44.38431549 7.604209423 0.8261884451 
14.81562996 48.21264648 8.139018059 0.8151683211 
12.86437511 49.62668991 8.272833824 0.8124340177 
10.5654583 49.77940369 8.211724281 0.8136814237 
8.010565758 48.21348572 7.886748314 0.8203479648 
5.820883751 48.21529007 7.836882114 0.8213757873 
1.551162124 49.78220749 8.037137985 0.8172561526 
-4.952406883 48.21958923 7.822014809 0.8216825128 
-7.363669395 49.78496933 8.121084213 0.8155353069 
-6.281013012 32.42427444 5.329493999 0.8747500181 
-13.88403797 48.22153091 8.097506523 0.8160182238 
-14.95258236 34.04491043 6.000266552 0.8601406813 
-17.82441521 32.40870285 5.968497753 0.8608270884 
-19.75024033 32.40708542 6.124094009 0.857470572 
-19.52298737 14.02564526 3.879096031 0.9071937799 
-20.47522163 13.3703146 3.946093559 0.9056688547 
-20.42117119 12.07462597 3.828262329 0.9083523154 
-32.69951248 8.943968773 5.470475197 0.8716592789 
-59.19343948 -16.19058228 9.902773857 0.7798556685 
-30.31283188 -14.45576382 5.41926384 0.8727807403 
-29.81727409 -15.88444519 5.451710701 0.8720698357 
-24.81526375 -16.20437241 4.782531738 0.8868464231 
-12.53228951 -15.47137451 3.212885618 0.9224965572 
-10.60556602 -19.28343964 3.551292658 0.9146912694 
-10.30153751 -20.87981606 3.757089138 0.9099770188 
-9.398500443 -21.39929962 3.771523237 0.9096472859 
-8.283779144 -21.39965057 3.702908278 0.9112158418 
-9.40504837 -27.92744255 4.755276203 0.8874534965 
-8.041049957 -27.92787361 4.68973875 0.8889151216 
-3.718652248 -15.47417164 2.568121672 0.9375526309 
-2.997592688 -15.47440147 2.543487072 0.9381327033 
-0.8962011337 -15.47505093 2.501356363 0.9391256571 
-0.2066113204 -15.47527027 2.49743104 0.9392182231 
1.86835444 -15.47591972 2.515447378 0.9387934804 
2.571318388 -15.47614002 2.531584024 0.9384131432 
3.991122961 -15.39626217 2.566577435 0.9375889897 
4.756054401 -15.47681808 2.612723351 0.9365032911 
5.520820141 -15.47705269 2.651634216 0.9355887771 
6.310312271 -15.4773016 2.697142363 0.9345202446 
7.940605164 -15.39751148 2.795605421 0.9322127104 
10.75373554 -15.398386 3.030761719 0.9267246723 
11.86836433 -15.47904491 3.147531748 0.9240115285 
13.56007767 -16.14408493 3.402169228 0.9181226492 
15.15649414 -15.08921146 3.451170683 0.9169937372 
50.58884811 -46.0694809 11.04115677 0.7578800321 
22.03442383 13.56349373 4.175290585 0.9004718065 
20.47039032 13.89302921 3.992187977 0.9046211839 
19.80918503 14.77276134 3.987572432 0.904726088 
27.65204048 32.3325119 6.865294456 0.8416600823 
9.624272346 12.32359123 2.523211241 0.9386104345 
8.684902191 12.20323658 2.41699481 0.9411169887 
8.545659065 13.21490479 2.539488792 0.9382269382 
8.132939339 13.89565372 2.598140001 0.9368462563 
15.89047813 33.70678711 6.013308048 0.8598589897 
15.83014107 37.85959244 6.621860027 0.8468202353 
15.28648853 48.21226501 8.161599159 0.8147062063 
13.08583927 48.69240189 8.136173248 0.8152263761 
8.452178001 48.21312332 7.898687363 0.8201021552 
6.256747723 48.21493149 7.845565796 0.8211967349 
1.988759756 49.63005829 8.015108109 0.8177082539 
-4.519208908 48.21922684 7.815124989 0.8218246698 
-6.890497684 49.63281631 8.085949898 0.8162552118 
-7.299304008 31.60935974 5.234958172 0.8768288493 
-14.88913536 39.50382614 6.812390804 0.8427788019 
-15.63061047 32.40456009 5.805585861 0.8643555045 
-17.45066452 32.40901566 5.939715862 0.8614494801 
-19.35695457 32.4074173 6.091352463 0.8581757545 
-21.47891045 32.57517624 6.296411037 0.8537685275 
-25.73019981 32.34900284 6.66997242 0.8457978368 
-28.16894913 32.34975052 6.921896935 0.8404647112 
-28.75316811 -16.65755653 5.362216473 0.8740317225 
-25.25996017 -16.17588043 4.840289593 0.8855611682 
-21.94081497 -15.4684248 4.331971169 0.8969362974 
-19.99032593 -15.46903515 4.078816891 0.9026556611 
-18.25193787 -15.46958256 3.860845327 0.9076095223 
-16.60024452 -15.38978195 3.652808189 0.9123628139 
-15.26527309 -15.47051525 3.50716114 0.915705502 
-11.64549732 -15.47165203 3.124829531 0.9245384932 
-10.60543442 -18.88317108 3.494829655 0.9159890413 
-10.3013916 -20.41940689 3.690598726 0.9114975333 
-9.626591682 -21.39922142 3.786466599 0.909306109 
-8.503544807 -21.39958191 3.715847731 0.9109198451 
-8.310932159 -27.92778969 4.701958656 0.8886423707 
-3.864653349 -15.47413254 2.573721886 0.9374207854 
-3.14074707 -15.4743576 2.54797411 0.9380270243 
-1.728676677 -15.47479725 2.512664318 0.9388590455 
-0.3443359435 -15.4752264 2.497817039 0.939209044 
1.728788972 -15.47587585 2.512839079 0.9388549328 
3.141142607 -15.4763155 2.548296213 0.9380194545 
3.865253925 -15.47654533 2.574122667 0.9374113679 
6.150185585 -15.4772625 2.687486172 0.9347468615 
6.962666035 -15.47751141 2.738650084 0.9335467815 
8.693002701 -15.47805405 2.864619732 0.9305986762 
9.623042107 -15.47834206 2.941062212 0.9288142323 
13.61780739 -16.50883484 3.453366518 0.9169431329 
33.57795715 -12.14626408 5.762007713 0.8653019071 
64.72444153 24.72454834 11.1805315 0.7552326918 
62.89661026 34.22847366 11.55506325 0.7481636405 
21.30341339 12.8535614 4.014939308 0.9041045904 
20.66018105 13.75483608 4.005164146 0.9043264985 
19.44542885 14.23401546 3.888696194 0.9069749117 
28.15406227 32.33235931 6.918200493 0.8405426741 
8.199852943 13.72831535 2.580392599 0.9372638464 
15.94904709 33.0651207 5.923915863 0.8617911339 
15.82985783 36.9317627 6.483970642 0.8497573137 
15.94722176 42.31164932 7.296590328 0.8325946927 
13.41826153 48.21379852 8.075828552 0.8164624572 
4.518769264 48.21636581 7.814657211 0.8218343258 
0.2148925662 48.29885483 7.793948174 0.8222616911 
-1.931909084 48.21709824 7.786924839 0.8224067688 
-4.086557388 48.21887589 7.808860779 0.8219538927 
-7.04130125 31.77913666 5.252496243 0.8764429092 
-12.95932102 48.22172928 8.057530403 0.8168377876 
-14.9495697 47.14896774 7.981609344 0.8183964491 
-15.37264824 41.91340637 7.204041481 0.8345317245 
-14.95293427 35.76124191 6.254858971 0.8546597362 
-15.35530949 32.57161713 5.810795784 0.8642424345 
-17.08064651 32.40932465 5.911684036 0.8620559573 
-20.95614052 32.40607071 6.227443218 0.855248332 
-23.02178192 32.34816742 6.406943321 0.8514024019 
-25.26348114 32.34885788 6.623337269 0.8467888832 
-27.66638565 32.34959793 6.868893147 0.8415839672 
-20.13730621 13.66684341 3.927223444 0.9060981274 
-20.97360611 12.91048717 3.974277258 0.9050281644 
-39.95283127 -18.18736458 7.083681107 0.8370576501 
-29.33908081 -16.65011978 5.443641663 0.872246623 
-25.80690765 -16.2040596 4.917265415 0.8838512897 
-22.3604641 -15.46829319 4.387475014 0.8956871033 
-18.58456039 -15.46947479 3.901931763 0.9066736698 
-14.21504402 -15.47084236 3.390314817 0.9183959961 
-12.99493599 -15.47122288 3.260377169 0.9213972688 
-10.60476017 -16.72369385 3.195499897 0.9228993654 
-10.60531235 -18.49538803 3.440395355 0.9172418714 
-2.571118116 -15.47453308 2.531322002 0.9384192824 
-1.868207932 -15.47475338 2.515256643 0.9387979507 
-1.17293942 -15.47496796 2.504321814 0.9390557408 
-0.4821777344 -15.47518253 2.498404503 0.9391952157 
0.2066747993 -15.4754076 2.497452259 0.9392176867 
0.8962353468 -15.47561741 2.501447916 0.9391234517 
2.289052725 -15.47605228 2.524504423 0.9385799766 
5.212128639 -15.47696018 2.635298967 0.9359725118 
6.762362957 -15.39713097 2.713671207 0.9341325164 
7.596738338 -15.39738941 2.770594358 0.932798326 
9.384145737 -15.39795589 2.909807444 0.9295434356 
13.45410633 -16.60952759 3.449229002 0.9170383811 
14.21931648 -16.03920555 3.458862782 0.9168165922 
15.03297329 -15.50855637 3.485336781 0.9162073731 
34.73389435 9.500388145 5.810805321 0.8642421961 
21.73785019 12.85303402 4.075084209 0.9027402997 
20.84449196 13.61145687 4.01725769 0.9040519595 
19.20443344 13.7966423 3.81578064 0.9086369872 
61.90325165 48.78938293 12.7188158 0.7266182899 
9.071967125 12.27843475 2.463489532 0.9400189519 
7.884321213 14.33555412 2.640078306 0.9358602166 
15.82957935 36.04213715 6.352250099 0.8525722623 
16.23728943 41.94552612 7.258100033 0.833399713 
15.89574146 47.20095444 8.037028313 0.8172584772 
13.88195324 48.21341705 8.096157074 0.8160459399 
11.9260397 49.62697983 8.236180305 0.8131818771 
7.131357193 48.2142067 7.864850998 0.8207990527 
-1.50235343 48.21674728 7.784393311 0.8224589229 
-3.654746056 48.21851349 7.803225994 0.8220701814 
-5.991967678 49.63253784 8.0672369 0.8166386485 
-8.241107941 49.59992218 8.113539696 0.815689683 
-6.755548954 31.82897568 5.250580788 0.8764850497 
-14.89004803 36.52128983 6.364348412 0.8523133397 
-16.71372223 32.40963364 5.884356022 0.8626477122 
-20.54979897 32.40641403 6.192130566 0.8560070395 
-24.80319786 32.34871674 6.577863216 0.8477563262 
-20.75786972 13.03377438 3.955217123 0.9054614305 
-20.50401306 11.63616467 3.804362059 0.9088976383 
-41.00486374 -18.22720337 7.241132736 0.8337548375 
-29.62099075 -14.77856159 5.341752052 0.8744808435 
-26.32385635 -16.20389938 4.988093853 0.882280767 
-18.85069275 -15.40915203 3.928862333 0.9060606956 
-15.81833935 -15.47034359 3.570394278 0.9142528176 
-13.23140621 -15.47115421 3.285038948 0.9208268523 
-12.08278751 -15.47150612 3.16775012 0.9235426784 
-10.60465813 -16.39877129 3.151335955 0.9239233732 
-10.60519981 -18.11967087 3.387923002 0.9184510708 
-8.947797775 -21.39943504 3.742892981 0.9103015065 
-2.008051634 -15.47470951 2.518052101 0.938732028 
0.06884276867 -15.47536373 2.497248173 0.9392225146 
0.7581493855 -15.47557831 2.500252247 0.9391516447 
1.450356364 -15.47579288 2.508233547 0.9389634728 
5.059247971 -15.47691631 2.62752223 0.9361553192 
6.633994102 -15.47740936 2.717308998 0.9340472221 
8.334106445 -15.47793674 2.836695194 0.9312514663 
12.24813938 -15.39884949 3.175056696 0.9233732224 
13.86301231 -15.92041206 3.406509876 0.9180225134 
53.51105499 -23.21847916 9.412765503 0.7895097136 
20.53001022 14.47377205 4.053414822 0.9032315612 
29.18138695 32.33203888 7.028135777 0.8382256031 
9.252289772 12.29213142 2.482655525 0.9395666718 
8.414169312 13.53388882 2.571594477 0.9374707937 
4.831503868 8.602495193 1.592121601 0.9608122706 
15.8918066 35.32677078 6.250841618 0.8547458649 
15.89601517 45.8490715 7.830608368 0.8215052485 
14.34755325 48.21303558 8.117215157 0.8156147003 
10.06717777 49.60053635 8.167114258 0.8145932555 
5.386137486 48.21564484 7.828835964 0.821541667 
1.107919931 49.782341 8.035244942 0.8172948956 
-1.073046803 48.21639633 7.782491684 0.8224982619 
-5.544396877 49.63240051 8.058876991 0.8168100715 
-8.00262928 32.04323196 5.32956028 0.8747486472 
-14.3500433 48.22143555 8.118617058 0.8155857921 
-14.88976002 37.47077942 6.506472111 0.8492773771 
-14.95241928 33.23777771 5.881239891 0.8627151847 
-22.4203186 32.7202301 6.400590897 0.8515381217 
-26.68430138 32.34929276 6.766926765 0.8437414765 
-19.77579498 13.94207096 3.904515266 0.9066149592 
-20.53361702 11.89571095 3.829337597 0.9083277583 
-23.3949337 12.19687462 4.257440567 0.8986164331 
-29.87997437 -14.57721424 5.364857197 0.8739736676 
-29.24731827 -15.91648197 5.373180389 0.8737910986 
-26.66100502 -16.08610535 5.024661064 0.8814711571 
-21.13208961 -15.4686842 4.226000786 0.8993259668 
-19.27195358 -15.46926022 3.987794161 0.9047210217 
-16.10265541 -15.47025585 3.603324413 0.9134971499 
-14.73132324 -15.47067547 3.447206974 0.9170849919 
-13.47173786 -15.47107601 3.310364962 0.9202414155 
-10.60455513 -16.08299446 3.108661413 0.9249138832 
-10.60569763 -19.69668198 3.609877825 0.913346827 
-10.30169392 -21.35715485 3.826328754 0.9083963633 
-9.172299385 -21.39936638 3.757003784 0.9099789858 
-2.148344755 -15.47466564 2.521059513 0.9386611581 
-1.45028317 -15.47488022 2.508088112 0.9389669299 
-0.7581347227 -15.47509956 2.500175953 0.9391534925 
-0.06884276867 -15.47531986 2.497239351 0.9392226934 
0.6200537086 -15.47553444 2.499253988 0.9391751885 
2.69901371 -15.39586163 2.522282124 0.938632369 
3.429101467 -15.47640324 2.557960033 0.9377918839 
4.159257889 -15.47663784 2.586043358 0.9371308088 
4.907265663 -15.47686291 2.620000839 0.9363321662 
5.676562309 -15.47710133 2.660191536 0.9353877902 
6.471581936 -15.47736073 2.707084656 0.9342870116 
10.00950623 -15.47846413 2.974478483 0.9280352592 
12.08742142 -15.47746754 3.168964863 0.9235144258 
33.66122818 -11.50297546 5.740245819 0.8657748699 
20.28215218 14.03057861 3.979677677 0.9049054384 
19.85856819 15.08636475 4.024374485 0.9038904905 
9.436307907 12.30717278 2.502554893 0.9390974045 
8.708867073 12.47030735 2.454447985 0.9402323961 
8.496747971 13.3993578 2.560297251 0.9377368093 
7.56350565 14.66641331 2.662862778 0.9353250265 
15.83044434 38.82784271 6.766294003 0.8437547088 
15.83214283 44.38367081 7.604113579 0.8261904716 
14.81562996 48.21264648 8.139018059 0.8151683211 
8.010771751 48.21348572 7.886753559 0.8203478456 
3.761708975 49.62950897 8.031567574 0.8173704147 
1.551162124 49.78220749 8.037137985 0.8172561526 
-2.792436361 48.21781158 7.793827534 0.8222641349 
-4.952621937 48.21958923 7.822018147 0.8216824532 
-6.281115532 32.42413712 5.329474926 0.8747504354 
-14.8894577 38.46369934 6.655616283 0.8461028934 
-15.98929405 32.40776825 5.831432819 0.8637948036 
-22.14131355 32.93831635 6.404422283 0.8514561057 
-23.90076065 32.34843826 6.490247726 0.8496233225 
-20.47522163 13.3703146 3.946093559 0.9056688547 
-20.42122078 12.07454967 3.828262806 0.9083523154 
-39.63960266 -12.76279736 6.329868793 0.8449417353 
-34.21050262 -12.72046089 5.547870159 0.862713635 
-42.95782471 -18.18687248 7.090713501 0.8280020952 
-30.29752922 -14.44841003 5.102109909 0.8730107546 
-28.42432594 -16.8066864 5.019276619 0.8749378324 
-23.68746567 -15.46788311 4.300177574 0.8918460608 
-21.53149796 -15.4685564 4.029838085 0.8982869387 
-19.62703133 -15.46915245 3.798552275 0.9038341641 
-17.92609787 -15.4696846 3.59910512 0.908645153 
-14.9182272 -15.39030457 3.257990599 0.9169331789 
-12.53227043 -15.47137451 3.026391029 0.9226031303 
-10.60497093 -17.40116882 3.097490072 0.9208588004 
-10.60626411 -21.49735641 3.643676758 0.9075677395 
-9.405087471 -27.92744827 4.479257107 0.8876051307 
-8.041089058 -27.92787361 4.417521954 0.889064908 
-2.28885746 -15.47462082 2.377747059 0.9386706352 
-1.589355469 -15.47484112 2.36456418 0.9390000701 
-0.8962011337 -15.47505093 2.356166124 0.9392100573 
0.4822021425 -15.47549057 2.353429556 0.9392783642 
1.868359327 -15.47592449 2.369434118 0.9388782978 
3.284804583 -15.47636414 2.404824257 0.9379943609 
3.99108386 -15.39626217 2.417598009 0.9376754761 
5.520791054 -15.47705746 2.497716904 0.9356779456 
7.128984451 -15.47756577 2.590166569 0.9333782196 
10.75371552 -15.39838123 2.854836464 0.9268257022 
11.86837387 -15.47904968 2.964831829 0.9241160154 
13.76723576 -16.39069939 3.253641367 0.917039156 
50.51862335 -46.00545883 10.3858223 0.758472383 
64.13272095 15.71417713 10.03659248 0.765555799 
21.67791367 12.04849815 3.769800901 0.9045260549 
21.38559532 13.16408443 3.817124605 0.9033874869 
8.344961166 11.72553921 2.187581778 0.9434340596 
7.528408051 14.28471184 2.454378843 0.9367579222 
15.89047813 33.70671082 5.664254665 0.8600450754 
15.89400387 38.01220703 6.262635231 0.8464550376 
15.83177662 43.16502762 6.988512993 0.8302573562 
15.26658154 48.14941406 7.677830219 0.8151625991 
10.6886034 48.24123764 7.510541916 0.8188004494 
6.248583794 48.15221405 7.380558491 0.8216385245 
4.080922604 48.15288925 7.34552145 0.8224049807 
-4.513114929 48.15555191 7.351766586 0.8222683072 
-7.429113388 32.17172623 5.018823624 0.8749483228 
-14.88727474 45.54230499 7.282947063 0.8237760067 
-14.95275116 34.88552094 5.769200802 0.8576459289 
-15.63058281 32.4045639 5.468595028 0.8645359278 
-19.3569622 32.40741348 5.73777771 0.8583636284 
-25.73021507 32.34899902 6.282812595 0.8460006118 
-28.16898346 32.34975433 6.520111561 0.8406737447 
-20.23408127 13.47119236 3.69487977 0.9063317776 
-60.39841843 -15.94389343 9.495108604 0.7766700387 
-39.02878189 -18.18765831 6.544942379 0.8401184082 
-28.92943764 -15.08242893 4.959043503 0.8763418198 
-28.73419952 -16.64660454 5.047633171 0.8742776513 
-21.94078636 -15.46842003 4.080514431 0.8970760703 
-19.99030304 -15.46903515 3.842057943 0.902788043 
-13.96337891 -15.47091961 3.167773485 0.9191376567 
-12.76189423 -15.47130108 3.048472643 0.9220610261 
-10.60436535 -15.47611523 2.851638079 0.9269046187 
-10.60486317 -17.05751228 3.052997351 0.9219499826 
-10.60543442 -18.88314247 3.291964054 0.9161041975 
-10.6061182 -21.02339554 3.579202175 0.9091266394 
-10.30217743 -22.90099716 3.816979885 0.9033908248 
-3.864648342 -15.474123 2.424328327 0.9375075698 
-1.728657246 -15.47479725 2.366813183 0.9389438629 
-0.3443652391 -15.4752264 2.352832317 0.9392933846 
0.3443700969 -15.4754467 2.352863789 0.9392925501 
1.034497023 -15.47566128 2.357565165 0.9391750097 
1.728764653 -15.47587585 2.366980314 0.9389397502 
2.429999828 -15.47609615 2.381201744 0.9385843277 
3.86524415 -15.47654533 2.424706697 0.9374980927 
4.605663776 -15.47677422 2.454438448 0.9367563725 
5.338144302 -15.39669132 2.476981401 0.9361945391 
6.150185585 -15.4772625 2.53149128 0.9348371625 
7.808383465 -15.47777557 2.635069132 0.9322633147 
8.693032265 -15.47804928 2.698343515 0.9306944609 
10.60610294 -15.47865486 2.852106571 0.9268930554 
11.65104961 -15.47898197 2.9448421 0.9246079326 
13.73193836 -16.64726257 3.280178785 0.9163914919 
33.57796478 -12.14622021 5.427542686 0.8654811382 
65.05564117 24.85075951 10.58541203 0.7544535398 
62.51595688 34.02143097 10.81847191 0.7497878075 
20.40503883 13.58503151 3.726097345 0.9055789113 
61.73371887 54.24027252 12.49097919 0.7171404362 
25.71760178 32.33311844 6.279727459 0.8460700512 
8.158183098 13.65842533 2.41824007 0.9376594424 
7.633764267 14.17724323 2.447492599 0.9369296432 
7.101591587 14.72264576 2.484595299 0.9360048175 
13.4006834 48.14999008 7.597002506 0.8169181943 
11.11898422 48.15070343 7.511557579 0.8187783957 
-6.249094009 48.1560936 7.381145 0.8216255307 
-5.606008053 31.97801399 4.934819221 0.876906991 
-6.843813419 30.8884182 4.808933735 0.8798502088 
-14.8868475 46.95167923 7.486852169 0.8193172216 
-15.37269783 41.91337967 6.785874367 0.8347478509 
-17.08051682 32.40932846 5.568528175 0.8622393608 
-18.96791267 32.40774155 5.70772028 0.8590506315 
-27.66653824 32.34959412 6.47019434 0.841791451 
-19.72669601 13.38830948 3.623846292 0.90804708 
-20.66568375 12.72093678 3.688626528 0.9064826369 
-39.95304489 -18.18736458 6.67253828 0.8372701406 
-29.5625 -15.07941628 5.044353008 0.8743540049 
-29.10756302 -16.51864433 5.08718729 0.873357594 
-22.36052132 -15.46829319 4.132809162 0.8958281875 
-18.48814964 -15.38919163 3.656372547 0.9072611928 
-15.53944778 -15.47042656 3.332978487 0.9151046276 
-10.74901867 -15.39161301 2.85358429 0.9268565774 
-10.60597134 -20.5659008 3.517244816 0.9106271863 
-10.30200195 -22.36639786 3.743014336 0.9051712751 
-10.30291939 -25.27017212 4.14807415 0.8954643011 
-8.582182884 -27.92770767 4.440953255 0.8885104656 
-4.011269569 -15.47407436 2.429816008 0.9373705983 
-3.284369946 -15.47431374 2.404507399 0.9380022883 
-2.571069241 -15.47453308 2.384388447 0.9385046959 
-1.868227482 -15.47475338 2.369258165 0.9388827682 
-1.172880888 -15.47496796 2.358956814 0.9391402602 
0.2066064477 -15.4754076 2.352484703 0.9393020272 
0.8962353468 -15.47562218 2.356250763 0.9392079115 
2.289052725 -15.47605228 2.377966166 0.9386651516 
3.719238281 -15.47650146 2.419416189 0.9376300573 
4.456113338 -15.47673035 2.448046446 0.9369158149 
6.762402058 -15.39713573 2.556155682 0.9342235923 
7.636318207 -15.47772217 2.62338686 0.9325532913 
8.512680054 -15.47799492 2.685018778 0.931024611 
9.384130478 -15.39795589 2.740905046 0.9296406507 
10.40485287 -15.47859097 2.834920645 0.9273172021 
11.43661594 -15.47891331 2.925349712 0.9250878096 
13.89377403 -17.15219498 3.35517621 0.9145640731 
13.8067131 -15.5737915 3.163549662 0.9192409515 
34.73391342 9.500480652 5.473522663 0.8644225597 
65.03373718 24.18141365 10.54641056 0.7552371621 
20.56534576 13.42913342 3.733395815 0.905403018 
20.21598625 14.52345467 3.783621788 0.9041933417 
28.66358376 32.3321991 6.567727089 0.8396089077 
10.41002941 14.08946037 2.662757874 0.9315764904 
15.89251423 36.18518829 6.007287025 0.8522278666 
15.83293438 47.01433563 7.540574551 0.8181461096 
13.86348629 48.14985275 7.616150379 0.8165020347 
11.57130814 48.1505661 7.527303696 0.8184352517 
7.122148514 48.15194321 7.39876461 0.8212401867 
4.945541859 48.15261459 7.357745171 0.822137475 
0.6473535299 48.48815155 7.370901108 0.8218495846 
-1.500478506 48.15461731 7.323102951 0.8228959441 
-3.649804592 48.15528107 7.340638161 0.8225118518 
-5.813742638 48.15595627 7.372899532 0.8218058944 
-5.339411736 32.13644791 4.95173502 0.8765121698 
-6.908617973 32.54983139 5.057823181 0.874040544 
-15.04939461 42.18970108 6.80865097 0.8342418671 
-14.95312023 36.67567062 6.0202775 0.8519333005 
-15.11861801 32.82361603 5.493029118 0.863973856 
-27.17165947 32.34944153 6.421542168 0.8428823352 
-22.01975632 12.49628735 3.848438025 0.9026347399 
-60.05089569 -14.71405506 9.397808075 0.7786841393 
-41.00440216 -18.22720909 6.820751667 0.8339732289 
-22.79121971 -15.46816158 4.186805725 0.8945416212 
-17.29422379 -15.46988487 3.526970863 0.9103915095 
-15.81841278 -15.47033882 3.36315608 0.9143700004 
-14.47110844 -15.47076416 3.219974279 0.917861402 
-11.01117134 -15.47184753 2.886515856 0.9260445833 
-10.60519981 -18.11957169 3.191259623 0.9185632467 
-10.60583019 -20.12389755 3.457666636 0.9120725989 
-10.30272961 -24.64014816 4.059548378 0.8975768685 
-10.24289513 -27.92717934 4.5214715 0.8866083026 
-4.136977673 -15.39372253 2.422885895 0.937543571 
-3.428559542 -15.47426987 2.409145117 0.9378864765 
-2.698725462 -15.39417648 2.375614882 0.9387239218 
-1.304697275 -15.39461136 2.34838438 0.9394045472 
-0.6200780869 -15.47513866 2.354123592 0.9392610788 
0.7581103444 -15.47557831 2.355123758 0.9392360449 
1.450395465 -15.47579288 2.36264205 0.9390481114 
2.855292797 -15.47622776 2.392103195 0.9383120537 
3.573827982 -15.47645187 2.414343119 0.9377567768 
5.059257507 -15.47691631 2.475007534 0.9362436533 
6.633994102 -15.47741413 2.559580326 0.9341384172 
7.46576643 -15.47766781 2.612013102 0.9328356981 
8.334106445 -15.47793674 2.672036886 0.9313464165 
9.245141029 -15.47821999 2.740436077 0.9296522737 
12.24813938 -15.39885426 2.990757465 0.9234786034 
13.80660629 -15.85571003 3.195729971 0.9184538722 
65.31525421 23.62663841 10.55754852 0.7550132871 
29.1815033 32.33204269 6.620194435 0.8384370804 
8.448431969 12.32969189 2.271879911 0.9413195252 
7.31640625 14.50257015 2.469040394 0.9363923669 
15.91606903 40.05353546 6.551232815 0.8399775624 
15.83253384 45.66525269 7.346510887 0.8223832846 
12.0255661 48.15042877 7.543715 0.8180778027 
10.06706047 49.60051727 7.693030357 0.8148325682 
7.560605526 48.15180588 7.408792973 0.82102108 
3.218896389 48.15315247 7.335654259 0.8226209283 
-5.379338264 48.15581894 7.365257263 0.8219730854 
-6.681369305 32.91889191 5.105728626 0.872926712 
-14.33133984 48.15858459 7.637403011 0.8160402775 
-16.35048294 32.40993881 5.517746925 0.8634055853 
-22.45998764 32.77824402 6.039742947 0.8514918685 
-26.68416405 32.34929657 6.37412262 0.8439469934 
-19.33369637 13.63038826 3.595651865 0.908728838 
-20.09309959 12.86713314 3.62673521 0.907977283 
-21.27656174 12.32612324 3.737573862 0.9053024054 
-42.00714874 -18.22689629 6.960285664 0.830881536 
-29.89123535 -14.58260918 5.055348396 0.8740980625 
-26.66099548 -16.0860424 4.732992649 0.8816304803 
-23.23332024 -15.46802902 4.242563248 0.893214941 
-21.13219643 -15.46867847 3.980714083 0.8994622827 
-19.27187538 -15.46926022 3.756311655 0.9048509598 
-12.24202633 -15.39114952 2.989257812 0.9235153198 
-10.60455513 -16.08299065 2.928215265 0.9250172377 
-10.60569763 -19.6966629 3.400339365 0.9134653807 
-10.60641575 -21.98867798 3.71081233 0.9059475064 
-10.30252934 -24.03626251 3.975003481 0.8995989561 
-10.30357361 -27.33760452 4.44068861 0.8885167837 
-9.129169464 -27.92753029 4.466058731 0.8879169822 
-2.854965687 -15.47444534 2.391825914 0.9383189082 
-2.148305655 -15.47466564 2.374722242 0.9387462139 
-1.450317383 -15.47488022 2.362504721 0.9390515685 
-0.7580956817 -15.4750948 2.355051756 0.9392378926 
-0.06888183206 -15.47531986 2.352288485 0.9393069744 
1.304760695 -15.39542675 2.348507881 0.9394014478 
2.008266449 -15.47596359 2.372083187 0.9388121367 
2.69901371 -15.39586163 2.375873327 0.9387174249 
4.159257889 -15.47663784 2.435933828 0.9372179508 
4.907187462 -15.47686768 2.467916727 0.9364204407 
5.676562309 -15.47710705 2.505777121 0.9354771972 
6.471552372 -15.47736549 2.549946785 0.9343779683 
7.29668951 -15.4776144 2.600943565 0.9331105947 
8.157250404 -15.47788334 2.659390211 0.9316599965 
9.059204102 -15.47816086 2.726044655 0.930008471 
11.01608849 -15.4787817 2.8878057 0.9260127544 
12.08743095 -15.47754097 2.98502779 0.9236193895 
13.72805119 -16.05179977 3.210490704 0.9180929661 
14.828022 -15.85227776 3.29938221 0.9159232974 
53.72548676 -23.88185692 8.936781883 0.7882984281 
73.95605469 33.66618729 12.35133553 0.7198110223 
20.88897324 13.11615467 3.74916625 0.9050230384 
20.22953606 13.99411392 3.738942146 0.9052693248 
9.739926338 11.59593487 2.301857948 0.9405686855 
8.332304955 13.13990688 2.364991903 0.9389894009 
15.89113712 34.5008812 5.77370882 0.8575428724 
15.83214283 44.38401413 7.162774086 0.8264152408 
14.79635715 48.14957047 7.656552792 0.8156244159 
10.28830051 48.47306442 7.532084942 0.8183311224 
8.000385284 48.15166855 7.419441223 0.8207885623 
5.813281059 48.15235138 7.372350216 0.8218179345 
-0.6428955197 48.1543541 7.320155621 0.8229603767 
-2.788789034 48.15501785 7.331871033 0.8227038383 
-9.379443169 48.41922379 7.496583462 0.8191047907 
-14.88768482 44.20734406 7.090376854 0.8280094266 
-14.95257759 34.04510117 5.652002335 0.8603256345 
-15.98919392 32.40776825 5.492932796 0.8639760017 
-23.94476318 32.40798187 6.124773026 0.8495670557 
-26.20378876 32.3491478 6.327890873 0.8449861407 
-32.69948959 8.944039345 5.152939796 0.8718306422 
-58.96192551 -16.12739944 9.291477203 0.78089118 
-42.95782471 -18.18687248 7.090713501 0.8280020952 
-30.08625984 -16.02766228 5.181581974 0.8711659908 
-21.53145027 -15.4685564 4.029833317 0.8982870579 
-17.92608452 -15.4696846 3.599103212 0.9086452127 
-13.71559525 -15.47099781 3.142669678 0.9197519422 
-12.53228951 -15.47136974 3.026389122 0.9226031303 
-11.43128872 -15.4717207 2.923987627 0.9251213074 
-10.60446262 -15.7755537 2.889308691 0.9259756804 
-10.60497093 -17.4011879 3.097491741 0.9208587408 
-10.30235291 -23.45712662 3.894236326 0.9015350342 
-8.041049957 -27.92787361 4.417520523 0.8890649676 
-2.288842678 -15.47462082 2.377744913 0.9386706352 
-0.8962011337 -15.47505093 2.356166363 0.9392100573 
-0.206616208 -15.47527599 2.352466583 0.9393025041 
0.4821923673 -15.47549057 2.353429556 0.9392783642 
2.571347713 -15.47614002 2.384635448 0.9384985566 
3.284814358 -15.47635937 2.404824495 0.9379943609 
3.991093636 -15.39626217 2.417598009 0.9376754761 
4.756025314 -15.47682381 2.461063385 0.9365912676 
5.520791054 -15.47705746 2.497716427 0.9356779456 
6.310263634 -15.47731209 2.540583372 0.9346109033 
7.128969669 -15.47756577 2.59016633 0.9333782196 
9.764247894 -15.3980732 2.77142787 0.9288856983 
10.75373554 -15.39838123 2.854837179 0.9268256426 
64.13272095 15.71417713 10.03659248 0.765555799 
74.24853516 33.00484848 12.35062981 0.7198243737 
21.67790985 12.04849815 3.769800901 0.9045260549 
21.38553619 13.16405964 3.817112446 0.9033877254 
20.22157097 13.72415257 3.714751005 0.9058524966 
20.49551773 15.28458214 3.886245728 0.9017267823 
10.48740673 13.42875195 2.589897156 0.9333848953 
8.344961166 11.72553921 2.187581778 0.9434340596 
8.034174919 13.72684288 2.417599201 0.9376754165 
7.528417587 14.28470707 2.454378366 0.9367579222 
15.89047337 33.70680237 5.664265633 0.8600447774 
15.83177662 43.16514587 6.988528728 0.8302569985 
15.26656723 48.14941406 7.677828312 0.8151626587 
-4.513061523 48.15555573 7.35176754 0.8222683668 
-6.685497761 48.15623093 7.389997482 0.8214319944 
-5.851161957 31.7140007 4.901915073 0.8776751757 
-13.40301704 48.15829849 7.598321915 0.8168897033 
-14.95275402 34.88542557 5.769186974 0.8576462269 
-19.3569622 32.40741348 5.73777771 0.8583636284 
-23.50124168 32.40733719 6.08487606 0.850469768 
-25.73019981 32.34899902 6.282809734 0.8460006118 
-28.16893578 32.34975433 6.520106792 0.8406738639 
-20.23407364 13.47115421 3.694875479 0.9063318968 
-20.88578796 12.60145855 3.707742929 0.9060214758 
-60.39829636 -15.94394779 9.495094299 0.7766703963 
-28.92943764 -15.08242893 4.959043503 0.8763418198 
-28.73423195 -16.64658928 5.047636032 0.8742775917 
-19.99033737 -15.46903515 3.84206295 0.9027879238 
-18.2519474 -15.46958256 3.636737585 0.907735467 
-13.96331501 -15.47092533 3.167766571 0.9191377759 
-12.76185036 -15.47130108 3.048468828 0.9220611453 
-10.60436535 -15.47614956 2.85164237 0.9269044995 
-10.60486317 -17.05754662 3.052999258 0.921949923 
-10.60543442 -18.88316154 3.291966438 0.9161041379 
-10.6061182 -21.02342415 3.579205275 0.9091265202 
-10.30217743 -22.90099716 3.816979885 0.9033908248 
-10.3031292 -25.92833138 4.240890503 0.8932546973 
-9.682636261 -27.92735481 4.492883205 0.887283206 
-3.864648342 -15.474123 2.424328327 0.9375075698 
-2.42979002 -15.47457695 2.380969763 0.9385901093 
0.3443993926 -15.47545147 2.352863789 0.9392924905 
1.034526348 -15.47566128 2.357565165 0.9391750097 
1.728793859 -15.47587585 2.366980791 0.9389396906 
2.430019379 -15.47609615 2.381202221 0.9385842681 
9.603686333 -15.44720459 2.764772654 0.9290502071 
10.60607433 -15.47865486 2.852103233 0.926893115 
11.65101051 -15.47898197 2.944838762 0.9246079922 
13.73179626 -16.64716911 3.280156136 0.9163920879 
14.28988743 -15.83262444 3.241838217 0.9173273444 
53.67642593 -22.16358566 8.827023506 0.7906048298 
62.51599503 34.0213356 10.81845951 0.7497878075 
20.40508652 13.58498764 3.726097822 0.9055788517 
20.15148926 14.75086117 3.795977592 0.9038959742 
25.71755791 32.33311081 6.279724121 0.8460701704 
9.669784546 13.33426476 2.503669977 0.9355296493 
8.393857002 12.73022175 2.317779303 0.9401701689 
8.158183098 13.65842533 2.41824007 0.9376594424 
15.94731903 42.31134796 6.873013973 0.8328139186 
13.40073204 48.14999008 7.597004414 0.8169181347 
11.11909199 48.15071106 7.511561871 0.8187782764 
8.883623123 48.15139389 7.442581654 0.8202831149 
0.2145849615 48.23286819 7.331515312 0.8227117062 
-1.929619074 48.15475464 7.325441837 0.8228446841 
-6.249094009 48.1560936 7.381145 0.8216255307 
-5.606008053 31.97801399 4.934819221 0.876906991 
-14.88685036 46.95183945 7.486875057 0.8193166852 
-15.3726511 41.91339874 6.785874367 0.8347478509 
-17.08046532 32.40932465 5.568525791 0.8622394204 
-20.9561615 32.40607452 5.865969658 0.8554397225 
-23.06363869 32.40670013 6.045985699 0.8513505459 
-25.31120491 32.40997314 6.25066328 0.8467248082 
-19.72669601 13.38830948 3.623846292 0.90804708 
-59.82574463 -15.22450447 9.383411407 0.7789826989 
-39.95326614 -18.1873703 6.672515869 0.837269485 
-29.56253815 -15.07952404 5.044359684 0.8743537664 
-24.50592232 -15.38730145 4.398345947 0.8895187974 
-22.36048317 -15.46829319 4.132804871 0.8958283067 
-20.25625992 -15.38863468 3.866701603 0.9021959901 
-16.98757362 -15.46997738 3.492377281 0.9112302065 
-15.53940392 -15.47042656 3.332974195 0.9151048064 
-14.21516609 -15.47084713 3.193535089 0.918507576 
-12.99493599 -15.47123241 3.071124554 0.9215052128 
-10.74901867 -15.39161301 2.85358429 0.9268565774 
-10.60531235 -18.49538803 3.240696907 0.917355299 
-10.60596657 -20.56584167 3.517236233 0.9106273651 
-10.30200195 -22.36635971 3.743008375 0.9051713943 
-9.961801529 -27.92726707 4.506949425 0.8869510293 
-4.011235237 -15.4740839 2.429814816 0.9373705983 
-1.172871113 -15.47496796 2.358956575 0.9391402602 
2.289052725 -15.47605228 2.377966166 0.9386651516 
2.997949123 -15.47627163 2.396138906 0.9382112622 
3.719208956 -15.4764967 2.419415474 0.9376301169 
4.456093788 -15.47673035 2.448045969 0.9369158149 
5.991210938 -15.47720432 2.522658587 0.9350569248 
7.636362076 -15.47772217 2.623389244 0.9325532317 
8.512719154 -15.47799015 2.6850214 0.931024611 
9.384150505 -15.39795589 2.740906 0.9296406507 
10.40488243 -15.47859097 2.834920645 0.9273171425 
11.43664551 -15.47891331 2.925352097 0.92508775 
13.8938036 -17.15219879 3.355178833 0.9145640135 
14.25049782 -14.70145226 3.112158775 0.9204992056 
34.73389435 9.500397682 5.473515987 0.8644226789 
20.21600533 14.52349854 3.783627272 0.9041931629 
61.97779083 48.84815216 11.99497795 0.7266713977 
28.66366577 32.3321991 6.567735672 0.8396087289 
26.19069672 32.33296585 6.324724674 0.8450573087 
10.41010761 14.08953381 2.662774324 0.9315760732 
8.24157238 13.52312756 2.407178402 0.9379355311 
15.83293915 47.01451874 7.540602207 0.8181455135 
13.86341763 48.14985275 7.616146088 0.8165020943 
9.362685204 48.33268356 7.483180523 0.8193969727 
7.122148514 48.15194321 7.39876461 0.8212401867 
4.945541859 48.15261459 7.357745171 0.822137475 
2.788696289 48.15328979 7.331611633 0.82270962 
-1.50042963 48.15461731 7.323103905 0.8228959441 
-3.649755716 48.15528107 7.340636253 0.8225118518 
-5.813696384 48.15595627 7.372900009 0.8218058944 
-5.33938694 32.13646317 4.95173645 0.8765121102 
-6.908566952 32.54990768 5.057833672 0.8740403056 
-15.04945278 42.18957901 6.808635712 0.8342421651 
-14.95312214 36.67554855 6.020261288 0.8519337177 
-15.11862755 32.8235817 5.493029594 0.8639739156 
-16.71389771 32.40963364 5.542808056 0.862829864 
-20.54960251 32.40641403 5.832685471 0.8561979532 
-24.84943008 32.40930176 6.207624912 0.8476953506 
-27.17165947 32.34944153 6.421542168 0.8428823352 
-22.01987267 12.49629402 3.848453999 0.9026343822 
-29.37677574 -16.32753181 5.108640194 0.8728590012 
-24.99706078 -15.38715076 4.461733818 0.8880192041 
-20.74251938 -15.46880054 3.933084726 0.9006032944 
-18.82629395 -15.38908863 3.69601059 0.9063044786 
-17.29422379 -15.46988487 3.526970863 0.9103915095 
-13.23152828 -15.47115421 3.094367981 0.9209352732 
-12.08267593 -15.47151566 2.983864069 0.9236480594 
-10.60465336 -16.39892769 2.968436003 0.9240275025 
-10.30272961 -24.64014816 4.059548378 0.8975768685 
-4.136977673 -15.39372253 2.422885895 0.937543571 
-3.428559542 -15.47426987 2.409145117 0.9378864765 
-2.698725462 -15.39417648 2.375614882 0.9387239218 
-2.008110285 -15.47470951 2.371893883 0.938816905 
-1.304697275 -15.39461136 2.34838438 0.9394045472 
0.7580810189 -15.47557354 2.355123043 0.9392361045 
3.573857307 -15.47645187 2.414343834 0.9377567172 
4.307343483 -15.47668171 2.441880703 0.9370696545 
5.059257507 -15.47691631 2.475007534 0.9362436533 
5.833388329 -15.47716522 2.514092445 0.9352701306 
6.633994102 -15.47741413 2.559580326 0.9341384172 
7.46576643 -15.47766781 2.612013102 0.9328356981 
8.334106445 -15.47793674 2.672036886 0.9313464165 
11.22498512 -15.47884941 2.90633893 0.925556004 
12.24813938 -15.39885426 2.990757465 0.9234786034 
13.80660152 -15.85578823 3.195739746 0.9184536338 
53.47343445 -23.20214081 8.860165596 0.7899078727 
29.18136597 32.33204269 6.620180607 0.838437438 
24.38180542 32.39248276 6.162593842 0.8487120867 
8.4484272 12.32974339 2.271885872 0.9413193464 
8.28864193 13.33198452 2.386189461 0.938459754 
7.31640625 14.50257015 2.469040394 0.9363923669 
15.89181137 35.32632828 5.887949467 0.8549392819 
15.91606903 40.05353546 6.551232815 0.8399775624 
10.067173 49.60053635 7.692954063 0.814832449 
7.560702801 48.15180588 7.408795834 0.8210210204 
3.218793869 48.15315247 7.335653305 0.8226209283 
1.0762012 48.36698151 7.353652 0.8222271204 
-3.219120979 48.15515518 7.33596468 0.822614193 
-12.02740669 48.15787888 7.544876575 0.8180524111 
-14.33133984 48.15858459 7.637403011 0.8160402775 
-14.95331287 37.63076019 6.154966354 0.8488845229 
-14.95241165 33.23815918 5.539912224 0.8628963828 
-18.20167351 32.40838242 5.649870872 0.8603745103 
-20.14761925 32.40675354 5.800236225 0.8569377661 
-24.39395905 32.408638 6.165668011 0.8486427069 
-19.33369637 13.63038826 3.595651865 0.908728838 
-21.27656174 12.32612324 3.737573862 0.9053024054 
-29.89122009 -14.5825367 5.055341244 0.8740982413 
-23.23343658 -15.46802425 4.242576122 0.8932145834 
-21.13210487 -15.46867847 3.980699301 0.8994625211 
-17.51551247 -15.38949871 3.544025183 0.9099780917 
-14.73132801 -15.47068596 3.247112274 0.9171985984 
-13.47162533 -15.47108078 3.118204355 0.9203511477 
-11.21987247 -15.47178459 2.905015707 0.9255886674 
-10.60455513 -16.08299065 2.928215265 0.9250172377 
-10.3035841 -27.33743286 4.440664768 0.8885173798 
-9.129238129 -27.92753029 4.466062546 0.8879169226 
-7.772675514 -27.92797089 4.406419754 0.8893276453 
-3.573266506 -15.474226 2.413991928 0.9377654791 
-2.854926586 -15.47444534 2.391825199 0.9383189678 
-2.148276329 -15.47466564 2.37472105 0.9387462139 
-1.45028317 -15.47488499 2.362504482 0.9390515685 
-0.7580664158 -15.4750948 2.355051517 0.9392378926 
1.304760695 -15.39542675 2.348507881 0.9394014478 
4.159257889 -15.47663784 2.435933828 0.9372179508 
4.907187462 -15.47686768 2.467916727 0.9364204407 
5.676562309 -15.47710705 2.505777121 0.9354771972 
7.296640396 -15.47761917 2.60093832 0.9331106544 
8.157211304 -15.47788334 2.659385204 0.9316600561 
9.059243202 -15.47816086 2.726047516 0.9300084114 
13.72811031 -16.05179405 3.210498571 0.9180928469 
53.72628784 -23.88235474 8.936922073 0.7882954478 
73.95613861 33.66604233 12.35133266 0.7198109627 
20.88894463 13.11618423 3.749163628 0.9050230384 
20.22950172 13.99415779 3.738942146 0.9052693248 
9.739926338 11.59593487 2.301857948 0.9405686855 
24.8368454 32.39286804 6.204479694 0.8477663398 
7.422656059 14.39313221 2.461560965 0.9365788102 
15.89113712 34.50067902 5.773681641 0.8575435281 
14.79624939 48.14955902 7.656547546 0.8156245351 
12.48165989 48.15028381 7.560789108 0.8177060485 
10.28821754 48.47320175 7.532100677 0.8183307648 
1.502246022 48.21240997 7.331885815 0.8227034807 
-9.379443169 48.41922379 7.496583462 0.8191047907 
-7.710036278 32.08324814 5.015522957 0.8750251532 
-13.86586857 48.15843582 7.617502689 0.8164726496 
-15.5344429 40.1299057 6.540864944 0.8402095437 
-15.98928928 32.40776825 5.492939949 0.8639758825 
-23.94476318 32.40798187 6.124773026 0.8495670557 
-32.69951248 8.943968773 5.152939796 0.8718306422 
-58.96235275 -16.12737465 9.291538239 0.7808898687 
-34.21047974 -12.72053909 5.54787159 0.8627135754 
-28.42424202 -16.8066864 5.019267082 0.8749381304 
-23.687397 -15.46788311 4.300171375 0.8918462992 
-19.62701035 -15.46915245 3.798549175 0.9038342237 
-17.92608452 -15.4696846 3.599103212 0.9086452127 
-14.91823673 -15.39030457 3.257991791 0.9169331789 
-13.71559525 -15.47099781 3.142669678 0.9197519422 
-11.43133736 -15.4717207 2.923992872 0.9251211882 
-10.60497093 -17.40111542 3.097482443 0.9208589792 
-10.60626411 -21.49745369 3.643692493 0.9075674415 
-10.30234814 -23.45725822 3.8942554 0.9015346169 
-10.30335426 -26.61683846 4.338330746 0.8909409046 
-9.40504837 -27.92744255 4.479254246 0.8876051903 
-8.041049957 -27.92787361 4.417520523 0.8890649676 
-3.718657255 -15.47418213 2.419053316 0.9376391172 
-2.997592688 -15.47440147 2.395847321 0.9382184744 
-2.288842678 -15.47462082 2.377744913 0.9386706352 
