# .PCD v0.7 - Point Cloud Data file format
VERSION 0.7
FIELDS x y z intensities
SIZE 4 4 4 4
TYPE F F F F
COUNT 1 1 1 1
WIDTH 943
HEIGHT 1
VIEWPOINT 0 0 0 1 0 0 0
POINTS 943
DATA ascii
-15.92148876 -1.135505319 1.096169591 0.9380067587 
-86.06899261 -13.90695763 5.987375259 0.704996407 
-63.48101425 -13.17868614 4.452449322 0.7710909247 
-60.42685318 -15.37753391 4.282021999 0.7788017988 
-57.11496353 -17.27363777 4.097775936 0.7872245312 
-56.48812866 -22.73824692 4.181756973 0.7833740115 
-56.48929977 -25.71500015 4.262392521 0.779695034 
-27.25066376 -15.46485329 2.151768923 0.8819433451 
-24.5033493 -15.38562012 1.986965179 0.8904703259 
-20.25452995 -15.38729 1.746828437 0.9030425549 
-16.89824104 -15.38860798 1.569559693 0.9124371409 
-15.45781231 -15.38916492 1.497931361 0.9162608981 
-14.14058113 -15.38969231 1.435270786 0.9196190238 
-12.92683029 -15.39016056 1.380262852 0.9225770831 
-11.17203617 -15.99736786 1.339989424 0.9247488976 
-11.17269039 -17.61922264 1.432746649 0.9197543263 
-11.17433071 -21.66802216 1.674254298 0.9068770409 
-11.1753664 -24.26256371 1.834463358 0.8984341025 
-11.17665482 -27.41318703 2.033031225 0.8880785108 
-15.49758244 -43.44617462 3.16777277 0.8311504126 
-4.73038578 -15.39341259 1.105915666 0.9374732375 
-3.267299652 -15.39399338 1.080717564 0.9388534427 
2.277236223 -15.3961668 1.068819404 0.9395057559 
4.43316412 -15.39701176 1.100331545 0.9377789497 
6.762748718 -15.39792442 1.154933333 0.9347943068 
7.597114086 -15.39824677 1.179161549 0.9334729314 
8.469017982 -15.39859867 1.206870198 0.9319640398 
9.384740829 -15.39895439 1.23842299 0.9302487969 
11.37811947 -15.39974117 1.314911962 0.9261037111 
13.11048317 -16.18521881 1.43041122 0.9198799133 
13.33728981 -15.04428196 1.380696893 0.9225537181 
55.11571121 -47.56322479 4.999551296 0.746850431 
55.78266525 -43.96538544 4.877637386 0.7521855235 
58.47518539 -31.15119553 4.550028801 0.7667114139 
52.41944122 -22.19262123 3.909182549 0.7959402204 
33.07557678 -12.29847145 2.423380852 0.8680685163 
58.15274429 -18.72352409 4.195485592 0.7827466726 
52.70437241 -14.41576672 3.752377748 0.8032605648 
66.98991394 -15.15566826 4.716734886 0.7592844963 
67.75457001 12.18890095 4.72769022 0.7587996721 
34.22392654 9.360991478 2.436596155 0.8673970103 
55.13473511 17.75175285 3.977747679 0.7927606702 
60.85063171 25.76206398 4.537946224 0.7672519684 
98.94838715 47.18685913 7.528329372 0.6443403959 
19.57552147 16.89306641 1.775696516 0.9015218616 
8.703398705 12.94742203 1.071373105 0.9393659234 
7.52362299 13.679636 1.072147012 0.9393234253 
16.74523926 43.25806046 3.185521841 0.8302893043 
15.33316898 45.53027725 3.299298048 0.8247921467 
13.88130379 48.21179199 3.445404053 0.8177862763 
7.131196022 48.21311951 3.347014189 0.8224975467 
2.874184608 49.62932205 3.41396594 0.8192890882 
-1.502397418 48.2163353 3.312819719 0.8241411448 
-3.654570341 48.21828079 3.320841074 0.8237552047 
-8.271813393 49.78567123 3.465854406 0.8168104887 
-8.131543159 31.36866951 2.225415468 0.8781593442 
-16.68170929 32.34728622 2.499425411 0.8642228842 
-27.2258873 32.41402817 2.907048941 0.8438985348 
-20.13909149 16.76337051 1.799464822 0.9002717733 
-20.82851982 15.82330036 1.796330094 0.9004365206 
-19.86382484 12.47245789 1.610747457 0.9102457166 
-22.16198349 11.30451965 1.708515406 0.905064702 
-84.1074295 21.40367699 5.960083008 0.7061200142 
-15.91436768 1.134987712 1.095680952 0.9380336404 
-15.9160738 0.4250488281 1.093411684 0.9381579161 
-15.92090511 -0.9931420684 1.095478296 0.9380446672 
-60.15510559 -14.73958492 4.253298283 0.7801088691 
-56.48677444 -19.30321693 4.099427223 0.7871485949 
-30.14158058 -15.03830528 2.313271284 0.8736665249 
-24.99422264 -15.38541985 2.015584707 0.8889836073 
-20.63300323 -15.38713837 1.767585874 0.9019486904 
-17.20321274 -15.38848114 1.58510077 0.9116095901 
-15.73528767 -15.3890667 1.511488438 0.9155358076 
-13.16210938 -15.39007282 1.390703797 0.9220147729 
-11.1719141 -15.69772911 1.323167205 0.9256575704 
-11.17255306 -17.27705956 1.412958145 0.9208177924 
-11.17328548 -19.09020424 1.519044876 0.9151320457 
-11.17413521 -21.20226097 1.645882964 0.9083803296 
-13.80098629 -43.52715302 3.135843515 0.832700789 
-3.410756826 -15.3939352 1.082802296 0.9387391806 
-0.6168505549 -15.39502907 1.058090091 0.9400946498 
0.06852050871 -15.39529228 1.057269692 0.9401396513 
2.137402296 -15.3961134 1.06745255 0.9395807385 
2.840576172 -15.39638615 1.075178385 0.9391571879 
3.55540514 -15.39666462 1.085178375 0.9386090636 
5.033207893 -15.39725018 1.112454653 0.9371154904 
5.803393364 -15.39754868 1.130026937 0.936154604 
7.427445889 -15.39818859 1.174048543 0.9337515831 
9.197749138 -15.39888191 1.231784821 0.9306093454 
10.15372086 -15.39925766 1.266723752 0.9287129045 
13.51953125 -15.52602482 1.413812041 0.9207718372 
55.42858124 -44.49176025 4.881106377 0.7520330548 
57.37589645 -38.19910049 4.733625889 0.7585366368 
59.63065338 -35.97842026 4.782736301 0.7563648224 
59.29071045 -28.92519379 4.530446053 0.7675881386 
58.15137482 -22.21339798 4.274935722 0.7791240215 
58.15252686 -19.29624939 4.207687378 0.7821890116 
68.93706512 11.76919365 4.802687645 0.7554838657 
64.0893631 13.90102005 4.503623486 0.7687909007 
62.59084702 16.52272987 4.445621967 0.7713988423 
62.87667847 22.74452591 4.591827869 0.7648421526 
72.36471558 33.72242737 5.482699871 0.7260779738 
62.58430481 32.62843323 4.846960545 0.7535338402 
19.30826187 13.61250496 1.622385979 0.909627676 
19.7292614 16.72174263 1.776076794 0.9015020132 
26.72002411 32.3927269 2.88370347 0.8450496793 
9.65267086 12.82400608 1.102276683 0.9376724958 
8.844657898 12.90794182 1.074574351 0.9391902089 
15.26521492 33.93347931 2.555292368 0.8614084721 
14.3470602 48.21137619 3.454361439 0.8173586726 
12.39398384 49.62561035 3.512670279 0.8145809174 
5.385912895 48.21469116 3.331699848 0.8232334852 
-1.072944283 48.21595001 3.312012911 0.8241803646 
-3.223202944 48.21788788 3.318713188 0.8238578439 
-5.386484146 48.219841 3.332053661 0.8232163787 
-4.372460842 27.84698868 1.935796261 0.8931343555 
-6.213019848 30.61138153 2.145070076 0.8822882771 
-7.815258503 31.29244804 2.214988232 0.8786942363 
-16.96833992 42.70162201 3.155537128 0.8317438364 
-18.16766548 32.34786224 2.547845364 0.8617831469 
-24.39485741 32.40968323 2.78573966 0.8498961926 
-26.73694801 32.41328049 2.885523081 0.8449594975 
-21.24945259 13.60765266 1.732858062 0.9037793875 
-21.22586441 12.29675484 1.68461287 0.9063286781 
-55.23829651 9.430502892 3.848477125 0.7987733483 
-15.91777325 -0.1416650414 1.093182802 0.9381704926 
-73.52957153 -13.90455532 5.139061928 0.7407916784 
-56.48767471 -21.57788467 4.152625561 0.7847073078 
-56.48883057 -24.5105114 4.228757858 0.7812274098 
-30.09383202 -14.68145466 2.299487114 0.8743698597 
-29.88070679 -16.26127815 2.336214304 0.8724969625 
-25.49947739 -15.38522911 2.045207024 0.8874474764 
-21.02057076 -15.38698673 1.788989067 0.9008224607 
-19.17026901 -15.38771439 1.688157797 0.9061412215 
-14.65405273 -15.38948727 1.459348917 0.9183270931 
-13.40099621 -15.38997555 1.401422858 0.9214382768 
-11.17242146 -16.94423294 1.393814206 0.9218475223 
-11.1739502 -20.75204468 1.618589878 0.9098289609 
-11.17492676 -23.16730499 1.766409397 0.9020106792 
-11.17610836 -26.07437897 1.948186398 0.89248842 
-16.40504837 -43.52613068 3.194377422 0.8298598528 
-4.284169674 -15.39358807 1.097318292 0.937943995 
-3.554745913 -15.39387703 1.084980249 0.9386198521 
-1.442788005 -15.39470196 1.061850667 0.9398882389 
-0.06852050871 -15.39524364 1.05726397 0.9401398301 
0.6169189215 -15.39551258 1.058121443 0.9400928617 
2.699111223 -15.39633274 1.073454976 0.9392517209 
4.137836933 -15.39689445 1.094887257 0.9380771518 
4.881928444 -15.397192 1.109265924 0.9372899532 
5.647358418 -15.39748955 1.126288295 0.9363589287 
6.438291073 -15.39779758 1.146146655 0.9352740049 
9.958197594 -15.39917469 1.259378433 0.9291113019 
10.9597311 -15.39956474 1.298038125 0.9270167947 
12.7378273 -16.31035042 1.421205282 0.9203744531 
64.78227234 -63.35656738 6.222799778 0.6953725815 
55.35659027 -45.2498436 4.910038948 0.7507640719 
57.37129593 -42.784832 4.914895058 0.7505514622 
58.36270523 -35.92572021 4.706490993 0.7597390413 
59.25959778 -29.56590271 4.547996521 0.7668019533 
52.12284851 -23.16943359 3.917202711 0.7955678105 
58.15114975 -22.80834389 4.289675713 0.7784540057 
58.15229416 -19.87238312 4.220301628 0.7816132903 
56.19192123 6.530346394 3.884910822 0.79706949 
69.23620605 11.18713379 4.816408157 0.7548792362 
61.52980423 15.65812969 4.360185623 0.7752561569 
61.84459686 24.89442825 4.578304291 0.7654464245 
61.79062271 28.1282177 4.66240263 0.7616971135 
60.50671768 34.33773041 4.777732849 0.7565853 
19.86259651 12.4716692 1.610648274 0.9102510214 
17.88844681 13.58974075 1.542767167 0.9138655663 
19.74323273 16.43390656 1.764096498 0.90213269 
19.08345604 17.37861824 1.772533059 0.9016885161 
8.986869812 12.86837387 1.077895999 0.9390081167 
7.435849667 14.41879082 1.114116311 0.9370245337 
15.97701168 44.7901001 3.265754223 0.8264089823 
12.52300262 48.30927658 3.427257061 0.8186535239 
8.010454178 48.21232224 3.356328011 0.8220504522 
1.546406269 49.62984085 3.409942627 0.8194814324 
-0.6437109113 48.21556473 3.311455011 0.8242068291 
-4.952397346 48.21944809 3.328849316 0.8233704567 
-4.288984299 28.99733734 2.013029575 0.8891161084 
-9.225578308 32.04167938 2.289824963 0.8748633265 
-16.92741203 43.72859955 3.220169544 0.8286112547 
-15.45410347 35.18700409 2.639222383 0.8571976423 
-16.00450134 32.43876266 2.484080791 0.8649972081 
-17.79078484 32.34771729 2.535264492 0.8624164462 
-19.71442413 32.34846115 2.601548433 0.8590855598 
-21.77467155 32.39274216 2.680428982 0.8551383018 
-20.75395012 14.90997601 1.754934192 0.9026153088 
-20.61662292 13.46259499 1.690953732 0.9059931636 
-15.91978264 -0.7088769078 1.094361067 0.9381059408 
-76.66986084 -13.79285622 5.349752903 0.7317352295 
-62.25763702 -14.08512211 4.383538723 0.7741995454 
-60.0627327 -16.42850494 4.276264668 0.7790635824 
-56.48744202 -21.00368118 4.138711452 0.7853454351 
-26.01983833 -15.3850193 2.07587862 0.8858596683 
-19.52349472 -15.38757324 1.707135081 0.9051377773 
-17.83169937 -15.388237 1.617514729 0.9098860621 
-16.30582047 -15.38883781 1.539730906 0.9140273333 
-14.91732407 -15.38938427 1.471870542 0.917656064 
-11.37147427 -15.39077568 1.314147115 0.926145196 
-11.17585468 -25.44600487 1.908594728 0.8945538998 
-3.699331045 -15.39382267 1.087254405 0.9384952188 
-1.581108332 -15.39464855 1.062776923 0.9398374557 
-0.2055224627 -15.39519024 1.05734539 0.940135479 
0.4797021449 -15.39545822 1.057782054 0.9401114583 
1.166899443 -15.39572716 1.060320616 0.9399721622 
2.558085918 -15.39627361 1.071819901 0.9393413067 
3.267885685 -15.39655209 1.080897927 0.9388435483 
4.731543064 -15.39712811 1.106183648 0.9374585748 
6.277826786 -15.39773369 1.141935587 0.9355039001 
7.092348576 -15.39805603 1.164226532 0.9342871904 
7.941069126 -15.39838791 1.189809442 0.9328927994 
8.82968235 -15.39873028 1.219007134 0.9313038588 
10.7545166 -15.39948654 1.289913774 0.9274566174 
12.57890606 -16.40574646 1.419705272 0.9204549789 
65.17631531 -70.93364716 6.61540556 0.6796149015 
50.04229355 -45.57155228 4.64806509 0.762334466 
55.73547745 -46.39310074 4.980070114 0.7477006912 
57.22479248 -43.47335052 4.935285091 0.749658227 
57.70932388 -36.23559952 4.679622173 0.7609317899 
57.65925598 -32.72186279 4.552904606 0.7665823698 
59.22824097 -30.21152306 4.566046715 0.76599437 
52.55883789 -23.92578125 3.965816021 0.7933129072 
53.46573257 -21.52155304 3.958011389 0.793674469 
58.15205765 -20.45200157 4.233326912 0.7810191512 
58.15320206 -17.58757782 4.172268391 0.7838084102 
61.92558289 9.441185951 4.301825047 0.7779019475 
62.43024445 15.29703617 4.414166927 0.7728164792 
62.1425972 24.37401772 4.584128857 0.7651863694 
62.84366226 31.35400772 4.823054314 0.7545861006 
60.87670898 33.83504486 4.782988071 0.7563534379 
19.73658562 16.13315964 1.750601292 0.9028437734 
12.13818359 15.54250908 1.354300976 0.9239766598 
8.411513329 13.00740242 1.06377542 0.9397826195 
7.484550476 12.78775883 1.017550468 0.9423223734 
7.484179497 14.20076656 1.102373481 0.937667191 
8.364813805 17.74338341 1.347129941 0.9243634939 
15.26619148 36.510746 2.717703819 0.8532793522 
16.42770004 44.78993225 3.276269436 0.8259016871 
15.28595638 48.21052551 3.473248243 0.8164579868 
12.95688438 48.21262741 3.42843914 0.8185967803 
-0.2151171863 48.35533905 3.320792675 0.8237577081 
-2.36197257 48.21711731 3.315235615 0.8240248561 
-4.5189991 48.21906281 3.325913668 0.8235115409 
-6.89054203 49.63312531 3.441202402 0.817987144 
-5.750400066 31.16788292 2.17655158 0.8806682825 
-8.751391411 31.44456291 2.241499424 0.8773351908 
-10.79021454 33.00868988 2.384884357 0.870021522 
-15.45377922 36.05439377 2.693865299 0.85446769 
-21.32984161 32.34908676 2.661001444 0.8561086655 
-23.50196266 32.40831375 2.749227762 0.8517100215 
-25.7801609 32.41181183 2.844090462 0.8470062017 
-28.22622681 32.41556549 2.951782227 0.8416974545 
-21.1215229 14.06197929 1.742562652 0.9032675624 
-21.84220123 11.88659 1.70772469 0.9051064849 
-22.19511604 10.82794857 1.69594276 0.905729413 
-15.91499996 0.8506640196 1.094508529 0.9380978346 
-15.91688728 0.1416821331 1.093122125 0.9381738305 
-15.91925049 -0.5669872761 1.093934417 0.9381293058 
-16.05228424 -1.288537621 1.105921745 0.9374729395 
-56.44675064 -9.636958122 3.932529211 0.7948566675 
-56.41371918 -12.23631096 3.964184523 0.7933856249 
-60.35326385 -15.93207455 4.286677837 0.7785897851 
-56.44103241 -23.30511665 4.193442822 0.7828390002 
-56.40921783 -26.28705597 4.273824215 0.7791744471 
-26.69475937 -15.46507263 2.118654251 0.8836499453 
-19.88486862 -15.38743591 1.726686239 0.9041050076 
-16.59924316 -15.38872528 1.554442525 0.9132426381 
-15.185112 -15.38927174 1.48472333 0.91696769 
-13.36077595 -14.8033247 1.369440436 0.923160255 
-12.69498539 -15.3902483 1.370082259 0.9231256247 
-15.09103489 -43.52664948 3.163715124 0.8313469291 
-1.719702125 -15.39459419 1.063785791 0.9397820234 
-1.029116154 -15.39486313 1.05958724 0.9400123358 
-0.3425341845 -15.39513683 1.057508945 0.9401264787 
0.3426318169 -15.39540958 1.057525158 0.9401254654 
2.417490244 -15.39622021 1.070275664 0.9394259453 
5.338393211 -15.39736748 1.119150162 0.9367491603 
6.118569374 -15.39767075 1.137847424 0.9357271791 
9.573735237 -15.39902782 1.245233297 0.9298790693 
10.55178165 -15.39940929 1.281984329 0.9278858304 
11.59143066 -15.39982414 1.323676825 0.9256300926 
13.00564957 -15.76685524 1.403606653 0.9213204384 
68.459198 -75.8500824 7.016835213 0.6638720036 
49.24195099 -45.65088272 4.611282825 0.7639734745 
56.30335999 -43.56899643 4.88906908 0.7516838908 
57.76451874 -40.72434998 4.853671074 0.753238678 
57.33642578 -36.71690369 4.675693989 0.7611062527 
58.18199158 -33.7065239 4.61768961 0.7636885643 
59.1966095 -30.8623085 4.584596634 0.7651650906 
58.15182495 -21.03542519 4.246772289 0.7804062963 
58.15297699 -18.15403366 4.183684826 0.7832863331 
76.18013763 14.40574646 5.324324608 0.7328227758 
62.96767426 14.83598137 4.442659855 0.7715322375 
62.63561249 23.9263134 4.604589939 0.764272213 
72.24794006 31.34840202 5.408497334 0.7292304635 
73.33476257 35.77661514 5.603564739 0.7209727764 
19.77522469 11.93140602 1.586086869 0.911557138 
19.79918861 13.18160152 1.633466244 0.9090391397 
18.59745026 13.61330986 1.582768321 0.9117338657 
19.41088295 17.05479431 1.774463654 0.901586771 
28.20705986 32.39354324 2.949775219 0.8417959809 
23.48888588 32.3902626 2.747703075 0.8517861366 
7.730077744 12.94167423 1.035230279 0.941350162 
7.522910118 13.97135735 1.089720845 0.9383601546 
15.26585388 35.61590576 2.661099195 0.8561035991 
11.45977497 49.62597656 3.497704506 0.815293014 
8.955224037 48.5394516 3.389672279 0.8204522729 
6.693246841 48.21350861 3.342772722 0.8227012753 
2.431162119 49.6294899 3.412347317 0.8193662167 
-5.930568695 33.82936096 2.358633757 0.8713560104 
-6.950966835 31.37212181 2.206700802 0.8791194558 
-15.51672077 37.11002731 2.762307167 0.8510600328 
-15.54922771 32.98294067 2.504158497 0.8639838696 
-20.91919708 32.34893036 2.645568848 0.8568801284 
-25.31208992 32.41108704 2.8241539 0.8479926586 
-27.72237778 32.41479492 2.929133892 0.842811048 
-20.82481956 15.53017521 1.784018993 0.901083827 
-21.05733299 14.29139519 1.747691154 0.9029970169 
-21.71548271 12.06939316 1.706152797 0.9051897526 
-15.91647434 0.2833154202 1.093223095 0.9381682873 
-15.91874218 -0.4251318276 1.093594193 0.9381478429 
-15.92148876 -1.135505319 1.096169591 0.9380067587 
-86.06899261 -13.90695763 5.987375259 0.704996407 
-63.48101425 -13.17868614 4.452449322 0.7710909247 
-56.4869957 -19.86639023 4.112108231 0.7865658998 
-56.48812485 -22.73814964 4.181754112 0.7833741903 
-56.48929977 -25.71487808 4.262388706 0.7796952128 
-30.35916519 -15.48586369 2.340452671 0.8722809553 
-27.25052261 -15.46485329 2.15176034 0.8819438219 
-16.8982029 -15.38859844 1.569557309 0.9124372602 
-14.14058113 -15.38969231 1.435270786 0.9196190238 
-12.92683029 -15.39016056 1.380262852 0.9225770831 
-11.80055618 -15.39060974 1.331858635 0.9251879454 
-11.17269039 -17.61917496 1.432743907 0.9197545052 
-3.990390539 -15.39370537 1.092090249 0.9382303357 
-2.557714701 -15.39427662 1.071679235 0.9393489361 
-1.858510733 -15.39454079 1.064884424 0.9397218227 
-0.4796728492 -15.39508247 1.057756424 0.9401128888 
0.8916161656 -15.39561939 1.059053779 0.9400417805 
4.433139324 -15.39700603 1.100330949 0.9377790093 
5.185307503 -15.3973093 1.115746617 0.9369353652 
8.469057083 -15.39859867 1.206869602 0.9319639206 
10.35160637 -15.39933109 1.274260998 0.9283043742 
13.11051273 -16.18520546 1.430410624 0.9198799133 
13.33728981 -15.04428196 1.380696893 0.9225537181 
55.11571121 -47.56322479 4.999551296 0.746850431 
55.78264618 -43.96544266 4.877636433 0.7521854639 
57.17285919 -37.33390045 4.689272404 0.7605032325 
58.47509766 -31.15122986 4.550024986 0.7667115927 
52.4194603 -22.19249916 3.90918088 0.7959403396 
33.07542801 -12.29833984 2.423369169 0.8680691719 
58.15275192 -18.72337341 4.195482254 0.7827467918 
52.70448303 -14.41572762 3.752383947 0.8032602668 
62.75576019 23.33455467 4.597977638 0.764567256 
98.94866943 47.18724823 7.528360844 0.644339323 
61.28219604 32.64655685 4.768428326 0.7569965124 
19.73368645 11.66812515 1.574369073 0.912181139 
19.89207077 12.98951149 1.631528735 0.9091418982 
18.96752357 13.62655735 1.603874326 0.9106109738 
28.71398354 32.38896561 2.972517729 0.8406790495 
26.2388134 32.39236832 2.862767935 0.8460831642 
23.93192863 32.39062119 2.765694618 0.8508918881 
7.94298315 13.03317356 1.048162699 0.9406396151 
7.523627758 13.67970181 1.072150707 0.9393231869 
4.245834827 8.605725288 0.6590064764 0.9622558355 
15.265522 34.75783539 2.607031107 0.8588103056 
16.74523354 43.25820541 3.185526133 0.8302888274 
15.33316898 45.53043365 3.299307823 0.8247916102 
13.8812542 48.21179581 3.445402861 0.8177863359 
11.92577648 49.62579346 3.505037069 0.8149443865 
9.589042664 49.50117874 3.462648153 0.8169637322 
2.874184608 49.62932205 3.41396594 0.8192890882 
0.6646386385 49.7821846 3.419054508 0.8190456033 
-5.991987228 49.63277817 3.433243275 0.8183676004 
-8.27175045 49.78566742 3.465853214 0.8168105483 
-6.478395939 30.52322006 2.142847776 0.8824028373 
-15.98153305 44.80253983 3.266667366 0.8263651133 
-15.51685524 38.05820847 2.822501183 0.8480745554 
-15.45471668 33.55323029 2.536920547 0.8623331189 
-18.5484314 32.34801102 2.560759783 0.8611335754 
-20.5130558 32.34877014 2.630521774 0.8576334119 
-24.8502636 32.41038132 2.804705858 0.8489560485 
-20.82851982 15.82339001 1.796334028 0.9004363418 
-19.86399841 12.47252083 1.610759974 0.9102450609 
-21.50379562 12.2034235 1.697984695 0.905621469 
-22.16200066 11.30446339 1.708514214 0.905064702 
-84.1074295 21.40367699 5.960083008 0.7061200142 
-15.91436768 1.134987712 1.095680952 0.9380336404 
-15.9160738 0.4250488281 1.093411684 0.9381579161 
-15.92090034 -0.9931030273 1.095478058 0.9380447268 
-90.34793091 -13.7743063 6.27625227 0.693205595 
-69.50133514 -13.78469181 4.865916252 0.7527002692 
-60.15533066 -14.73977947 4.253316402 0.7801080346 
-56.48789978 -22.15612221 4.166976929 0.7840501666 
-30.14158058 -15.03830528 2.313271284 0.8736665249 
-22.67064857 -15.38634205 1.881587029 0.8959652781 
-20.63300323 -15.38713837 1.767585874 0.9019486904 
-18.82476425 -15.38785076 1.669725418 0.9071168303 
-14.39521408 -15.38958454 1.447155595 0.9189811945 
-13.16216755 -15.39007282 1.390707254 0.9220146537 
-12.01941395 -15.390522 1.341053605 0.9246914983 
-11.1719141 -15.69780731 1.323171258 0.9256573319 
-11.17515087 -23.7046814 1.799726963 0.9002578259 
-15.96419907 -43.52631378 3.183841467 0.8303706646 
-3.410756826 -15.3939352 1.082802296 0.9387391806 
-1.997695327 -15.39449215 1.066066384 0.9396568537 
-0.6168798804 -15.39502907 1.058090091 0.9400946498 
0.06849121302 -15.39530277 1.057269692 0.9401396513 
2.137431622 -15.3961134 1.067453146 0.9395807385 
2.840595722 -15.39638615 1.075178981 0.9391571879 
3.555444241 -15.39666462 1.085178375 0.938609004 
4.285161018 -15.39694786 1.09755969 0.9379308224 
5.033207893 -15.39725018 1.112454653 0.9371154904 
6.599897385 -15.39786053 1.150476217 0.9350375533 
7.427445889 -15.39818859 1.174048543 0.9337515831 
8.291352272 -15.39853001 1.201033473 0.9322816133 
11.16756821 -15.3996582 1.30637002 0.9265658855 
12.92352009 -16.24795914 1.425734043 0.9201311469 
48.46517563 -46.56218719 4.615447521 0.7637879848 
59.63116074 -35.97853851 4.782766819 0.7563633323 
57.96930695 -31.54707527 4.532320976 0.7675041556 
103.8808899 -19.64403725 7.260370255 0.654499948 
56.28029251 7.048891544 3.895202637 0.7965906262 
68.93706512 11.76935005 4.80269146 0.7554838061 
64.08914185 13.90109825 4.503608227 0.7687914968 
62.59084702 16.52272987 4.445621967 0.7713988423 
62.87667847 22.74452591 4.591827869 0.7648421526 
72.36471558 33.72242737 5.482699871 0.7260779738 
19.53936005 11.31971645 1.550765753 0.913439095 
19.9084816 12.74890614 1.623507142 0.9095680118 
9.652578354 12.82394028 1.102267623 0.9376729131 
8.844623566 12.90794849 1.074573755 0.9391902685 
16.61917496 41.82294846 3.090609074 0.8349029422 
15.52916431 44.79026794 3.255559683 0.826900959 
14.3470602 48.21137619 3.454361439 0.8173586726 
10.10331059 49.77851486 3.488197565 0.8157458305 
7.570258617 48.21271896 3.351533175 0.8222806454 
3.233036995 48.3662529 3.328924417 0.8233668208 
1.107685566 49.78201675 3.419578791 0.8190202117 
-3.223320246 48.21788788 3.318713188 0.8238577843 
-7.815258503 31.29244804 2.214988232 0.8786942363 
-14.35040951 48.22262573 3.455173969 0.817320168 
-15.53333473 44.80236816 3.25644207 0.8268585205 
-16.31881714 32.3471489 2.488090515 0.86479491 
-22.60401154 32.98858643 2.74626708 0.8518573642 
-26.7370739 32.41327667 2.885530949 0.844959259 
-20.41521835 14.39286804 1.715393186 0.9047015309 
-21.24945259 13.60765266 1.732858062 0.9037793875 
-22.08791161 11.51557636 1.710638881 0.9049525261 
-55.23820114 9.430595398 3.848472834 0.7987735868 
-15.91569805 0.5667846799 1.093689084 0.9381427169 
-15.91777325 -0.1416943371 1.093182802 0.9381704926 
-15.92033195 -0.8509545922 1.094875932 0.9380777478 
-96.81373596 -13.87986279 6.716570377 0.6756122708 
-60.29963303 -14.2073822 4.254412651 0.7800582647 
-56.48767471 -21.57788467 4.152625561 0.7847073078 
-30.09378815 -14.68136692 2.299481869 0.8743701577 
-29.88077164 -16.26122475 2.336216211 0.8724968433 
-23.11046791 -15.38616657 1.906651974 0.8946553469 
-16.01788521 -15.38894939 1.525418162 0.914791584 
-13.40099621 -15.38997555 1.401422858 0.9214382768 
-12.24145031 -15.39043427 1.350486517 0.9241822958 
-11.17041492 -15.40359783 1.306702733 0.9265478253 
-11.17313004 -18.70606804 1.496330023 0.9163463712 
-11.17492676 -23.16730499 1.766409397 0.9020106792 
-11.17610836 -26.07437897 1.948186398 0.89248842 
-11.22669411 -34.3439064 2.481350899 0.8651350737 
-3.55470705 -15.39387703 1.084980249 0.9386198521 
-0.7541357279 -15.39497566 1.058505416 0.9400718808 
-0.06848144531 -15.39524364 1.057263613 0.9401398897 
0.6169189215 -15.39551258 1.058121443 0.9400928617 
1.997910142 -15.39605427 1.066175938 0.9396508932 
2.699111223 -15.39633274 1.073454976 0.9392517209 
4.137836933 -15.39689445 1.094887257 0.9380771518 
9.958231926 -15.39917946 1.259380341 0.9291112423 
65.50937653 -70.0344696 6.585664749 0.6807957292 
54.04566193 -48.34449005 4.979762077 0.7477139235 
55.35659027 -45.2498436 4.910038948 0.7507640719 
58.36270523 -35.92572021 4.706490993 0.7597390413 
59.25959778 -29.56590271 4.547996521 0.7668019533 
52.12279129 -23.16955948 3.917201996 0.7955678105 
58.15229416 -19.87250519 4.220304012 0.7816131711 
69.23620605 11.18713379 4.816408157 0.7548792362 
70.08690643 14.55007267 4.915794373 0.7505121231 
61.52980423 15.65812969 4.360185623 0.7752561569 
61.79079819 28.12816811 4.66241312 0.7616966963 
60.5069809 34.3380394 4.777760506 0.7565841675 
19.51898384 13.50263119 1.629926562 0.9092271328 
19.74323273 16.43390656 1.764096498 0.90213269 
27.20833015 32.39310074 2.905169725 0.843990922 
24.83563995 32.39129639 2.803058386 0.8490378857 
8.986869812 12.86837387 1.077895999 0.9390081167 
8.253676414 13.01590824 1.058423638 0.9400764108 
7.247539043 12.63949203 1.000579357 0.9432564378 
7.435863972 14.41874027 1.114113569 0.9370247126 
15.33019543 37.60041046 2.788544893 0.8497573137 
15.97690392 44.79009628 3.265750647 0.8264091015 
14.81513119 48.21095276 3.463648558 0.8169160485 
5.820766449 48.21429443 3.335114717 0.8230691552 
3.654379845 48.216259 3.320706129 0.8237618804 
1.546406269 49.62984085 3.409942627 0.8194814324 
-2.792421818 48.21750259 3.316839457 0.8239477277 
-4.952397346 48.21944809 3.328849316 0.8233704567 
-4.288984299 28.99733734 2.013029575 0.8891161084 
-7.532868385 31.34599113 2.213943005 0.8787477612 
-15.45410347 35.18679428 2.639209032 0.857198298 
-16.00456429 32.4387207 2.484080553 0.8649972677 
-17.7908802 32.34771729 2.535268307 0.8624162674 
-21.77486229 32.39287186 2.680443764 0.855137527 
-23.94550705 32.40899277 2.767255306 0.8508139849 
-26.25515366 32.41253662 2.864548922 0.8459951282 
-20.64821053 16.27401924 1.805478334 0.8999556303 
-20.61674309 13.46273613 1.690967202 0.9059925079 
-20.99889565 12.41622448 1.675305009 0.9068213105 
-21.96957397 11.70376301 1.709474564 0.9050140381 
-22.13912964 10.55773544 1.684417248 0.9063390493 
-53.28519821 9.585851669 3.718059063 0.804871738 
-15.91533375 0.7086645365 1.094054699 0.9381227493 
-15.91732121 -2.441406195e-06 1.093108058 0.9381745458 
-76.66986084 -13.79267025 5.349750042 0.7317353487 
-62.25763702 -14.08498001 4.383536339 0.7741996646 
-56.40601349 -18.16122437 4.06943655 0.7885268331 
-56.48859406 -23.91548729 4.212648869 0.7819626927 
-64.02497101 -30.53262711 4.871237755 0.7524664998 
-23.56199646 -15.3859911 1.93253243 0.8933045268 
-21.4176712 -15.38683033 1.811059356 0.8996624947 
-16.30582047 -15.38883781 1.539730906 0.9140273333 
-14.91732407 -15.38938427 1.471870542 0.917656064 
-13.6436615 -15.38988209 1.41241622 0.9208469391 
-12.4666357 -15.39034653 1.360162497 0.9236603975 
-11.17228508 -16.62021446 1.375283599 0.9228451848 
-11.1729784 -18.33314896 1.474400759 0.9175205231 
-11.17471695 -22.64965248 1.734454155 0.9036951661 
-11.17584896 -25.44614601 1.908603907 0.8945534825 
-13.63597107 -35.22605896 2.594036818 0.8594619632 
-4.432128906 -15.39352989 1.100083113 0.9377925992 
-3.699331045 -15.39382267 1.087254405 0.9384952188 
-2.982026339 -15.39410114 1.076827526 0.9390666485 
-0.2055224627 -15.39519024 1.05734539 0.940135479 
0.4797021449 -15.39545822 1.057782054 0.9401114583 
1.858710885 -15.39600086 1.064982176 0.9397162795 
2.558056593 -15.39627361 1.071819544 0.9393413067 
3.267856359 -15.39655209 1.080897331 0.9388436079 
3.991284132 -15.39683533 1.092313647 0.9382181168 
5.492426872 -15.39743137 1.122662425 0.9365570545 
6.277865887 -15.39772892 1.141936183 0.9355038404 
7.092387676 -15.39805126 1.164227724 0.9342871308 
7.941069126 -15.39838791 1.189809442 0.9328927994 
10.7545166 -15.39948654 1.289913774 0.9274566174 
12.57890606 -16.40574646 1.419705272 0.9204549789 
13.42262173 -15.98041439 1.43320024 0.9197300673 
65.17631531 -70.93364716 6.61540556 0.6796149015 
55.73537827 -46.39321518 4.980069637 0.7477006912 
57.22473526 -43.47351456 4.935294151 0.7496580482 
57.98432541 -40.11147308 4.841951847 0.7537543774 
59.22822952 -30.21134758 4.566041946 0.765994668 
53.46573257 -21.52155304 3.958011389 0.793674469 
58.15320206 -17.58757782 4.172268391 0.7838084102 
103.5906677 -21.50548363 7.265671253 0.6542966962 
61.92536926 9.441264153 4.301811218 0.7779026031 
69.67673492 13.81945801 4.878200054 0.7521608472 
62.4300766 15.29712391 4.414159298 0.772816956 
79.74797058 27.25239754 5.787587166 0.7132682204 
62.84366226 31.35400772 4.823054314 0.7545861006 
18.23798752 13.60103512 1.56240952 0.9128180146 
19.73658562 16.13315964 1.750601292 0.9028437734 
8.411478996 13.00740242 1.06377399 0.9397826791 
7.484491825 12.78772449 1.017546773 0.9423226118 
7.48416996 14.20080566 1.102375627 0.9376670718 
15.26619148 36.510746 2.717703819 0.8532793522 
16.42770004 44.78993225 3.276269436 0.8259016871 
15.28595638 48.21052551 3.473248243 0.8164579868 
4.086313248 48.21586227 3.323054075 0.8236490488 
1.988740206 49.62966156 3.411006927 0.8194302917 
-0.2151171863 48.35533905 3.320792675 0.8237577081 
-2.36197257 48.21711731 3.315235615 0.8240248561 
-4.519194126 48.21906281 3.32591486 0.8235114813 
-6.89054203 49.63312531 3.441202402 0.817987144 
-5.750400066 31.16788292 2.17655158 0.8806682825 
-7.22477293 31.286623 2.205123901 0.8792003989 
-10.79021454 33.00868988 2.384884357 0.870021522 
-16.88637924 44.80289841 3.288084745 0.825332284 
-23.50196266 32.40831375 2.749227762 0.8517100215 
-25.7801609 32.41181183 2.844090462 0.8470062017 
-28.22622681 32.41556549 2.951782227 0.8416974545 
-20.82169342 15.2413311 1.77206099 0.9017132521 
-21.84220123 11.88659 1.70772469 0.9051064849 
-56.44675064 -9.636958122 3.932529211 0.7948566675 
-56.41371918 -12.23631096 3.964184523 0.7933856249 
-60.35326385 -15.93207455 4.286677837 0.7785897851 
-56.40921783 -26.28705597 4.273824215 0.7791744471 
-30.39317322 -15.84555149 2.353853226 0.871598959 
-26.69475937 -15.46507263 2.118654251 0.8836499453 
-16.5990963 -15.38872528 1.554434896 0.9132430553 
-15.185112 -15.38927174 1.48472333 0.91696769 
-12.69498539 -15.3902483 1.370082259 0.9231256247 
-11.17215824 -16.30480957 1.357358813 0.9238116145 
-11.17561531 -24.84260178 1.870721221 0.8965340853 
-15.09103489 -43.52664948 3.163715124 0.8313469291 
-4.580878735 -15.39347172 1.102949619 0.9376357198 
-3.124438524 -15.39404774 1.078729033 0.9389625788 
-2.417172909 -15.39432049 1.07014358 0.939433217 
-1.719702125 -15.39459419 1.063785791 0.9397820234 
-0.3425341845 -15.39513683 1.057508945 0.9401264787 
0.3426318169 -15.39540958 1.057525158 0.9401254654 
1.02918458 -15.39567375 1.059643984 0.9400092959 
3.124951124 -15.39649868 1.078901768 0.9389531016 
3.845336914 -15.39677715 1.089838982 0.9383537173 
5.338393211 -15.39736748 1.119150162 0.9367491603 
6.118569374 -15.39767075 1.137847424 0.9357271791 
7.768300533 -15.3983202 1.184414744 0.9331867099 
10.55178165 -15.39940929 1.281984329 0.9278858304 
13.005229 -15.76621532 1.403556347 0.9213232398 
56.30308533 -43.56917953 4.889060497 0.7516841888 
57.76451874 -40.72434998 4.853671074 0.753238678 
57.33631897 -36.71718597 4.675698757 0.7611060739 
59.19662857 -30.86198616 4.58458662 0.7651655078 
52.57977295 -21.7104969 3.906572819 0.7960616946 
102.5537796 -22.24380302 7.206564903 0.6565593481 
76.18001556 14.40538502 5.324311256 0.7328233123 
62.96767426 14.83598137 4.442659855 0.7715322375 
62.63556671 23.92662621 4.604602337 0.7642719746 
61.09279251 33.24686813 4.776525021 0.7566389441 
19.73054695 15.83733845 1.737490654 0.9035350084 
19.41088295 17.05479431 1.774463654 0.901586771 
25.76439857 32.39200974 2.842358351 0.8470921516 
23.48910141 32.39027786 2.747713566 0.8517856598 
7.729960918 12.9416008 1.035221696 0.9413506389 
8.392226219 17.39848137 1.326560736 0.9254742265 
15.26585388 35.61590576 2.661099195 0.8561035991 
15.33297825 46.90549088 3.388932467 0.8204872012 
8.955224037 48.5394516 3.389672279 0.8204522729 
6.693471432 48.21350861 3.34277463 0.8227011561 
2.431386709 49.6294899 3.412348032 0.8193662167 
0.2170410156 48.78596497 3.350367308 0.8223366737 
-6.951098442 31.37208176 2.206700325 0.8791195154 
-8.450140953 31.44306374 2.235940695 0.8776199222 
-10.39750195 32.7923851 2.362480164 0.8711603284 
-15.51672363 37.10957336 2.762277842 0.8510614634 
-18.93293381 32.34815979 2.574005604 0.8604679108 
-27.72211456 32.41479111 2.92912221 0.8428116441 
-20.30809212 16.60018921 1.801283956 0.9001759887 
-20.82481956 15.53017521 1.784018993 0.901083827 
-20.541008 12.64419937 1.656467676 0.9078191519 
-22.2366066 11.09431171 1.70658946 0.9051665068 
-87.22663879 21.37259293 6.167410851 0.6976249814 
-15.91467762 0.9927172661 1.09505105 0.9380681515 
-15.91647434 0.2833788991 1.093223095 0.9381682873 
-15.91874218 -0.4251318276 1.093594193 0.9381478429 
-15.92148876 -1.13556397 1.096169591 0.9380067587 
-56.48812485 -22.73814964 4.181754112 0.7833741903 
-56.48929977 -25.71512604 4.262396336 0.7796948552 
-27.25052261 -15.46485329 2.15176034 0.8819438219 
-18.48664474 -15.38798332 1.651816845 0.9080656767 
-12.92683029 -15.39016056 1.380262852 0.9225770831 
-11.17269039 -17.6193409 1.432753682 0.9197539687 
-11.17537594 -24.26252365 1.834460616 0.8984342217 
-15.49769974 -43.44616699 3.167767763 0.8311502934 
-3.267289877 -15.39399338 1.080716968 0.9388534427 
-1.858510733 -15.39454079 1.064884424 0.9397218227 
-0.4796728492 -15.39508247 1.057756424 0.9401128888 
0.20562011 -15.39535618 1.057355523 0.9401348233 
0.8916161656 -15.39561939 1.059053779 0.9400417805 
1.581308603 -15.3958931 1.062861443 0.939832747 
2.277236223 -15.3961668 1.068819404 0.9395057559 
3.700043917 -15.39672375 1.087459207 0.9384840131 
4.433207989 -15.39700127 1.100332737 0.9377789497 
5.185307503 -15.3973093 1.115746617 0.9369353652 
5.960483074 -15.39761162 1.133880496 0.9359440207 
10.35150814 -15.39933109 1.274257302 0.9283046126 
13.33728981 -15.04428196 1.380696893 0.9225537181 
55.11606216 -47.56311035 4.999565125 0.7468498945 
57.66803741 -41.42932892 4.876349926 0.7522422075 
57.17285919 -37.33390045 4.689272404 0.7605032325 
52.41942215 -22.19274902 3.909185171 0.7959401011 
33.07542801 -12.29833984 2.423369169 0.8680691719 
58.15275192 -18.72365761 4.19548893 0.7827464938 
67.75461578 12.18883228 4.727692127 0.7587996125 
63.43104172 14.35069752 4.466169357 0.7704740763 
34.22399521 9.360922813 2.436599255 0.8673968315 
55.13467789 17.7518692 3.977745771 0.7927607298 
19.89207077 12.98951149 1.631528735 0.9091418982 
18.96770477 13.62657166 1.603884697 0.9106103778 
28.71398354 32.38896561 2.972517729 0.8406790495 
8.703344345 12.94743633 1.071370006 0.939365983 
7.94298315 13.03317356 1.048162699 0.9406396151 
4.245878696 8.605708122 0.6590067744 0.9622558355 
15.265522 34.75783539 2.607031107 0.8588103056 
15.33316898 45.53043365 3.299307823 0.8247916102 
11.92577648 49.62579346 3.505037069 0.8149443865 
7.131196022 48.21311951 3.347014189 0.8224975467 
4.951738358 48.21508026 3.328541279 0.8233850002 
0.6644238234 49.78219223 3.419047832 0.8190455437 
-3.654741049 48.21828079 3.320842266 0.8237551451 
-5.991987228 49.63277817 3.433243275 0.8183676004 
-6.478395939 30.52322006 2.142847776 0.8824028373 
-8.131608963 31.36868858 2.225417852 0.8781591654 
-9.926186562 32.30155563 2.320655346 0.8732900023 
-16.68157005 32.34728622 2.49942112 0.8642231226 
-18.5484314 32.34801102 2.560759783 0.8611335754 
-22.97402 32.8967247 2.755532265 0.8513965607 
-27.2258873 32.41402817 2.907048941 0.8438985348 
-21.50366402 12.20348072 1.697978377 0.905621767 
-84.11255646 21.40460396 5.960446835 0.7061052322 
-15.91436958 1.134921908 1.095680714 0.9380336404 
-69.50133514 -13.78469181 4.865916252 0.7527002692 
-60.1548996 -14.73941326 4.253281593 0.7801095843 
-59.0021553 -17.27290535 4.221981525 0.7815366387 
-30.14158058 -15.03830528 2.313271284 0.8736665249 
-24.99422264 -15.38541985 2.015584707 0.8889836073 
-22.67045403 -15.38634205 1.8815763 0.8959658742 
-17.20321274 -15.38848114 1.58510077 0.9116095901 
-13.16205502 -15.39007282 1.390701413 0.9220148921 
-12.01952076 -15.39051247 1.341057897 0.9246912599 
-11.17254829 -17.27697754 1.412953258 0.9208180904 
-11.17328548 -19.09030151 1.51905036 0.9151316881 
-11.17515087 -23.7046814 1.799726963 0.9002578259 
-15.96419907 -43.52631378 3.183841467 0.8303706646 
-13.80077076 -43.52715302 3.135839701 0.8327009678 
-4.13694334 -15.39365196 1.094655871 0.9380898476 
-1.304702163 -15.39475536 1.061009288 0.9399342537 
0.7542333603 -15.39556599 1.058544993 0.9400696158 
1.442871094 -15.39583492 1.061928511 0.9398839474 
2.137431622 -15.3961134 1.067453146 0.9395807385 
4.285092831 -15.39694786 1.097558379 0.937930882 
5.033207893 -15.39725018 1.112454653 0.9371154904 
6.599897385 -15.39786053 1.150476217 0.9350375533 
7.42752409 -15.39818287 1.174051046 0.9337515235 
9.197846413 -15.39888191 1.231787801 0.9306091666 
10.15372086 -15.39925766 1.266723752 0.9287129045 
11.16767597 -15.3996582 1.306374907 0.9265656471 
12.92352009 -16.24795914 1.425734043 0.9201311469 
48.46520233 -46.56184006 4.615432739 0.7637886405 
57.51987076 -42.10451889 4.89533186 0.7514089346 
52.28843689 -22.6879673 3.914325476 0.7957017422 
58.15252686 -19.29624939 4.207687378 0.7821890116 
58.17856216 -16.47070312 4.152385235 0.7847186327 
66.31539917 -15.62477493 4.678860188 0.7609658241 
103.8810501 -19.64362717 7.260376453 0.6544997096 
56.27992249 7.048593521 3.895176411 0.7965919375 
64.08960724 13.90091324 4.503636837 0.7687901855 
62.59084702 16.52272987 4.445621967 0.7713988423 
62.87667847 22.74452591 4.591827869 0.7648421526 
61.47335815 25.3833046 4.567370892 0.7659351826 
72.36471558 33.72242737 5.482699871 0.7260779738 
19.53936005 11.31971645 1.550765753 0.913439095 
19.90850449 12.74904251 1.623512983 0.9095677137 
19.30830956 13.61248016 1.622384787 0.9096275568 
19.38044357 14.99718761 1.682893515 0.9064198136 
19.72927666 16.72167397 1.776073694 0.9015021324 
59.87694168 55.510746 5.607237339 0.7208181024 
26.72014046 32.3927269 2.883708954 0.8450494409 
9.652578354 12.82394028 1.102267623 0.9376729131 
8.097485542 13.02449894 1.053218842 0.9403620362 
7.386610985 14.64171314 1.126217127 0.936362803 
15.26521492 33.93385315 2.555315256 0.86140728 
15.5289402 44.79026794 3.255555868 0.8269011974 
14.3470602 48.21137619 3.454361439 0.8173586726 
12.3937645 49.62561417 3.512666464 0.8145810962 
10.10331059 49.77851486 3.488197565 0.8157458305 
7.570068359 48.21271896 3.35153079 0.8222807646 
5.386034966 48.21469498 3.33170104 0.8232334256 
-3.223115206 48.21788788 3.318711996 0.8238578439 
-6.213019848 30.61138153 2.145070076 0.8822882771 
-7.815116882 31.29241562 2.214983702 0.8786944151 
-14.35040951 48.22262573 3.455173969 0.817320168 
-15.53354931 44.80236053 3.256447077 0.8268582821 
-16.96833992 42.70162201 3.155537128 0.8317438364 
-15.45441628 34.35367966 2.586942196 0.8598183393 
-16.31881714 32.3471489 2.488090515 0.86479491 
-18.16786003 32.34786224 2.547852278 0.8617828488 
-22.60415459 32.98849106 2.746266365 0.8518573642 
-24.39473343 32.40968323 2.785734892 0.849896431 
-26.7370739 32.41327667 2.885530949 0.844959259 
-20.41521835 14.39286804 1.715393186 0.9047015309 
-21.2494278 13.60775471 1.732860208 0.9037792683 
-22.08794403 11.5154705 1.710637569 0.9049526453 
-33.37083435 8.809230804 2.370215178 0.8707667589 
-15.91777802 -0.1416308582 1.093182802 0.9381704926 
-73.52957153 -13.90485764 5.139064789 0.7407914996 
-56.48767471 -21.5781498 4.15263319 0.7847070098 
-56.48883057 -24.5105114 4.228757858 0.7812274098 
-30.0939064 -14.6815815 2.299495459 0.8743694425 
-29.88077164 -16.26122475 2.336216211 0.8724968433 
-23.11046791 -15.38616657 1.906651974 0.8946553469 
-21.02048302 -15.38698673 1.788982987 0.9008227587 
-19.17035103 -15.38771439 1.688162684 0.9061409831 
-14.65398884 -15.38948727 1.459345818 0.9183272719 
-12.24145031 -15.39043427 1.350486517 0.9241822958 
-11.17493629 -23.16754913 1.766425014 0.9020099044 
-16.40493202 -43.52613831 3.194374323 0.829859972 
-11.22669411 -34.3439064 2.481350899 0.8651350737 
-4.284140587 -15.39358807 1.097317576 0.937943995 
-3.554780245 -15.3938818 1.084980845 0.9386197925 
-2.137187481 -15.39443779 1.067337751 0.9395871162 
-1.442749023 -15.39470196 1.061850071 0.9398882389 
-0.06848144531 -15.39524364 1.057263613 0.9401398897 
0.6168505549 -15.39551735 1.058121204 0.9400928617 
2.699111223 -15.39633274 1.073454976 0.9392517209 
3.411435366 -15.39660645 1.082992673 0.9387288094 
4.881997108 -15.397192 1.109267354 0.9372898936 
6.438324928 -15.39779758 1.146147847 0.9352739453 
7.259174824 -15.39811993 1.169071436 0.9340230227 
9.958231926 -15.39917946 1.259380341 0.9291112423 
10.95967293 -15.39956474 1.298035383 0.9270169139 
12.73788548 -16.31033707 1.421205521 0.9203743935 
13.50819302 -15.79478931 1.427277327 0.9200482965 
64.78205872 -63.35690689 6.222803593 0.6953723431 
58.14335632 -39.46092987 4.825705051 0.7544695139 
59.25959778 -29.56590271 4.547996521 0.7668019533 
58.15114212 -22.80850601 4.289680004 0.7784538865 
58.15229416 -19.87224007 4.220297813 0.7816134095 
58.15341568 -17.0244236 4.161252499 0.7843127251 
61.84466553 24.89429092 4.578304768 0.7654463649 
61.79039001 28.12828636 4.662390232 0.76169765 
71.63420105 36.53939819 5.522433758 0.7243953943 
19.8625927 12.47161579 1.61064589 0.9102511406 
17.88853073 13.58975029 1.542771697 0.9138653278 
19.74323273 16.43390656 1.764096498 0.90213269 
27.20833015 32.39310074 2.905169725 0.843990922 
8.986869812 12.86837387 1.077895999 0.9390081167 
8.25360775 13.01590824 1.058420897 0.94007653 
15.27572727 33.16460419 2.507532835 0.8638136983 
14.81513119 48.21095276 3.463648558 0.8169160485 
8.01057148 48.21232224 3.356328726 0.8220503926 
5.820766449 48.21429443 3.335114717 0.8230691552 
3.654599428 48.216259 3.320707321 0.8237618208 
-2.792421818 48.21750259 3.316839457 0.8239477277 
-4.288984299 28.99733734 2.013029575 0.8891161084 
-5.926393986 30.59301949 2.140002251 0.8825493455 
-7.532868385 31.34599113 2.213943005 0.8787477612 
-15.51333904 46.06547928 3.338083982 0.8229267597 
-15.45410347 35.18721008 2.639235258 0.8571969867 
-21.77448463 32.39261246 2.680414438 0.8551390171 
-20.64821053 16.27401924 1.805478334 0.8999556303 
-20.61674309 13.46273613 1.690967202 0.9059925079 
-20.99896431 12.416152 1.675306797 0.9068212509 
-21.96957397 11.70376301 1.709474564 0.9050140381 
-15.88806152 -0.7074682713 0.946185112 0.9382604361 
-104.3863449 -14.01847649 6.266136169 0.6557086706 
-60.25523376 -16.48111725 3.716521502 0.778554678 
-56.48734665 -21.00363731 3.585470438 0.7854568958 
-63.81378174 -30.43176651 4.206158161 0.7532979846 
-29.80345154 -15.87702084 2.009045124 0.873441875 
-26.01991081 -15.38502407 1.798393011 0.8859223723 
-23.56203651 -15.3859911 1.674212098 0.8933634162 
-21.41773415 -15.38683033 1.568971634 0.8997179866 
-19.52353477 -15.38757801 1.478938699 0.9051904678 
-16.30583 -15.38883305 1.333913445 0.9140754342 
-13.64365673 -15.38988209 1.223611236 0.9208914638 
-11.17156219 -18.33088303 1.277153134 0.917576611 
-11.17374039 -20.31640053 1.379457235 0.9112759233 
-11.17467785 -22.64944839 1.502594709 0.9037494659 
-13.59815884 -35.12824249 2.241045952 0.8598995209 
-14.65845203 -43.52682114 2.732501268 0.831902504 
-2.276977539 -15.39437962 0.9258418083 0.9395469427 
-0.8915478587 -15.3949213 0.9174439907 0.9400784373 
-0.2055224627 -15.39519024 0.9160087109 0.9401694536 
0.4797118902 -15.39545822 0.9163862467 0.9401454926 
1.858735323 -15.39600086 0.9226246476 0.9397504926 
2.558080912 -15.39627361 0.9285480976 0.9393757582 
3.26787591 -15.39655209 0.9364128113 0.9388782978 
4.731533051 -15.39713383 0.9583185911 0.9374940395 
7.092363358 -15.39805126 1.008601546 0.9343243837 
7.941044807 -15.39838314 1.030765533 0.9329308271 
8.829677582 -15.39873981 1.056060314 0.9313426614 
9.76488781 -15.39910126 1.084832549 0.9295397401 
10.75450134 -15.39949226 1.117486358 0.9274975657 
50.84524155 -55.33656693 4.470935345 0.7399833798 
59.63831711 -49.641819 4.616479397 0.7327649593 
57.28045654 -43.51572037 4.279734612 0.749574542 
58.0602417 -40.16422653 4.200218201 0.7535999417 
57.76170731 -36.2685051 4.057766438 0.7608649731 
57.66342545 -32.72423935 3.944597721 0.766686976 
59.28455734 -30.24020958 3.959457874 0.765920043 
51.51780319 -20.73752403 3.304013491 0.8004889488 
59.94016647 -15.25365734 3.679759979 0.7804849148 
98.32025909 10.54030704 5.883024693 0.6728492975 
75.3743515 14.94931126 4.571692467 0.7349787951 
29.46171379 8.624853134 1.826370001 0.8842548132 
65.89691162 25.84648895 4.211279869 0.7530387044 
63.70820236 28.31937981 4.147881508 0.7562610507 
72.06591034 35.95513916 4.791519165 0.7241772413 
19.33207893 13.12046337 1.390026689 0.9106276631 
58.91078949 48.15515137 4.526814461 0.7372040153 
58.95263672 52.73387909 4.705810547 0.7283701301 
25.24944687 32.33100891 2.440597534 0.8484201431 
23.09509659 32.45101547 2.369674206 0.8524822593 
18.92441368 32.33346558 2.228924751 0.8606022596 
15.26625443 36.510849 2.35442543 0.8533582091 
6.154350281 16.77973175 1.063329577 0.9308869243 
12.95690918 48.21261978 2.970155001 0.8186927438 
6.256572247 48.21390152 2.892504215 0.8229856491 
-0.2151855379 48.3552742 2.876893282 0.8238514662 
-2.362026215 48.21710968 2.872082472 0.8241183162 
-4.519057751 48.21905518 2.881328106 0.8236052394 
-6.890429497 49.63312531 2.981212616 0.8180834651 
-9.173742294 49.72340393 3.008187771 0.8165983558 
-8.658945084 31.11258316 1.921373725 0.8786148429 
-15.51202869 47.4535141 2.970221996 0.8186888099 
-15.82086372 41.97600555 2.668824911 0.8354780078 
-19.32164001 32.34830856 2.241710663 0.8598613143 
-21.32985497 32.34908676 2.305298805 0.8561865091 
-23.45963287 32.34991455 2.377443075 0.8520362973 
-25.73167992 32.35079575 2.459275246 0.8473531604 
-28.1707325 32.35174179 2.552172422 0.8420677185 
-20.7315197 13.80238533 1.481756449 0.9050187469 
-20.91230011 12.61750793 1.453081489 0.906768322 
-16.00590324 -1.284782648 0.9553226829 0.9376832247 
-104.8734741 -13.1348877 6.288123131 0.6547388434 
-80.70339966 -13.77808571 4.870862961 0.7203173637 
-34.92332458 -12.63289547 2.209496498 0.8617289066 
-30.30309486 -15.79858398 2.03316474 0.8720239997 
-21.82479858 -15.38666439 1.588697672 0.8985234499 
-19.88483429 -15.38743591 1.495876312 0.9041585326 
-13.89013672 -15.38978958 1.23338604 0.9202855229 
-12.6950388 -15.39025879 1.186942816 0.9231687188 
-11.1707468 -16.30270958 1.175768614 0.9238638878 
-11.17141533 -17.96881294 1.258806586 0.9187113047 
-3.124418974 -15.39404774 0.9345316887 0.9389972091 
-1.029096603 -15.3948679 0.9179502726 0.9400464296 
-0.3425830007 -15.39513683 0.9161503315 0.9401604533 
0.3426025212 -15.39540958 0.9161641002 0.94015944 
1.029155254 -15.39567375 0.9179978967 0.9400433898 
4.58194828 -15.39706516 0.9557377696 0.9376569986 
5.338388443 -15.39736748 0.9695503116 0.9367850423 
6.118574142 -15.39767075 0.9857496619 0.9357635975 
6.926904202 -15.39798832 1.004521966 0.9345812798 
7.768320084 -15.39831543 1.026093006 0.9332244992 
8.648447037 -15.39866638 1.050734639 0.931676805 
9.573754311 -15.39902782 1.078780055 0.9299186468 
10.55181599 -15.39940929 1.110621452 0.9279264808 
13.43850517 -16.29153252 1.256454229 0.9188568592 
50.52155304 -55.97610855 4.486105919 0.739227891 
49.05010605 -45.47319412 3.979337692 0.7648950219 
56.93596649 -48.25664902 4.44037199 0.7415085435 
56.41242981 -43.65350342 4.24374485 0.7513939738 
57.3841095 -36.74744415 4.054058552 0.7610552311 
64.10340881 -37.1370163 4.407569408 0.7431487441 
58.15193176 -21.03539085 3.679106474 0.7805193663 
54.4116478 -14.36353493 3.348079205 0.7981168032 
