# .PCD v0.7 - Point Cloud Data file format
VERSION 0.7
FIELDS x y z intensities
SIZE 4 4 4 4
TYPE F F F F
COUNT 1 1 1 1
WIDTH 925
HEIGHT 1
VIEWPOINT 0 0 0 1 0 0 0
POINTS 925
DATA ascii
25.0520401 -5.433752537 -1.996049047 0.9022635818 
25.26830101 -4.313967228 -1.995998979 0.9022659063 
25.43473625 -3.185502768 -1.995960474 0.9022675753 
25.5508976 -2.050993681 -1.995933771 0.9022688866 
25.61665916 -0.9122484922 -1.995918989 0.9022695422 
25.59639549 1.368132353 -1.995925069 0.902269423 
23.33809471 4.413171291 -1.849438787 0.9091053009 
24.95173836 5.878957272 -1.996078491 0.9022620916 
22.78855324 6.451784611 -1.84418571 0.9093512893 
22.12569809 8.4519701 -1.844250798 0.9093483686 
21.2681694 10.37587166 -1.842624307 0.9094245434 
20.77691269 11.30687714 -1.841855168 0.9094606042 
17.94015503 11.94393253 -1.678187847 0.917162478 
16.31779289 11.94459248 -1.574623227 0.9220698476 
16.12973022 12.94706249 -1.610505342 0.9203665853 
16.12752342 14.17000675 -1.671634793 0.9174722433 
10.99393559 10.56219006 -1.187101126 0.9406663775 
10.64134789 11.17544174 -1.201575398 0.9399651289 
9.356474876 10.74508476 -1.109414935 0.9444393516 
8.427289963 10.59511471 -1.054136515 0.9471331239 
6.977001667 10.5813942 -0.9869121909 0.9504196048 
6.36829567 10.66191387 -0.9670119286 0.9513946176 
5.670649052 10.53141117 -0.931353271 0.9531441927 
5.129775047 10.634902 -0.919393301 0.9537318349 
3.687079906 8.60214138 -0.7287451029 0.9631468058 
3.934540987 10.43926716 -0.8686766028 0.9562273622 
3.450639486 10.55599308 -0.8647469282 0.956420958 
2.529330969 18.21898842 -1.432234764 0.9288596511 
2.158759832 23.03461647 -1.801461577 0.9113554358 
-2.979374886 22.95852661 -1.80266571 0.9112987518 
-1.931552649 11.01800537 -0.8710029125 0.9561126232 
-2.752182484 10.24088573 -0.8257033229 0.9583469629 
-4.457251072 10.65993404 -0.8996795416 0.954701066 
-5.01262188 10.63274193 -0.9153151512 0.9539322853 
-5.577846527 10.58357143 -0.93154037 0.9531350136 
-6.886545181 10.64916515 -0.9874782562 0.950391829 
-7.529980183 10.58045864 -1.011192203 0.9492312074 
-8.374865532 10.72368526 -1.059472442 0.9468727112 
-9.17108345 10.72353458 -1.098710418 0.9449602962 
-10.20061493 10.90524483 -1.162716746 0.9418488741 
-10.8357811 10.5973835 -1.180165052 0.9410025477 
-21.75028801 9.668300629 -1.853378534 0.9089205861 
-22.17100143 8.696080208 -1.854400635 0.9088728428 
-22.54089355 7.702837944 -1.85480988 0.9088536501 
-22.86214638 6.692897797 -1.854884624 0.9088500738 
-25.29346848 5.016628265 -2.00785327 0.901714921 
-25.49223328 3.886503935 -2.007899523 0.9017125964 
-15.55082703 0.9700195193 -1.213225245 0.9394009709 
-15.55754375 -1.109601974 -1.214472055 0.939340651 
-25.61471939 -2.9768188 -2.007924557 0.9017114639 
-25.45642471 -4.113339901 -2.007886648 0.9017133117 
-25.24768066 -5.241425514 -2.007837057 0.901715517 
-24.98870087 -6.359230995 -2.007776022 0.9017184973 
-24.32273865 -8.554384232 -2.007618666 0.9017256498 
-23.91699219 -9.627299309 -2.00752306 0.9017302394 
-21.21595955 -10.82189941 -1.854489446 0.9088685513 
-20.71213531 -11.75426483 -1.854370832 0.9088743329 
-20.16745377 -12.66305161 -1.854242682 0.9088801742 
-18.96440887 -14.40709686 -1.854462862 0.9088699222 
-18.30591774 -15.23753643 -1.854587674 0.9088640809 
-17.60933495 -16.03604126 -1.854511023 0.9088675976 
-15.45773888 -15.38912773 -1.698406935 0.9162074924 
-12.94058037 -15.40651131 -1.566660762 0.9224481583 
-11.80047798 -15.39063168 -1.510116816 0.9251398444 
-11.72193813 -18.4854908 -1.704375982 0.9159257412 
-11.72272396 -20.44410896 -1.835020423 0.9097807407 
-10.90949726 -21.15462685 -1.853355765 0.9089217782 
-9.956928253 -21.61716461 -1.85320127 0.9089289308 
-7.994995117 -22.41273117 -1.852888107 0.9089436531 
-3.423266411 -16.12880516 -1.283852816 0.935988605 
-2.70212388 -16.26296043 -1.283683777 0.9359967709 
-1.864531159 -15.44422054 -1.2113024 0.9394940138 
-1.166875005 -15.39504623 -1.202181935 0.9399357438 
0.2079101503 -15.56830788 -1.212340832 0.9394437671 
0.9016113281 -15.56858635 -1.214287281 0.9393496513 
3.741611242 -15.56974316 -1.246862411 0.9377743602 
5.243583679 -15.57035351 -1.279296637 0.9362083077 
6.838725567 -15.5710125 -1.324226975 0.934043467 
7.682558537 -15.57135487 -1.352012873 0.9327071905 
9.490273476 -15.57209206 -1.419961691 0.9294472933 
15.73948193 -17.75391388 -1.847455144 0.9091982841 
16.50995636 -17.03225708 -1.847031832 0.9092179537 
19.24681664 -13.82710171 -1.845312476 0.9092985988 
19.83815384 -12.95430851 -1.844880462 0.9093187451 
20.39322281 -12.0579958 -1.844737172 0.9093254805 
24.03023338 -8.935085297 -1.996286631 0.9022524357 
25.22908211 -4.53863287 -1.996007919 0.9022653103 
25.40547752 -3.411899328 -1.995967269 0.902267158 
25.53169823 -2.278249502 -1.995938182 0.9022686481 
25.60756302 -1.140139103 -1.995921135 0.902269423 
25.6075573 1.140354037 -1.995922327 0.902269423 
25.5317173 2.278254271 -1.995940685 0.9022685885 
25.40546799 3.411906719 -1.995970845 0.9022672176 
25.00292015 5.656696796 -1.996066451 0.9022625685 
22.84492111 6.248547077 -1.844172478 0.9093520045 
22.20099068 8.254919052 -1.84432447 0.909344852 
21.8030262 9.230714798 -1.843586683 0.9093794823 
20.87841797 11.12249279 -1.842006445 0.9094535112 
20.17898941 11.93132019 -1.825358033 0.9102339745 
18.29065895 11.94379139 -1.700968146 0.9160866141 
10.6605072 10.99795628 -1.192642212 0.940397799 
8.042626381 10.88528824 -1.05384469 0.947147429 
6.507782936 10.67829323 -0.9737161994 0.9510660768 
5.771083832 10.4932127 -0.9324799776 0.9530889392 
5.251972675 10.64492416 -0.9242650867 0.953492403 
3.554247856 10.55406475 -0.8671441674 0.956302762 
3.024868011 10.5057497 -0.8512653112 0.9570854902 
2.024589777 10.45130062 -0.8289215565 0.9581879973 
0.3088085949 23.13908958 -1.801895142 0.9113349319 
-0.7207958698 23.13300705 -1.80213654 0.9113236666 
-2.774731398 22.98352051 -1.802617788 0.9113010764 
-3.129345655 10.18344975 -0.8295301795 0.958157897 
-3.6953125 10.35947227 -0.8564263582 0.956831038 
-4.263657093 10.45764828 -0.87936759 0.9557008147 
-4.910043716 10.66004658 -0.9138669968 0.9540033937 
-6.060536861 10.56941605 -0.94868958 0.9522931576 
-6.712749004 10.5857935 -0.9760232568 0.9509528875 
-7.403066158 10.60052013 -1.006773591 0.9494473338 
-8.178869247 10.66701126 -1.046641707 0.9474989176 
-9.095526695 10.82877541 -1.101158857 0.9448411465 
-9.859354973 10.73019886 -1.134656668 0.9432116747 
-10.72653294 10.6789093 -1.17856884 0.9410799742 
-17.53238487 15.96598244 -1.84640801 0.90924716 
-18.23420334 15.17783737 -1.847321153 0.9092044234 
-19.12503433 12.00852489 -1.758399725 0.9133796692 
-21.66091347 9.860523224 -1.853175044 0.9089302421 
-22.80152321 6.895978928 -1.854870439 0.9088507295 
-25.45649338 4.113124847 -2.007891178 0.9017131925 
-15.55038548 1.108964801 -1.21391201 0.9393677115 
-15.55262184 0.4153491259 -1.211442828 0.9394872189 
-25.04454613 -6.13651371 -2.007789135 0.9017177224 
-24.74586678 -7.244338036 -2.007718563 0.9017210603 
-24.00196266 -9.414237976 -2.007543087 0.9017292261 
-21.87352943 -9.723073959 -1.86388135 0.9084289074 
-21.31163597 -10.63283443 -1.854511976 0.9088675976 
-20.81618881 -11.56968212 -1.85439527 0.9088731408 
-19.70440865 -13.37327862 -1.854288578 0.9088779092 
-17.75156784 -15.87897205 -1.854537368 0.9088663459 
-15.73519039 -15.38901043 -1.713777781 0.9154821038 
-14.41050243 -15.40591049 -1.642582417 0.9188467264 
-12.01955509 -15.39054394 -1.520546675 0.9246425629 
-11.72180176 -18.12629128 -1.680817842 0.9170382619 
-9.180888176 -21.95625687 -1.853076577 0.908934772 
-8.194043159 -22.3411541 -1.852919579 0.908942163 
-4.880698204 -15.39351749 -1.257429242 0.9372638464 
-3.500649452 -15.79991913 -1.26010108 0.9371346831 
-2.846782207 -16.23870277 -1.283717632 0.9359951615 
-1.304726481 -15.39498711 -1.203035355 0.9398943782 
-0.6237597466 -15.56796551 -1.213179111 0.9394032359 
0.069248043 -15.56824875 -1.21224153 0.9394486547 
0.7626953125 -15.56853199 -1.213704824 0.9393777847 
2.161445379 -15.56909847 -1.223923445 0.9388833642 
2.872441292 -15.56938648 -1.232778192 0.9384551048 
3.595390558 -15.56968498 -1.24424684 0.937900722 
5.868535042 -15.57060719 -1.295667648 0.9354189634 
6.674077034 -15.57094479 -1.319120646 0.9342893362 
7.511015415 -15.57128143 -1.34615016 0.9329889417 
8.384555817 -15.57163334 -1.377090454 0.9315027595 
12.70182133 -15.96923065 -1.588821411 0.9213954806 
17.10249519 -16.43082809 -1.846690655 0.9092340469 
17.81229401 -15.65025139 -1.846261859 0.9092540145 
19.72304726 -13.13092041 -1.84496665 0.909314692 
20.28532219 -12.23929882 -1.844762564 0.9093242884 
21.29014206 -10.38657665 -1.84452796 0.9093353748 
22.37855339 -9.710061073 -1.899483085 0.9067642093 
23.95004845 -9.148620605 -1.996305227 0.9022514224 
24.95162964 -5.878930569 -1.996072292 0.9022625089 
25.18780136 -4.762934685 -1.996017575 0.9022649527 
25.37419891 -3.637804985 -1.995974422 0.90226686 
25.5105114 -2.505314827 -1.995943069 0.9022683501 
25.59638214 -1.368132353 -1.995923519 0.9022694826 
25.61664963 0.9122533798 -1.995920062 0.9022696018 
25.26841736 4.313991547 -1.996003509 0.9022654891 
25.05213737 5.433776855 -1.996054769 0.9022632241 
22.27329063 8.056999207 -1.844307303 0.9093458652 
20.97829628 10.93720436 -1.842159033 0.9094462991 
20.46273422 11.85466003 -1.841408491 0.9094814062 
18.65081978 11.94364452 -1.724509835 0.9149760008 
16.12168884 13.66407394 -1.645572305 0.9187060595 
8.675643921 10.51747799 -1.061613321 0.9467683434 
8.121328354 10.78961182 -1.051534653 0.9472601414 
7.134404182 10.41193867 -0.9827984571 0.9506210685 
5.871923923 10.45495319 -0.9336899519 0.9530295134 
5.359941483 10.62447453 -0.926594317 0.9533780217 
4.718305588 10.48857117 -0.8955295086 0.9549052119 
4.297758579 10.81551456 -0.9062083364 0.9543799162 
3.185497999 10.70449162 -0.8696318865 0.9561802149 
2.586493969 10.35658169 -0.8311877847 0.958076179 
2.101367235 10.35339546 -0.8226079941 0.9584998488 
1.738798738 11.07418442 -0.8728583455 0.9560212493 
1.543168902 23.08594894 -1.801605821 0.9113484025 
0.5148534775 23.13478661 -1.801846862 0.9113372564 
-0.5149511695 23.13790321 -1.802088261 0.9113258719 
-1.543793917 23.09513855 -1.802329421 0.9113147259 
-3.591318369 22.87265778 -1.802809119 0.9112920165 
-2.579467773 10.32839108 -0.8289219737 0.9581878781 
-3.607040882 10.40361023 -0.8573907018 0.9567836523 
-8.072871208 10.72523403 -1.045259356 0.94756639 
-8.829111099 10.7035141 -1.080389738 0.9458527565 
-9.668847084 10.71280766 -1.123666167 0.9437459111 
-17.38783073 16.11993408 -1.846228004 0.909255445 
-18.09661674 15.33792686 -1.847136855 0.9092131257 
-18.61964989 14.40848827 -1.833223939 0.9098650217 
-18.63188934 13.13560677 -1.775077939 0.9125950933 
-18.63238907 11.93185234 -1.722808599 0.9150563478 
-20.56895256 11.9161911 -1.850966454 0.9090335965 
-21.09003448 10.99522209 -1.851963401 0.9089870453 
-20.61348915 8.511424065 -1.736517429 0.9144099355 
-22.39982605 8.10274601 -1.854776859 0.9088550806 
-23.53590775 6.213010311 -1.895414114 0.9069541693 
-25.19997025 5.465834618 -2.007831573 0.9017157555 
-25.58714104 3.204596996 -2.007921219 0.901711762 
-15.55217457 0.5538452268 -1.211744785 0.9394726753 
-25.09829521 -5.913476467 -2.00780201 0.901717186 
-24.80952072 -7.023945332 -2.007733583 0.9017204046 
-24.47157097 -8.12019062 -2.007653713 0.9017241001 
-22.38199234 -9.71155262 -1.899770737 0.9067505598 
-21.40568733 -10.4429369 -1.854534149 0.9088664651 
-18.5737896 -14.90887451 -1.85454011 0.9088662863 
-16.01796913 -15.38889885 -1.729587197 0.914736867 
-14.66955566 -15.40580273 -1.656420231 0.9181917906 
-13.4153614 -15.4063158 -1.590679884 0.9213073254 
-11.72102547 -16.16299438 -1.554631591 0.9230202436 
-11.72240162 -19.62581825 -1.780019283 0.9123628736 
-11.28475094 -20.95779419 -1.853417158 0.908918798 
-10.3403368 -21.43726349 -1.853263259 0.9089261293 
-9.375805855 -21.87413788 -1.853107691 0.9089334607 
-8.392773628 -22.2677021 -1.85295105 0.9089406729 
-4.291865349 -15.42129135 -1.246422887 0.9377955198 
-2.143994093 -15.44323444 -1.21402812 0.9393621683 
-0.06926757842 -15.56819057 -1.212236166 0.9394488931 
0.6237695217 -15.56847382 -1.21322 0.9394013286 
2.020424843 -15.56904984 -1.222456455 0.9389542937 
2.729433537 -15.56932831 -1.230800271 0.9385506511 
3.449755669 -15.56962585 -1.241738439 0.9380218983 
4.184321404 -15.56992912 -1.255376458 0.9373629093 
5.710829735 -15.57054424 -1.291383982 0.9356254935 
6.510688305 -15.57087612 -1.314154029 0.9345283508 
7.340781212 -15.57121754 -1.340439081 0.9332634807 
9.114032745 -15.57193565 -1.404927611 0.9301675558 
10.07019997 -15.57232666 -1.443990111 0.9282971621 
12.59962845 -16.1333313 -1.593933344 0.9211528897 
16.20561981 -17.325037 -1.847201467 0.9092100859 
18.99941444 -14.16887379 -1.845485449 0.9092904329 
19.60633278 -13.30648613 -1.845053196 0.9093106985 
20.17590714 -12.4194622 -1.844787955 0.9093230963 
20.70703125 -11.50878429 -1.844663978 0.9093289971 
21.19714737 -10.57571507 -1.844549656 0.9093343019 
21.85961914 -9.716903687 -1.862693548 0.9084843993 
23.86784554 -9.361623764 -1.99632442 0.9022505879 
24.25957489 -8.290158272 -1.996233225 0.9022548795 
25.34090805 -3.863427639 -1.99598217 0.902266562 
25.48723602 -2.732414484 -1.995948434 0.9022681713 
25.58325577 -1.595808029 -1.995926499 0.9022693038 
25.62882805 -0.4563061297 -1.995916367 0.9022696018 
25.56809998 1.823586345 -1.995931983 0.9022690058 
23.31648445 2.709723949 -1.827768087 0.9101208448 
25.09935951 5.210651875 -1.996043563 0.902263701 
22.34396362 7.858449459 -1.844290733 0.9093463421 
21.96784592 8.842717171 -1.843916535 0.9093639255 
21.07663536 10.75084686 -1.842313051 0.9094390869 
20.56902313 11.673069 -1.841556072 0.9094745517 
17.26616096 11.94420624 -1.634788156 0.919216454 
16.13744164 12.25947952 -1.578056335 0.921908319 
16.17572212 14.73053932 -1.703536153 0.9159655571 
10.86514091 10.81691647 -1.193799257 0.9403417706 
9.791815758 10.65686989 -1.126896143 0.9435890317 
9.203427315 10.9572382 -1.114221573 0.9442053437 
8.160800934 10.64364433 -1.044342279 0.9476112127 
7.275781155 10.41825867 -0.9894652963 0.9502944946 
6.8085742 10.73711205 -0.9899713397 0.9502697587 
6.050868988 10.55259037 -0.9471793175 0.9523673058 
4.816884518 10.45778751 -0.8965294957 0.9548560977 
3.722338676 10.43521214 -0.8626891971 0.9565224051 
3.263212919 10.61914253 -0.8650227189 0.9564073086 
2.706137657 10.43930435 -0.8397271633 0.9576547146 
2.198720694 10.3593874 -0.8246060014 0.9584012032 
1.810859323 10.89885712 -0.8602775931 0.9566411972 
1.748637676 23.07062149 -1.801557779 0.9113508463 
0.7206445336 23.12868881 -1.801798701 0.9113394618 
-1.338222623 23.10739517 -1.802281141 0.911316812 
-2.365209818 23.02801514 -1.802521825 0.911305666 
-3.387597561 22.90310669 -1.802761316 0.9112942219 
-2.498232365 10.39572525 -0.8325102329 0.9580107927 
-2.96484375 10.29719925 -0.83436656 0.9579191804 
-5.206567287 10.55289078 -0.9162732363 0.9538850784 
-5.778254032 10.50623226 -0.9336373806 0.953032136 
-6.465732098 10.60925961 -0.9674203992 0.9513745308 
-7.108901024 10.57548332 -0.9922198057 0.9501596689 
-7.959899902 10.77332211 -1.043002605 0.947676599 
-9.446955681 10.65606308 -1.108855724 0.9444664717 
-11.26416969 10.63070488 -1.206019044 0.9397498965 
-17.95769501 15.49681854 -1.846953392 0.90922153 
-18.61953735 14.67509842 -1.845995784 0.9092664719 
-18.63178253 13.38526249 -1.786335111 0.912065506 
-18.6322937 12.16688251 -1.732752442 0.914588213 
-20.98900795 11.1814003 -1.85176301 0.9089964032 
-21.47736359 10.24213696 -1.852769375 0.9089491367 
-20.61312675 8.726946831 -1.742971659 0.9141061902 
-22.32664299 8.301634789 -1.854759932 0.9088559151 
-22.67479134 7.300675869 -1.854840994 0.9088521004 
-22.97798538 6.284941196 -1.854911447 0.9088488221 
-25.15018272 5.690011978 -2.007820129 0.9017162323 
-25.55754852 3.432326555 -2.007914543 0.9017118812 
-15.55173016 0.6924145222 -1.212142587 0.939453423 
-15.55403042 0 -1.354287744 0.9394586086 
-22.48436928 -5.086828709 -2.007189751 0.9115951657 
-22.23514748 -6.081794262 -2.007130861 0.9115977287 
-21.9418602 -7.064630985 -2.007061481 0.9116005898 
-21.60501671 -8.033370972 -2.006982088 0.9116039276 
-21.22534943 -8.986093521 -2.006892443 0.9116076231 
-20.34025192 -9.699935913 -1.962096691 0.91349262 
-18.79210663 -10.0110054 -1.853921771 0.9180608988 
-18.32708168 -10.83641338 -1.853812337 0.9180655479 
-15.48337364 -14.61262417 -1.853716135 0.9180695415 
-14.81855392 -15.28747272 -1.853787184 0.9180666804 
-11.72085953 -15.86361027 -1.717360854 0.9238605499 
-10.25780773 -18.65102196 -1.853352666 0.9180851579 
-9.417299271 -19.08746719 -1.853214979 0.9180908799 
-8.558261871 -19.48603249 -1.853076339 0.9180967212 
-5.18402338 -15.39339542 -1.414264441 0.9368638992 
-4.320454121 -15.00553894 -1.359607339 0.9392281175 
-0.8915820122 -15.39516354 -1.342701674 0.9399607182 
-0.2078417987 -15.56813717 -1.355638742 0.9394001961 
0.4850976467 -15.56842041 -1.35619998 0.9393758178 
3.304589748 -15.56956768 -1.385840535 0.9380927086 
4.036093712 -15.56986523 -1.40047586 0.9374598265 
4.784707069 -15.5701685 -1.418263078 0.9366912842 
7.172084808 -15.57113934 -1.492683649 0.9334821701 
8.928930283 -15.57185745 -1.562922597 0.9304636121 
10.75482368 -15.39995861 -1.635488391 0.9273549914 
12.63154316 -16.47439575 -1.807538509 0.92002666 
13.64658642 -16.24705696 -1.847438812 0.918335557 
15.03050709 -14.96375656 -1.846682906 0.9183673859 
15.67800236 -14.27737045 -1.846300364 0.9183836579 
16.29418945 -13.56298542 -1.845915675 0.9183999896 
17.4305954 -12.05792904 -1.845431685 0.9184204936 
17.94857407 -11.26989269 -1.845310569 0.9184255004 
19.04998016 -9.717125893 -1.862004638 0.9177188277 
20.8747654 -9.502573013 -1.997025728 0.9120224714 
21.95103455 -6.638781548 -1.996775031 0.9120331407 
22.22394562 -5.655578613 -1.996711731 0.9120357037 
22.45292854 -4.661244869 -1.996658564 0.912037909 
22.63755798 -3.657766104 -1.996615767 0.9120397568 
22.77749062 -2.64708972 -1.996583462 0.9120411277 
22.88602448 1.427609801 -1.996560335 0.912042141 
22.66918373 3.456159592 -1.996612191 0.912039876 
22.49349022 4.461232662 -1.996653914 0.9120380282 
22.27331924 5.457551003 -1.996706009 0.9120360017 
19.72566414 7.736930847 -1.844904304 0.9184429049 
19.36039925 8.606041908 -1.844752669 0.918449223 
18.95113182 9.455119133 -1.844042063 0.9184792042 
18.50490189 10.28496838 -1.843358278 0.918508172 
17.50536156 11.8807106 -1.842076778 0.9185624719 
16.11553764 13.17326355 -1.812322617 0.9198237658 
10.14873505 10.84980202 -1.293553472 0.9420934916 
9.295136452 10.86852264 -1.245205641 0.9441962838 
7.477509499 10.50668716 -1.1228441 0.9495390058 
6.885986328 10.64836121 -1.104122877 0.9503591061 
5.653051853 10.72635937 -1.0557096 0.9524831772 
3.826664925 10.43337154 -0.9676067829 0.9563606977 
3.351372004 10.56996822 -0.9654793143 0.9564545751 
2.82659173 10.5178175 -0.9482777119 0.9572134614 
2.288828135 10.33028316 -0.9212675095 0.9584063888 
1.855698228 10.58537292 -0.9357212782 0.9577678442 
2.66234374 20.5164566 -1.80134213 0.9202894568 
1.747265577 20.6170063 -1.801556706 0.9202804565 
-1.012748957 20.67354393 -1.802203655 0.9202530384 
-1.931621075 20.61051559 -1.802418947 0.9202437997 
-2.418290854 10.47239494 -0.9358240366 0.9577633142 
-3.847460747 10.20816135 -0.9498589039 0.957143724 
-4.640654087 10.82691669 -1.025644302 0.9538046122 
-5.104848385 10.58312035 -1.023069263 0.953917861 
-6.968715668 10.56882286 -1.102261066 0.9504405856 
-7.816376686 10.77849102 -1.159276247 0.9479449391 
-16.55814362 13.29098892 -1.84872067 0.9182811379 
-17.6901989 11.77756786 -1.850423574 0.9182089567 
-18.20519066 10.98416138 -1.851297855 0.9181720018 
-19.12786102 9.331614494 -1.85308373 0.9180963039 
-19.89340591 7.599137783 -1.854189277 0.9180495143 
-20.21257973 6.706962585 -1.854263544 0.9180462956 
-22.43815613 5.286708832 -2.007184505 0.9115953445 
-22.6517086 4.283454418 -2.007233858 0.9115931392 
-15.55581474 -0.5540087819 -1.355302811 0.93941468 
-22.87496948 -2.864978075 -2.007282257 0.9115912318 
-22.00404549 -6.869145393 -2.007076263 0.9115998745 
-21.67589378 -7.840871334 -2.006998777 0.9116030335 
-21.30468369 -8.796928406 -2.006911278 0.9116068482 
-20.80075455 -9.693285942 -1.998119116 0.9119764566 
-18.42303276 -10.67301273 -1.853834987 0.9180645347 
-17.92887688 -11.48125172 -1.853718638 0.9180694818 
-17.39923477 -12.26660156 -1.853594184 0.9180747867 
-16.24026871 -13.76459694 -1.85360837 0.918074131 
-14.95390129 -15.15490437 -1.853774428 0.9180672169 
-13.9048872 -15.40611076 -1.806976557 0.9200504422 
-11.72073746 -15.57155991 -1.696969867 0.9247296453 
-11.72135258 -17.10627174 -1.805549026 0.9201109409 
-10.42356873 -18.55930328 -1.853379965 0.9180838466 
-7.858837605 -19.77711678 -1.85296464 0.9181013703 
-5.33698225 -15.39333725 -1.418566227 0.9366780519 
-3.045693398 -15.00605679 -1.333217382 0.9403719306 
-1.719721675 -15.3948164 -1.348762751 0.9396980405 
-1.029116154 -15.39509964 -1.343443274 0.9399285913 
-0.3464355469 -15.56808281 -1.355847955 0.9393910766 
1.040712833 -15.56864929 -1.358586669 0.9392724037 
2.444628954 -15.56921577 -1.372220755 0.9386820793 
3.160038948 -15.56950855 -1.383277297 0.9382036328 
4.633437634 -15.57010937 -1.414444685 0.9368562102 
6.187338829 -15.57073975 -1.458860993 0.9349392653 
7.004760742 -15.57107639 -1.486641765 0.9337422848 
8.745668411 -15.57178402 -1.555039167 0.9308018088 
9.681386948 -15.57216549 -1.596545219 0.9290219545 
10.55213356 -15.39986992 -1.625442982 0.9277847409 
14.89732838 -15.09756088 -1.8467592 0.9183641672 
15.55096149 -14.41692638 -1.846377015 0.9183804393 
18.33737183 -10.62340069 -1.845219851 0.9184294939 
18.79076195 -9.796615601 -1.845114112 0.9184337854 
20.78953552 -9.688051224 -1.997045755 0.9120218158 
21.19893456 -8.753266335 -1.99695015 0.9120256901 
21.56639671 -7.801247597 -1.996864557 0.912029326 
22.41067314 -4.860918045 -1.996668339 0.9120374918 
22.60419846 -3.859081984 -1.996623516 0.9120394588 
22.85717201 -1.834714293 -1.996565223 0.9120414853 
22.89784622 1.223884225 -1.996557474 0.9120420814 
22.82093239 2.241262197 -1.996575832 0.9120413661 
22.69896507 3.25424552 -1.996605039 0.912040174 
22.53218651 4.260842323 -1.996644735 0.9120385051 
21.88168907 6.19493866 -1.980121136 0.9127337933 
20.10954094 6.672770977 -1.844813824 0.9184466004 
19.79361725 7.561013222 -1.84488821 0.9184433818 
19.03595734 9.28678894 -1.844181895 0.9184733033 
18.12194252 10.93393326 -1.842831731 0.9185305238 
16.11817741 12.93783951 -1.799596548 0.920363605 
15.87951183 13.95202827 -1.840490341 0.9186297059 
10.99659634 10.56481171 -1.327754498 0.9406088591 
9.401044846 10.79633522 -1.246470809 0.9441411495 
7.94973135 10.96238041 -1.179055929 0.947080791 
6.973744869 10.57647228 -1.103059649 0.9504056573 
5.711733341 10.60772705 -1.048995376 0.952778101 
5.104521275 10.5824194 -1.023002267 0.9539208412 
3.894604445 10.33319569 -0.9614932537 0.9566303492 
3.455204964 10.56998253 -0.9682509899 0.9563323259 
2.924140453 10.50677013 -0.9495901465 0.9571555257 
2.383471727 10.32167435 -0.9223554134 0.9583583474 
1.927490234 10.44739723 -0.9250034094 0.9582413435 
-0.8287158012 20.68125153 -1.802160501 0.9202548265 
-2.762324095 10.27861023 -0.9267100096 0.958165884 
-4.444872856 10.63042927 -1.0032444 0.9547903538 
-4.973305702 10.54931355 -1.015482426 0.954251647 
-5.540527344 10.51283455 -1.034693837 0.9534066319 
-6.194169998 10.58308315 -1.067697167 0.951956749 
-7.617763519 10.70374775 -1.143903136 0.9486172795 
-9.215244293 10.77510929 -1.234499693 0.9446623921 
-10.25803185 10.96664906 -1.307480335 0.9414885044 
-10.89486313 10.65509129 -1.326864243 0.9406474233 
-15.81669617 14.14826012 -1.847732544 0.9183229804 
-18.10502434 11.14469814 -1.851121783 0.9181793332 
-19.04220009 9.500534058 -1.852903247 0.9181039929 
-19.45547295 8.648293495 -1.853809595 0.9180656672 
-22.79013634 3.474582434 -2.007265806 0.9115919471 
-15.55761242 -1.109550714 -1.358041048 0.9392960668 
-22.89962196 -2.661288977 -2.007288218 0.9115909934 
-22.75817299 -3.677241087 -2.007254601 0.9115924835 
-22.57159615 -4.685876369 -2.007210255 0.9115942121 
-22.34018707 -5.68515873 -2.007155657 0.9115965366 
-21.38236237 -8.607069969 -2.006929636 0.9116058946 
-19.06182098 -9.723161697 -1.863159776 0.9176698923 
-18.5175209 -10.50875664 -1.853857279 0.918063581 
-18.03059006 -11.32136726 -1.853742599 0.9180684686 
-17.50795937 -12.11144733 -1.853619695 0.9180736542 
-16.95068359 -12.87736511 -1.853488684 0.9180791974 
-16.36197281 -13.6193819 -1.853588104 0.9180749059 
-15.08810043 -15.0210762 -1.853760839 0.9180678129 
-14.15560055 -15.40601254 -1.82166779 0.9194273353 
-12.94058609 -15.40650558 -1.751857519 0.9223920107 
-11.80058098 -15.39063168 -1.688627243 0.9250853062 
-11.72122574 -16.78372765 -1.782447815 0.9210917354 
-7.149555683 -20.04305458 -1.852852225 0.9181061983 
-4.611166954 -15.00542164 -1.366820931 0.9389159083 
-3.184980392 -15.00599861 -1.335675955 0.9402652383 
-1.811718702 -15.00655937 -1.31610775 0.9411141276 
-0.4850781262 -15.56802464 -1.356164217 0.9393773079 
0.2078417987 -15.56830788 -1.355652571 0.9393995404 
1.598994136 -15.56887436 -1.362712622 0.9390937686 
2.302831888 -15.5691576 -1.370355248 0.9387629032 
3.741640568 -15.56974792 -1.394252896 0.9377288818 
6.027431488 -15.57068062 -1.453770399 0.9351586699 
6.838764668 -15.57100773 -1.480763316 0.9339953065 
7.682514668 -15.5713501 -1.511831164 0.9326582551 
8.564223289 -15.57170582 -1.54735899 0.9311315417 
9.490243912 -15.57208729 -1.587816715 0.9293960333 
10.35188007 -15.39978695 -1.615644693 0.928204 
15.4226656 -14.55532932 -1.846453667 0.9183772802 
17.21372032 -12.36660385 -1.84548223 0.9184182882 
17.74559021 -11.58784866 -1.845357895 0.9184235334 
20.33722115 -9.698588371 -1.961828709 0.9135047793 
22.12003899 -6.050297737 -1.996735811 0.9120346308 
22.36661148 -5.06017828 -1.996678591 0.9120371938 
22.72688484 -3.052099466 -1.996595144 0.9120407104 
22.83987236 -2.03804183 -1.996569157 0.9120417237 
20.66833878 -4.882812391e-06 -1.799593925 0.920363903 
22.72696686 3.052106857 -1.996598482 0.9120404124 
22.56911659 4.060143948 -1.996636033 0.9120388627 
22.36667824 5.06019783 -1.996683955 0.9120368958 
19.85995102 7.384509087 -1.844872713 0.9184440374 
19.51265526 8.260993004 -1.844954491 0.91844064 
18.21980476 10.772995 -1.84296155 0.9185250401 
17.71637726 11.56878185 -1.842323661 0.9185522199 
16.71790886 12.01039314 -1.792328477 0.9206722975 
16.17494011 12.74837112 -1.793195009 0.9206353426 
8.571728706 10.58201408 -1.185728669 0.9467893839 
8.030136108 10.86839581 -1.176588058 0.9471885562 
7.093671799 10.55275154 -1.107128501 0.9502274394 
5.822577953 10.58679199 -1.052007675 0.9526457787 
5.26519537 10.67177963 -1.036131382 0.9533435702 
4.592192173 10.45582771 -0.994325161 0.9551831484 
3.996054649 10.32308292 -0.9638239741 0.9565275908 
3.522924662 10.4610033 -0.9611017108 0.9566476345 
3.021933556 10.49565125 -0.9509797692 0.9570942521 
2.48468256 10.33934307 -0.9258729815 0.9582028985 
2.011088848 10.38183784 -0.9207475781 0.9584293962 
1.196332932 20.65777016 -1.801685929 0.9202750325 
0.2762646377 20.69303703 -1.80190146 0.9202657938 
-1.564418912 20.64063644 -1.802332878 0.9202474952 
-2.68576169 10.36073017 -0.9319220781 0.9579356313 
-3.689282179 10.34264183 -0.9561089277 0.9568678737 
-4.248583794 10.42058563 -0.9798334241 0.9558216929 
-6.080808163 10.60479259 -1.064384818 0.9521021843 
-6.704928875 10.57355976 -1.090133905 0.950972259 
-9.082009315 10.81269169 -1.229498267 0.9448803663 
-9.906284332 10.78136539 -1.274830341 0.9429072142 
-10.7009325 10.65342712 -1.314741492 0.9411733747 
-16.31604004 13.5811348 -1.848388314 0.9182952642 
-16.91169357 12.84770679 -1.849224448 0.9182597995 
-18.0034008 11.30429649 -1.850946426 0.9181868434 
-18.95503807 9.668698311 -1.852723002 0.9181116223 
-19.37581062 8.820230484 -1.853627563 0.9180734158 
-19.75464821 7.951882362 -1.854156852 0.9180509448 
-20.08968925 7.065517426 -1.854235053 0.9180476069 
-22.34026337 5.685165882 -2.007161617 0.9115962982 
-22.75823593 3.677253246 -2.007258654 0.9115922451 
-22.8996582 2.661284208 -2.007291317 0.9115908742 
-15.55045605 1.109033227 -1.357417703 0.9393231273 
-15.55269241 0.4153515399 -1.35465467 0.9394427538 
-15.55716038 -0.970451653 -1.357194781 0.9393327236 
-22.92246437 -2.457399845 -2.007293701 0.911590755 
-22.79011726 -3.474592209 -2.00726223 0.9115920067 
-22.61249924 -4.484838963 -2.00722003 0.9115938544 
-22.12311172 -6.476481915 -2.007104397 0.9115988016 
-21.4582653 -8.416481972 -2.006947517 0.9116053581 
-19.46693611 -9.712475777 -1.894233823 0.9163558483 
-18.61048508 -10.34364986 -1.853879094 0.9180628061 
-17.06484795 -12.72616673 -1.853515625 0.9180781245 
-15.86749935 -14.19366932 -1.853665233 0.9180717468 
-15.22106457 -14.88611984 -1.853746653 0.9180683494 
-14.41043949 -15.40590572 -1.836749196 0.9187882543 
-10.75256824 -18.37136459 -1.853434443 0.918081522 
-9.075844765 -19.25151634 -1.853159785 0.9180930257 
-8.20981884 -19.63468933 -1.85302043 0.9180991054 
-7.327744007 -19.97892761 -1.852880359 0.9181050658 
-3.32481432 -15.00593948 -1.338252187 0.9401535988 
-1.947363257 -15.00650597 -1.31757164 0.9410506487 
-0.6237987876 -15.56797123 -1.356589794 0.9393588901 
0.06928710639 -15.56825447 -1.355541348 0.9394043684 
0.762665987 -15.56853199 -1.357177138 0.9393334985 
1.459111333 -15.56882 -1.361516118 0.9391455054 
2.161416054 -15.56909847 -1.36860168 0.9388387799 
3.595351458 -15.56968975 -1.391327024 0.9378554225 
4.333271503 -15.5699873 -1.407201767 0.937169075 
5.089770317 -15.57029533 -1.426301599 0.9363440871 
5.868613243 -15.57061291 -1.448831439 0.9353717566 
7.510922909 -15.57128143 -1.505276442 0.9329403043 
8.384555817 -15.57163811 -1.539877415 0.93145293 
10.15400887 -15.39970875 -1.606094122 0.9286130667 
11.16789055 -15.40012932 -1.656357408 0.9264630675 
13.93251419 -16.00029945 -1.847288728 0.9183418155 
14.62745571 -15.36153984 -1.846911073 0.9183579087 
15.2931881 -14.69263363 -1.84653008 0.9183738828 
15.92830563 -13.99489498 -1.846146703 0.9183901548 
16.53165436 -13.26971436 -1.845761418 0.9184064269 
17.64196205 -11.74546623 -1.845382214 0.9184226394 
18.61382866 -10.12969685 -1.845155239 0.9184321761 
19.89331436 -9.705018997 -1.927239537 0.9149621725 
21.76647377 -7.222575665 -1.996818066 0.9120312333 
22.06546783 -6.246967793 -1.996748447 0.9120340943 
22.32081985 -5.259072304 -1.996689081 0.9120366573 
22.53211784 -4.260854244 -1.996640086 0.9120387435 
22.82089233 -2.241223097 -1.996573567 0.9120415449 
22.89777756 -1.223840356 -1.996556044 0.9120423198 
22.91589355 0.8161303401 -1.996552944 0.9120424986 
20.22479439 6.313718319 -1.844786525 0.9184477925 
19.2011528 8.947877884 -1.844465137 0.918461442 
18.77702522 9.789450645 -1.843765259 0.9184909463 
17.8198719 11.41142273 -1.842448831 0.9185467958 
16.1349411 12.48569584 -1.776373863 0.9213498235 
16.11013603 13.65434742 -1.838757157 0.9187030792 
9.620209694 10.65885925 -1.250172377 0.9439799786 
8.117860794 10.78496361 -1.175330758 0.9472434521 
7.195849419 10.50167179 -1.108443379 0.9501697421 
5.906791687 10.51714134 -1.050268292 0.9527221322 
4.226044655 10.63506603 -0.9964247942 0.955090642 
3.63086915 10.47244358 -0.965084374 0.9564719796 
3.172221661 10.65984631 -0.9683768749 0.9563267231 
0.4603808522 20.68924713 -1.801858306 0.9202677011 
-0.4604540765 20.69173241 -1.802074075 0.920258522 
-2.298251867 20.57386208 -1.802504897 0.9202401638 
-3.211606264 20.45368576 -1.802718759 0.9202310443 
-2.144541025 10.56606674 -0.9387412071 0.957634449 
-2.584457874 10.34817886 -0.9286876321 0.9580785036 
-4.833310604 10.74411392 -1.025788069 0.9537982345 
-5.31683588 10.5390234 -1.027793527 0.9537100792 
-5.895732403 10.49745083 -1.048301935 0.9528085589 
-6.532592773 10.50739956 -1.077276707 0.9515362382 
-7.283837795 10.63007259 -1.121994972 0.9495760798 
-8.808444977 10.6785078 -1.205278873 0.945936203 
-9.640778542 10.68165874 -1.252844691 0.9438635707 
-10.63127422 10.77415371 -1.317911983 0.9410358071 
-15.55965328 14.42499924 -1.847409487 0.9183366895 
-16.19306564 13.72461128 -1.848223209 0.9183021784 
-16.79517555 12.99652767 -1.849055886 0.9182668328 
-17.90040398 11.46297932 -1.850771546 0.9181942344 
-19.29469109 8.99144268 -1.853446007 0.9180809855 
-20.02583504 7.243999004 -1.854220033 0.9180482626 
-20.32902336 6.346254826 -1.854290724 0.9180452228 
-22.52897644 4.886555195 -2.007205486 0.9115943313 
-22.72454834 3.87962389 -2.007250786 0.9115924835 
-15.58213615 1.250761747 -1.361098886 0.9391636252 
-15.55224609 0.5538793802 -1.35499239 0.9394281507 
-15.5567131 -0.8314794898 -1.356452584 0.9393647313 
-22.82019424 -3.271655083 -2.007269382 0.9115917683 
-21.14436722 -9.174545288 -2.006873369 0.9116083384 
-18.70202827 -10.17774868 -1.853900552 0.9180618525 
-17.17765999 -12.57397652 -1.853542089 0.9180770516 
-16.60137177 -13.32568073 -1.853545308 0.9180768132 
-15.99302197 -14.05174541 -1.853646994 0.9180725813 
-14.66961861 -15.40580273 -1.852230668 0.918132484 
-13.4152441 -15.4063158 -1.778707981 0.9212506413 
-11.7209816 -16.1627903 -1.738384008 0.922965169 
-11.71879387 -17.77283859 -1.853595972 0.9180746675 
-10.09130859 -18.74132538 -1.853325129 0.9180861115 
-9.246923447 -19.17025185 -1.853187323 0.9180920124 
-8.384399414 -19.56112099 -1.853048325 0.9180979133 
-5.031943321 -15.39345932 -1.410100698 0.9370438457 
-3.46517086 -15.00588608 -1.340944171 0.9400368333 
-2.768584013 -15.00616932 -1.32863915 0.9405705333 
-2.083320379 -15.00644779 -1.319143057 0.940982461 
-0.7541943192 -15.39521217 -1.34206903 0.9399881959 
2.02035141 -15.56904507 -1.366963148 0.9389097095 
2.729433537 -15.56933308 -1.376294374 0.9385057688 
3.449687481 -15.56962585 -1.388523579 0.9379766583 
5.710829735 -15.57054901 -1.444038987 0.9355785251 
7.340805531 -15.57121277 -1.498894572 0.9332148433 
8.20662117 -15.57156944 -1.53258729 0.9317660928 
10.07015133 -15.57232666 -1.614685655 0.9282451868 
13.79009247 -16.12435722 -1.84736383 0.9183385968 
14.49079514 -15.49176979 -1.846987009 0.9183545113 
15.16243649 -14.82876205 -1.846606612 0.9183707237 
16.99134254 -12.67136002 -1.845534205 0.9184161425 
17.53698158 -11.90215588 -1.845406771 0.9184215665 
18.04788589 -11.10956287 -1.845287442 0.9184266329 
19.46435928 -9.711188316 -1.89398253 0.9163664579 
22.00913048 -6.443127155 -1.99676156 0.9120335579 
22.88602066 -1.42757082 -1.996558785 0.9120422006 
22.92677689 -0.4080981314 -1.996549845 0.9120424986 
22.87247086 1.631232858 -1.996563554 0.9120419621 
22.7775383 2.647101879 -1.996586204 0.9120409489 
22.63758278 3.657766104 -1.996619701 0.9120396972 
22.45294952 4.661247253 -1.996663451 0.9120378494 
22.2239933 5.6555686 -1.996717691 0.9120355248 
20.55151367 6.215495586 -1.869466543 0.9174031019 
19.98786163 7.029763222 -1.844842434 0.9184454679 
19.28156281 8.777331352 -1.844608426 0.9184552431 
18.41132355 10.44849873 -1.843224883 0.9185137749 
17.9219532 11.25317097 -1.842575312 0.9185414314 
16.13747978 12.25955772 -1.764594674 0.9218515158 
10.86993122 10.82170105 -1.335508227 0.9402725697 
9.864062309 10.73540783 -1.26939714 0.943143487 
7.332905293 10.5000515 -1.11511755 0.9498774409 
6.024184227 10.50607109 -1.054474592 0.9525373578 
5.575864315 10.81211376 -1.059223652 0.9523288012 
4.824682713 10.47476292 -1.00413239 0.9547511935 
2.721777201 10.4997139 -0.9444240332 0.9573835731 
1.799653292 10.83156967 -0.956030488 0.9568712711 
1.563740253 20.63222122 -1.801599741 0.9202786684 
0.6444726586 20.68384552 -1.801815152 0.9202694893 
-0.2763037086 20.69450951 -1.80203104 0.9202603698 
-2.115024328 20.59298325 -1.802461863 0.9202420712 
-3.029335976 20.48092461 -1.802676082 0.9202330709 
-2.065468788 10.6625042 -0.9456386566 0.9573298693 
-2.959584951 10.27903557 -0.9313523173 0.957960844 
-3.504033089 10.40489197 -0.9559460282 0.9568750858 
-3.953808546 10.21391869 -0.9536319375 0.9569772482 
-5.213896275 10.56780529 -1.026034832 0.953787446 
-5.817788124 10.5780611 -1.051139832 0.952683866 
-6.469682693 10.61579323 -1.082444191 0.9513096213 
-7.154418945 10.64315128 -1.11661005 0.949811995 
-7.969789982 10.7866993 -1.167743683 0.9475749135 
-8.672792435 10.70675373 -1.199706912 0.9461792707 
-9.492128372 10.70701408 -1.245863795 0.944167614 
-10.56584454 10.9001894 -1.321773648 0.9408681989 
-16.0688839 13.86696529 -1.848058939 0.9183090329 
-16.67730904 13.14430714 -1.84888792 0.9182739854 
-17.79601097 11.62075424 -1.850597143 0.9182015657 
-18.77632332 10.00258541 -1.852363944 0.9181268215 
-19.21202087 9.161882401 -1.853264689 0.9180887341 
-19.60964584 8.302047729 -1.854123235 0.9180523157 
-19.96040726 7.42185545 -1.854204774 0.9180489182 
-20.27159882 6.526872635 -1.854277253 0.9180458188 
-22.2352829 6.081838131 -2.007137299 0.9115972519 
-22.48444939 5.086803913 -2.007194996 0.9115948677 
-15.55180168 0.6924853325 -1.355435133 0.9394088984 
-15.55403042 0 -1.354287744 0.9394586086 
-15.55626392 -0.6926855445 -1.355823994 0.9393920302 
-15.78334713 -1.408378839 -1.37971437 0.9383577108 
-22.84850693 -3.068413019 -2.007276058 0.9115914106 
-22.68894958 -4.08172369 -2.00723815 0.9115930796 
-22.48436928 -5.086845398 -2.007189751 0.9115951657 
-22.23516273 -6.081809044 -2.007130861 0.9115976691 
-21.22535515 -8.986088753 -2.006892443 0.9116076231 
-20.3402729 -9.699938774 -1.962098598 0.9134925008 
-16.11725998 -13.90870857 -1.85362792 0.9180734754 
-14.81856441 -15.28746796 -1.853787184 0.9180666804 
-13.65814877 -15.40621758 -1.792660236 0.920658052 
-11.7208643 -15.86363983 -1.717363119 0.9238604307 
-11.72147942 -17.43727684 -1.829406857 0.9190993905 
-11.07814407 -18.17759514 -1.853488445 0.9180793166 
-10.25779724 -18.65102196 -1.853352666 0.9180851579 
-7.682426453 -19.84594345 -1.852936506 0.918102622 
-5.18402338 -15.39339542 -1.414264798 0.9368638992 
-4.32043457 -15.00553894 -1.359606862 0.9392281771 
-2.906894445 -15.00611019 -1.330871105 0.9404736757 
-2.219599485 -15.00639343 -1.320820928 0.9409096241 
-1.581137657 -15.39487553 -1.347482562 0.9397535324 
-0.8915771246 -15.39515877 -1.342701674 0.9399607182 
1.180009723 -15.56870842 -1.359453678 0.9392348528 
2.586835861 -15.5692749 -1.374198318 0.9385964274 
4.784707069 -15.5701685 -1.418263078 0.9366912842 
5.554111004 -15.57048512 -1.439390779 0.9357790351 
7.172065258 -15.57114506 -1.492683172 0.9334821701 
8.030331612 -15.57149601 -1.525482774 0.9320712686 
8.92895031 -15.57185745 -1.562923074 0.9304635525 
9.874691963 -15.57224846 -1.605502844 0.928638339 
13.64657688 -16.24706841 -1.847438812 0.918335557 
15.67801762 -14.27734566 -1.846300364 0.9183836579 
19.04996109 -9.717125893 -1.862002969 0.9177188873 
20.8747654 -9.502594948 -1.997025728 0.9120224714 
21.27581024 -8.564143181 -1.996932387 0.9120264649 
21.95107841 -6.638772011 -1.996775031 0.9120329618 
22.22395515 -5.655561447 -1.996711731 0.9120356441 
22.45293427 -4.661237717 -1.996658564 0.912037909 
22.63755798 -3.657766104 -1.996615767 0.9120397568 
22.77749062 -2.647094727 -1.996583462 0.9120411277 
22.87242126 -1.631235361 -1.996561885 0.912042141 
22.92223549 -0.6121630669 -1.996550679 0.9120424986 
22.80010223 2.444294453 -1.996580958 0.9120413065 
22.66916847 3.45616436 -1.996612191 0.9120399356 
19.36039925 8.606066704 -1.844752431 0.918449223 
18.95111847 9.455134392 -1.844042063 0.9184792042 
18.50490761 10.28498268 -1.843358278 0.9185081124 
17.50536156 11.8807106 -1.842076778 0.9185624719 
16.17464256 12.0622921 -1.756825924 0.9221807718 
16.11553764 13.17324924 -1.812322021 0.9198237658 
10.96893501 10.72758293 -1.335889578 0.9402560592 
8.282065392 10.6049099 -1.171589136 0.9474069476 
7.477509499 10.50668716 -1.1228441 0.9495390058 
6.885986328 10.64836407 -1.104122639 0.9503590465 
6.182963848 10.56394768 -1.065765262 0.9520415068 
4.942255974 10.48348331 -1.009144664 0.9545305967 
4.391430378 10.50260258 -0.9911802411 0.95532161 
3.826655149 10.43337631 -0.9676070809 0.9563606977 
3.351366997 10.5699749 -0.9654797912 0.9564545155 
2.288828135 10.33028316 -0.9212675095 0.9584063888 
1.855698228 10.58536816 -0.9357205629 0.9577679038 
0.8285449147 20.67678452 -1.801772118 0.9202713966 
-0.09208007902 20.69566536 -1.801987886 0.9202621579 
-1.979267478 10.72785378 -0.9498345852 0.9571446776 
-2.832431555 10.17718697 -0.9198020697 0.9584711194 
-3.439121008 10.52078342 -0.9637430906 0.9565310478 
-3.847470522 10.20815659 -0.9498593211 0.957143724 
-4.640664101 10.8269186 -1.025645256 0.9538045526 
-5.702290058 10.59016323 -1.047258019 0.9528543949 
-6.968710899 10.56882572 -1.102261066 0.9504405856 
-15.94344711 14.00813103 -1.847895265 0.9183160067 
-17.14082146 12.54694557 -1.849563837 0.9182454944 
-18.20520973 10.98412609 -1.851297855 0.9181720018 
-19.53359795 8.475626945 -1.853991985 0.9180579185 
-19.8934021 7.599133015 -1.854189277 0.9180495739 
-20.21257973 6.706962585 -1.854263544 0.9180462956 
-21.88936806 6.197111607 -1.980812669 0.9127045274 
-22.4381485 5.286718845 -2.007184505 0.9115953445 
-22.82021523 3.27164793 -2.007272959 0.9115917087 
-15.55922604 -1.248957515 -1.3590976 0.9392502308 
-22.52886581 -4.886584282 -2.007200241 0.9115946889 
-22.28858185 -5.883737564 -2.007143259 0.9115970135 
-21.67588997 -7.840878963 -2.006998777 0.9116030335 
-21.30467987 -8.796933174 -2.006911278 0.9116068482 
-20.80075455 -9.693285942 -1.998119116 0.9119764566 
-17.39925766 -12.2665863 -1.853594184 0.9180747271 
-16.8355217 -13.02776051 -1.853500009 0.9180787206 
-16.24028778 -13.76457691 -1.85360837 0.918074131 
-14.95388603 -15.15492916 -1.853774428 0.9180672169 
-12.70849609 -15.40659904 -1.738936543 0.9229418039 
-11.72135258 -17.10629654 -1.805551052 0.9201108813 
-11.2396431 -18.07855225 -1.853515387 0.9180781841 
-10.42357922 -18.55930328 -1.853379965 0.918083787 
-9.586933136 -19.00319099 -1.853242755 0.9180896878 
-4.465434551 -15.00548077 -1.363150597 0.9390747547 
-3.747690439 -15.00577354 -1.346684694 0.9397881031 
-2.35626936 -15.00633526 -1.32261014 0.9408320189 
0.3464745879 -15.56836605 -1.355873108 0.9393900037 
1.040742159 -15.56864929 -1.358587027 0.9392724037 
1.739189386 -15.56893253 -1.364017963 0.9390372038 
3.160058498 -15.56950855 -1.383277655 0.9382036328 
4.633437634 -15.57010937 -1.414444566 0.9368562102 
7.004750729 -15.57107639 -1.486641645 0.9337422848 
7.855624676 -15.5714283 -1.518564582 0.9323686361 
8.745649338 -15.57178402 -1.555038452 0.9308018684 
9.681376457 -15.57216549 -1.596544266 0.9290220141 
12.76305103 -16.9563942 -1.847884536 0.9183165431 
14.89735317 -15.09752655 -1.8467592 0.9183642268 
15.55098629 -14.41690636 -1.846377015 0.9183803797 
16.17353058 -13.70799065 -1.845992684 0.918396771 
18.33737183 -10.62338829 -1.845219851 0.9184294939 
20.78953552 -9.688051224 -1.997045755 0.9120218158 
21.56638718 -7.801264286 -1.996864557 0.912029326 
21.89126396 -6.833947659 -1.996789098 0.9120324254 
22.17285156 -5.85320282 -1.996723533 0.9120352268 
22.4106636 -4.860934734 -1.996668339 0.9120374918 
22.9158783 -0.8160766363 -1.99655211 0.9120425582 
22.89781189 1.223898888 -1.996557474 0.9120422006 
22.82091713 2.241296291 -1.996575832 0.9120414257 
21.88168907 6.19493866 -1.980121136 0.9127337933 
20.10954094 6.672770977 -1.844813824 0.9184466004 
19.43777275 8.434060097 -1.844897747 0.9184430242 
19.03597641 9.28676033 -1.844182134 0.9184733033 
18.59705544 10.1205883 -1.843492866 0.9185025096 
18.12195206 10.933918 -1.842831731 0.9185305238 
17.61156273 11.72518253 -1.842199683 0.9185574055 
16.31778336 11.94459724 -1.760760188 0.9220134616 
15.87949181 13.95205784 -1.840490341 0.9186297059 
10.9966011 10.56482601 -1.327755213 0.9406087995 
10.65525341 11.19004822 -1.345370054 0.9398450851 
9.401035309 10.79633999 -1.246470928 0.9441411495 
8.380854607 10.53675747 -1.172252059 0.9473779202 
7.94973135 10.96238041 -1.179055929 0.947080791 
6.319321156 10.57981205 -1.072996974 0.951724112 
5.711733341 10.60772705 -1.048995376 0.952778101 
5.104521275 10.5824194 -1.023002267 0.9539208412 
3.686933517 8.601775169 -0.8148559928 0.9631210566 
2.924150229 10.50676537 -0.9495901465 0.9571555257 
2.838295937 20.4451828 -1.797232985 0.9204639792 
1.012441397 20.6681385 -1.801728964 0.9202730656 
-0.8287402391 20.68125153 -1.802160501 0.9202548265 
-1.933227539 11.02758503 -0.9748102427 0.9560429454 
-2.762324095 10.27861023 -0.9267100096 0.958165884 
-3.787431479 10.32645226 -0.9576904178 0.9567981362 
-5.540488243 10.51280499 -1.034690738 0.9534068108 
-6.194135666 10.58308792 -1.067696333 0.9519568086 
-7.617792606 10.70374203 -1.143904567 0.9486172199 
-8.408032417 10.76615429 -1.189404845 0.9466289282 
-16.43774796 13.43661308 -1.848554015 0.9182881713 
-17.02692795 12.69788456 -1.849393845 0.9182525277 
-19.45549202 8.648322105 -1.853809595 0.9180655479 
-19.82481956 7.775838375 -1.854173183 0.9180501699 
-20.15191269 6.886552811 -1.854249477 0.9180469513 
-22.61257935 4.484802246 -2.007224798 0.911593616 
-22.7901516 3.474543333 -2.007265806 0.9115918875 
-15.55090809 0.9700244069 -1.35664773 0.9393563867 
-15.55536842 -0.4154223502 -1.354887724 0.939432621 
-22.89962196 -2.661288977 -2.007288218 0.9115909934 
-22.57159615 -4.685876369 -2.007210255 0.9115942121 
-22.3401947 -5.685139179 -2.007155657 0.9115965366 
-21.74497032 -7.647677898 -2.00701499 0.9116024375 
-21.3823719 -8.607043266 -2.006929636 0.9116058946 
-20.97727203 -9.54921627 -2.00683403 0.9116101861 
-18.03056145 -11.32141113 -1.853742599 0.9180684686 
-17.5079174 -12.11144257 -1.853619695 0.918073833 
-15.74068356 -14.3344698 -1.853682876 0.9180710316 
-12.94058609 -15.40650558 -1.751857519 0.9223920107 
-11.72122574 -16.78372765 -1.782447815 0.9210917354 
-11.40030289 -17.97807312 -1.853542447 0.9180769324 
-9.755844116 -18.91739464 -1.853270173 0.9180884957 
-8.904013634 -19.33120346 -1.85313201 0.918094337 
-8.034677505 -19.70664215 -1.852992535 0.9181003571 
-7.14948225 -20.04308319 -1.852852225 0.9181061983 
-3.889838696 -15.00571537 -1.349730015 0.9396560788 
-3.184960842 -15.00599861 -1.335675836 0.9402652383 
-2.493261576 -15.00628185 -1.32450676 0.9407496452 
-1.811699152 -15.00655937 -1.316107869 0.9411141276 
-1.166811466 -15.39504623 -1.344290018 0.9398918748 
-0.4850781262 -15.56802464 -1.356164217 0.9393773079 
0.2078417987 -15.56830788 -1.355652571 0.9393995404 
0.9016113281 -15.56859112 -1.357827067 0.9393053055 
1.598994136 -15.56887436 -1.362712622 0.9390937686 
3.015995979 -15.56945038 -1.380831003 0.9383094311 
3.741621017 -15.56974792 -1.394252896 0.9377288818 
7.682553768 -15.57135487 -1.511832833 0.9326581955 
8.56426239 -15.57171154 -1.547360659 0.9311314821 
9.490283012 -15.57208729 -1.587818265 0.9293959737 
12.61219215 -17.0699482 -1.847957969 0.9183135033 
13.12368584 -16.20148659 -1.815401554 0.9196931124 
14.0737648 -15.87503147 -1.847213507 0.9183450341 
14.76299286 -15.23014355 -1.846835136 0.9183610082 
16.051548 -13.85199451 -1.846069694 0.9183934927 
18.70301247 -9.963585854 -1.845134497 0.9184330106 
21.12042999 -8.941618919 -1.996968508 0.9120248556 
22.36662102 -5.060146332 -1.996678591 0.9120371342 
22.56906128 -4.060104847 -1.996631622 0.9120390415 
22.72688484 -3.052072763 -1.996595144 0.9120407104 
22.90773392 -1.020021915 -1.996553898 0.912042439 
20.66833878 -4.882812391e-06 -1.799593925 0.920363903 
22.90774345 1.020026803 -1.996554971 0.9120423794 
22.72696304 3.052082539 -1.996598482 0.9120404124 
22.56911659 4.060114861 -1.996636033 0.9120388627 
22.12008667 6.050285339 -1.996742249 0.9120345116 
20.1679287 6.49354744 -1.844799876 0.9184472561 
19.85993195 7.384548187 -1.844872713 0.9184440374 
19.51260757 8.261032104 -1.844954491 0.9184407592 
18.68774796 9.955456734 -1.843628526 0.9184967875 
18.21979523 10.77301025 -1.84296155 0.9185250401 
17.71637726 11.56879616 -1.842323542 0.9185521603 
16.71788025 12.01039314 -1.792325735 0.9206723571 
16.00395393 13.81093979 -1.840595245 0.9186252952 
8.571738243 10.58200932 -1.18572855 0.9467893839 
6.552446365 10.75154972 -1.096286178 0.9507024884 
