# .PCD v0.7 - Point Cloud Data file format
VERSION 0.7
FIELDS x y z intensities
SIZE 4 4 4 4
TYPE F F F F
COUNT 1 1 1 1
WIDTH 911
HEIGHT 1
VIEWPOINT 0 0 0 1 0 0 0
POINTS 911
DATA ascii
50.13401413 -53.59706879 -0.3354800344 0.7456027269 
54.65316391 -40.75772476 -0.3115669191 0.7613115907 
56.82838821 -28.35292244 -0.2903045714 0.7756627798 
56.41575241 -25.07757568 -0.2822151184 0.7811751366 
56.50487137 -22.16279984 -0.2774504125 0.7844393253 
56.52028275 -16.5463295 -0.2692094445 0.7901184559 
108.5917282 -16.55575371 -0.5021286011 0.6444289684 
76.18235779 8.853542328 -0.3505886793 0.735809803 
54.50994873 8.807907104 -0.2524041831 0.801820755 
47.17500687 14.26737022 -0.2252890021 0.8210730553 
78.24211121 31.49475288 -0.3855448961 0.7136406898 
52.95407104 24.10582733 -0.2659588456 0.7923649549 
72.31155396 36.88489914 -0.3710525334 0.7227403522 
57.89038086 36.34909821 -0.3124630749 0.7607677579 
56.69095612 39.21707535 -0.3151052892 0.7590122819 
19.04932594 14.47160339 -0.1093560755 0.9087433815 
88.57807159 73.73079681 -0.5268412828 0.6306524277 
53.25613022 53.01971436 -0.3435191214 0.7403758168 
9.812783241 10.67968464 -0.06629546732 0.9436368346 
8.282339096 10.80214596 -0.06222122163 0.9470076561 
7.411743164 10.61295891 -0.05917098746 0.9495378137 
6.945458889 10.95299339 -0.05928375199 0.9494442344 
6.032885551 10.52119827 -0.05543960631 0.9526449442 
5.61496067 10.88797569 -0.05599899217 0.9521785975 
4.880180359 10.59519958 -0.05332351476 0.9544110298 
4.409038067 10.81417179 -0.05338454992 0.9543600678 
3.792914867 10.63302994 -0.05160461366 0.9558469057 
2.642333984 8.59864521 -0.04111923277 0.9646573663 
-0.6710742116 50.25005722 -0.2297213674 0.8178958297 
-2.972587824 51.32837677 -0.2350230366 0.8141101003 
-3.851142406 37.49542236 -0.1722994894 0.8600435257 
-5.581127644 37.73325348 -0.1743634045 0.8584930301 
-6.184895039 31.92737007 -0.1486563087 0.8780207634 
-3.110468626 10.80299091 -0.05138671771 0.9560281038 
-4.664194107 10.61987972 -0.05302017182 0.9546633959 
-5.941464901 10.80300713 -0.05635787919 0.9518795013 
-6.480100155 10.6328516 -0.05691818148 0.9514120221 
-7.136703968 10.61685562 -0.05847747624 0.9501163363 
-9.474011421 10.68656921 -0.06528228521 0.9444746971 
-10.39925289 10.72825432 -0.06829742342 0.9419854283 
-11.60147953 10.94906616 -0.07291732728 0.9381833076 
-100.7859573 59.59217453 -0.5352007747 0.6260360479 
-100.3788376 53.4744339 -0.5198873878 0.6344854832 
-100.3810883 47.86981201 -0.5083656311 0.6409212947 
-39.98420715 16.92804337 -0.1984834224 0.8405643106 
-41.76537323 13.4473362 -0.2005639672 0.8390296698 
-65.01698303 17.7834301 -0.3081190288 0.7636669278 
-101.1741409 22.88976288 -0.4741674662 0.660387218 
-100.3930817 18.06042671 -0.4662873745 0.6649636626 
-15.59406948 0 -0.2138601691 0.9395237565 
-15.83105469 -1.412648916 -0.2179718018 0.9383973479 
-63.91521454 -14.46008492 -0.8986955881 0.7693981528 
-63.14373016 -17.2711792 -0.8977706432 0.7696055174 
-58.73331451 -21.83878136 -0.8593542576 0.7782776952 
-28.87841225 -15.38422585 -0.4487345815 0.8773101568 
-27.15000343 -16.05321503 -0.4325556755 0.8814601302 
-24.58542442 -16.05425453 -0.4026838541 0.8891735673 
-20.37158585 -16.05596352 -0.355722636 0.9014389515 
-16.45479012 -15.52941608 -0.3102900684 0.9134639502 
-15.87486267 -16.37720871 -0.3127970695 0.9127965569 
-14.51944828 -16.37774658 -0.300163269 0.9161670208 
-12.82983875 -19.08607674 -0.3153893948 0.912106514 
-12.83158207 -23.33069038 -0.365159899 0.89896065 
-12.83267021 -26.00992393 -0.3977561891 0.8904536366 
-5.516743183 -16.3813839 -0.2370548993 0.9331885576 
-4.716684341 -16.38169098 -0.2337873727 0.9340780973 
-0.2078515589 -15.56857109 -0.2135290504 0.9396144152 
0.4851074219 -15.56884956 -0.2136155665 0.9395901561 
1.18001461 -15.56912804 -0.2141304016 0.9394496679 
1.879653335 -15.56941128 -0.2150723189 0.9391916394 
2.58687973 -15.56969452 -0.2164521813 0.938813448 
4.036196232 -15.57028008 -0.220590055 0.9376807809 
4.78482914 -15.57057858 -0.2233933955 0.9369148612 
5.554252625 -15.57089043 -0.2267199606 0.9360057712 
8.030522346 -15.57187748 -0.2402825803 0.9323107004 
9.765404701 -15.39992905 -0.2500817776 0.9296496511 
23.5388813 -30.70004082 -0.5305345058 0.8566235304 
50.07008743 -59.61133575 -1.067627668 0.7324012518 
50.46112061 -54.91853333 -1.022820354 0.742039144 
51.66575241 -51.43632507 -0.9998190999 0.7470337749 
52.94247055 -48.21271515 -0.9820123315 0.7509249449 
53.91913986 -44.88129807 -0.9620999694 0.7552979589 
54.96209717 -41.7544899 -0.946597755 0.758721292 
56.19274139 -31.88957787 -0.8860787749 0.7722337842 
55.69615936 -28.40981102 -0.8574508429 0.7787094712 
57.26638412 -26.0687027 -0.8629038334 0.7774729133 
56.60973358 -22.78718376 -0.8368929625 0.7833946943 
74.15193939 -15.39400578 -1.038607121 0.7386283278 
112.8138351 -13.11066628 -1.55756247 0.6348699331 
84.2615509 9.033220291 -1.16219902 0.7124757767 
54.96684265 10.90181351 -0.7684928775 0.7991783619 
52.3780365 12.83399105 -0.739569366 0.8059527874 
47.10100555 18.47424507 -0.6938567758 0.8167706132 
53.00320053 23.56083679 -0.7954688668 0.7929164767 
53.00671768 32.6287384 -0.8536338806 0.7795796394 
52.91830826 35.91507339 -0.8771071434 0.7742627263 
53.1395607 43.43763733 -0.9412444234 0.7599046826 
8.352118492 10.69459248 -0.1860957295 0.9471638203 
6.11410141 10.44629097 -0.1659965515 0.9527329803 
5.686122894 10.78908157 -0.1672541797 0.952383399 
5.015956879 10.63978767 -0.1613171399 0.95403409 
4.525102615 10.82225037 -0.1608697474 0.9541587234 
3.847260714 10.48948479 -0.153225556 0.9562888741 
3.335654259 10.52033901 -0.1513568014 0.9568102956 
2.787211895 10.37125492 -0.147279501 0.9579486847 
1.860332012 10.61185741 -0.1477517635 0.95781672 
0.8778515458 10.35831547 -0.1425627172 0.9592671394 
1.505917907 37.58174133 -0.5158154368 0.8603106141 
-2.512470722 51.28751755 -0.7042063475 0.814309001 
-8.651024818 37.46313858 -0.5272956491 0.8574344516 
-3.005424738 10.79884052 -0.1537222266 0.9561492205 
-3.842641592 10.19534874 -0.1494200081 0.9573502541 
-4.543608189 10.60050011 -0.1581680328 0.954910934 
-5.811655045 10.79331017 -0.1681144685 0.9521443844 
-7.666787148 10.57219696 -0.1791006476 0.9490982294 
-8.389121056 10.5471096 -0.1848201007 0.9475159645 
-10.19557571 10.70727158 -0.2027619928 0.9425696731 
-11.28618908 10.8430233 -0.2146385163 0.9393103719 
-64.59201813 43.00327682 -1.064192772 0.7331388593 
-65.76688385 39.68069839 -1.053395391 0.7354515791 
-78.99049377 42.9869957 -1.233311415 0.6978484988 
-70.30231476 34.29730225 -1.072754622 0.7313095331 
-87.26567078 16.50202751 -1.217987061 0.7009754777 
-100.3946457 14.39311218 -1.390902638 0.6664949656 
-100.327507 9.853200912 -1.382528663 0.6681258678 
-15.59571457 -0.5554321408 -0.2140188515 0.9394804239 
-76.87734222 -13.12486553 -1.0695647 0.7319902778 
-63.9149704 -13.86325455 -0.8969182968 0.7697963119 
-58.73307419 -21.24564743 -0.8565490246 0.7789145708 
-58.06588364 -23.97599792 -0.8615513444 0.777782619 
-72.8091507 -33.92956161 -1.101616025 0.725178659 
-79.98809052 -41.70199203 -1.237108231 0.6970775723 
-25.06968117 -16.05405998 -0.4082600176 0.8877286911 
-20.74856949 -16.05581284 -0.3597947657 0.9003685117 
-16.59972191 -15.38920593 -0.3104270995 0.9134271741 
-12.82841301 -15.55192089 -0.2764770389 0.9225183129 
-12.82969666 -18.72379112 -0.3112805188 0.9132012725 
-12.83369637 -28.52839088 -0.4290086329 0.882373035 
-5.679526329 -16.38131523 -0.2377748042 0.9329922795 
-4.874946117 -16.38162804 -0.2343969643 0.9339122176 
-3.325004816 -16.38225365 -0.2292515486 0.9353154898 
-2.417270422 -15.39498711 -0.2137150466 0.9395630956 
-0.3464452922 -15.56851292 -0.2135620117 0.9396053553 
0.3464452922 -15.56879616 -0.2135679573 0.9396042824 
2.444692373 -15.56963634 -0.2161404341 0.9388988614 
3.160121918 -15.56992912 -0.217881009 0.9384220243 
3.888637543 -15.57021713 -0.2200926095 0.9378175139 
5.39852047 -15.57082748 -0.2260093689 0.9361994863 
6.187494755 -15.57114506 -0.2297874391 0.9351688623 
7.855834961 -15.57180882 -0.2391921878 0.9326070547 
8.745893478 -15.57216549 -0.2449353039 0.9310455322 
23.29681587 -30.95095444 -0.5312681198 0.8564406633 
49.68416977 -55.04827881 -1.016959429 0.7433083653 
51.36196136 -52.05230331 -1.002865911 0.7463700771 
52.63780212 -48.79924774 -0.9843796492 0.7504069209 
53.86981201 -45.65791702 -0.9684274197 0.7539041042 
31.53057098 -20.19144821 -0.5134803653 0.8608970046 
56.79140472 -29.60832787 -0.8783398271 0.7739802599 
57.66472626 -26.87211609 -0.8724780679 0.7753052115 
56.50435257 -23.33124733 -0.8383737206 0.7830568552 
56.45485306 -17.62384415 -0.8110733032 0.7893153429 
52.86079788 12.45469475 -0.7447865009 0.8047260642 
53.01210022 46.57736206 -0.9677608013 0.7540508509 
53.20005798 51.11104202 -1.011770129 0.7444397807 
9.56957531 10.98988247 -0.1998474151 0.943371594 
8.471591949 10.65080833 -0.1866372675 0.9470139146 
7.946840763 10.95840549 -0.1856425405 0.947288692 
7.040473461 10.67766571 -0.1754016131 0.9501225352 
5.141679764 10.65946007 -0.1623033136 0.9537598491 
2.897690296 10.41174316 -0.1482154876 0.9576873779 
1.955351472 10.59841061 -0.1478008926 0.9578030109 
1.446152329 10.41696262 -0.1442300379 0.9588013291 
0.9682519436 10.33128929 -0.1423048377 0.9593396187 
-3.202602386 37.78913116 -0.5201029778 0.8592351079 
-4.833539963 37.24756622 -0.5151019096 0.8604896665 
-9.984946251 37.15402603 -0.5276144147 0.8573544621 
-5.684442997 10.78594971 -0.1672058105 0.9523969293 
-6.154901981 10.51600552 -0.1671028137 0.9524251223 
-6.84131813 10.57931328 -0.1727813631 0.9508497119 
-7.526069164 10.57492161 -0.1780050546 0.9494016171 
-8.294657707 10.62101746 -0.1848138422 0.9475175738 
-9.895370483 10.57893753 -0.1986572295 0.9436991811 
-11.89294434 10.63839817 -0.2188331485 0.9381616712 
-57.03081894 46.61838913 -1.010184884 0.7447791696 
-64.8283844 39.90567398 -1.044006824 0.7374676466 
-64.6986618 18.94039345 -0.924526751 0.763622582 
-100.3271484 10.75542259 -1.383773446 0.6678804755 
-15.59323692 0.2775878906 -0.2138815224 0.9395176172 
-15.59530926 -0.4164648354 -0.2139538527 0.9394982457 
-15.59733105 -1.11238277 -0.2144473195 0.9393626451 
-58.05040741 -12.0512867 -0.8130867481 0.7888533473 
-63.91594696 -16.26542664 -0.9044883251 0.7680985332 
-36.43438721 -12.81398678 -0.5296690464 0.8568411469 
-58.73403549 -23.64228249 -0.8682968616 0.7762510777 
-86.89237976 -44.32256699 -1.33772397 0.6769136786 
-23.2083683 -16.0548172 -0.3870188892 0.8932473063 
-16.89877892 -15.38908386 -0.3134516776 0.912623167 
-16.45005798 -16.37697411 -0.318335712 0.9113230705 
-15.04827118 -16.37753677 -0.3050193787 0.9148698449 
-12.92729473 -15.39069557 -0.2756434679 0.922742188 
-12.82888126 -16.7317791 -0.2891483903 0.9191153049 
-12.82955551 -18.37075806 -0.30729568 0.9142628312 
-12.83031178 -20.23324394 -0.3285710216 0.9086073041 
-12.83221149 -24.88277054 -0.3839530945 0.8940464854 
-6.276069164 -15.39342022 -0.2279789746 0.9356620312 
-5.843334675 -16.38124657 -0.2385180593 0.9327897429 
-5.034057617 -16.38157463 -0.2350265384 0.9337403178 
-4.24660635 -16.38188171 -0.2320890725 0.9345410466 
-3.477065325 -16.3821888 -0.2296727002 0.9352000952 
0.2078515589 -15.56874275 -0.2135313302 0.9396137595 
1.59904778 -15.56929874 -0.21464324 0.9393090606 
2.302885771 -15.56958199 -0.2158467025 0.9389793277 
3.741733313 -15.570158 -0.2196089178 0.9379488826 
4.483090878 -15.57046127 -0.2222103775 0.9372379184 
5.243735313 -15.57076359 -0.2253228724 0.9363871813 
6.027582645 -15.57108116 -0.2289848328 0.9353875518 
6.838930607 -15.57140827 -0.2332357764 0.9342281222 
9.385233879 -15.39976788 -0.2473249733 0.9303969741 
20.21926308 -30.07880592 -0.49704054 0.8650348186 
49.26125717 -55.56611252 -1.018392086 0.7429991961 
52.41487122 -49.46719742 -0.988397181 0.7495264411 
53.73262405 -42.34960938 -0.9382517934 0.7605694532 
54.4968071 -39.15130997 -0.9202541113 0.7645753622 
55.90328979 -36.50479126 -0.9156504869 0.7656030059 
56.2054863 -26.80347443 -0.85397017 0.7795010805 
56.50410843 -23.92193604 -0.8414900899 0.7823441029 
56.61156082 -18.22728157 -0.8156287074 0.7882684469 
52.94717789 -14.48217487 -0.752800405 0.8028488159 
78.62485504 -14.14444542 -1.095578313 0.7264554501 
106.0115204 9.459713936 -1.459629059 0.6532658935 
22.10890579 3.977355957 -0.3080748022 0.9140557647 
53.36131668 12.07236099 -0.7503205538 0.8034340739 
53.00499725 28.23707771 -0.8236292005 0.7864302397 
53.00621796 31.34142303 -0.8444848657 0.781657815 
53.00748825 34.61381531 -0.8681833744 0.7762690783 
53.01344681 50.03209686 -0.9997084737 0.7470626831 
10.30957985 10.6358223 -0.2031390369 0.9424661398 
9.628090858 10.8604002 -0.1990434229 0.9435929656 
8.787201881 10.84801769 -0.19145675 0.9456837177 
8.140678406 11.01801968 -0.1878720075 0.946672678 
7.113246918 10.58189392 -0.1748626679 0.9502722621 
5.318554401 10.77993393 -0.1648519933 0.9530510902 
4.649970531 10.58738041 -0.1585833728 0.9547951818 
4.148193359 10.71606445 -0.1575877368 0.9550724626 
3.529960871 10.48184776 -0.1516819745 0.9567192793 
2.523959875 10.50274658 -0.1481371969 0.9577091932 
2.077578068 10.72505569 -0.1498185694 0.9572393298 
1.538706064 10.40307808 -0.1442201138 0.9588036537 
0.641874969 11.08359146 -0.152256012 0.9565590024 
0.6705077887 50.22221756 -0.6888105869 0.8179732561 
-3.842241049 50.69414139 -0.6972207427 0.8159703612 
-3.265483379 10.62640381 -0.15245682 0.9565028548 
-3.673691273 10.29890156 -0.1499557495 0.9572007656 
-6.081630707 10.60624218 -0.1676719636 0.9522675872 
-6.744077206 10.63531494 -0.1727059931 0.9508697987 
-7.432509422 10.64268494 -0.1780259609 0.9493960142 
-8.168225288 10.65321732 -0.1841027737 0.9477143884 
-9.800065994 10.66575909 -0.1986419708 0.9437034726 
-10.7971096 10.74919796 -0.2089434713 0.9408721328 
-65.70802307 54.69399261 -1.172457099 0.7103465199 
-23.89735222 13.56183434 -0.3768307269 0.8959059119 
-39.93128967 18.17747498 -0.6016952395 0.8390268683 
-39.99237823 16.09822273 -0.5912281871 0.8415923715 
-40.1733017 14.12889862 -0.5840271115 0.843362987 
-34.93717194 8.890822411 -0.4944041371 0.8657004237 
-100.3939133 16.22153473 -1.394675255 0.6657624841 
-15.59068584 1.111906767 -0.2143565267 0.9393876791 
-15.59489441 -0.2776269615 -0.2139053345 0.9395114183 
-86.87985992 -13.24577332 -1.20525372 0.7035838366 
-68.2146759 -13.52933788 -0.9537274837 0.757145524 
-63.91569519 -15.66103268 -0.9024797678 0.7685494423 
-58.73379135 -23.03689575 -0.8652249575 0.7769463062 
-31.86448669 -15.89788818 -0.4883659184 0.8672271371 
-28.29303741 -15.72519207 -0.4439190626 0.8785436153 
-26.07979012 -16.05365372 -0.4199919105 0.8846966028 
-21.52923775 -16.05550003 -0.3683189452 0.8981328607 
-17.20376015 -15.38895702 -0.3165470958 0.9117972851 
-16.45502472 -16.09293747 -0.3156487942 0.9120377302 
-12.82941341 -18.02667618 -0.3034359813 0.915292263 
-12.83316422 -27.22148705 -0.4127239883 0.8865739703 
-6.436391354 -15.39336109 -0.228818506 0.9354332685 
-5.194037914 -16.38151169 -0.2356802374 0.9335625172 
-4.402524471 -16.38181877 -0.2326348871 0.9343925118 
-3.629721642 -16.38213158 -0.2301141322 0.935079217 
-1.997797847 -15.39515877 -0.2129020691 0.9397862554 
-1.319394469 -15.56812191 -0.2142674178 0.9394115806 
-0.6238085628 -15.56840515 -0.2136790454 0.939573288 
0.7626953125 -15.5689621 -0.2137698382 0.939547956 
1.459145427 -15.56924534 -0.2144549489 0.9393606782 
2.872553587 -15.56981182 -0.2171299756 0.9386277795 
5.089907169 -15.57070541 -0.2246583551 0.9365688562 
6.674242973 -15.57133961 -0.2323370278 0.9344733953 
8.38477993 -15.57201862 -0.2425483614 0.9316943884 
9.198242188 -15.39969444 -0.2459989935 0.9307568073 
19.67148972 -29.83403587 -0.4900837541 0.8667921424 
48.91985321 -56.18028259 -1.021626353 0.7422979474 
50.74268341 -53.28920746 -1.00914216 0.7450063825 
53.06019592 -50.97658157 -1.009082079 0.7450178266 
54.75799561 -48.11135483 -0.9996393919 0.7470728159 
54.62821198 -43.8493042 -0.9606719613 0.7556126714 
61.02206039 -36.81793976 -0.9773958325 0.7519373298 
55.59455872 -30.25471878 -0.8679742217 0.7763134241 
56.55249023 -24.53815651 -0.8454293013 0.781445682 
31.46444321 -12.01919174 -0.4619160295 0.8739427924 
56.6113472 -18.78484535 -0.8180001378 0.7877230048 
56.72760773 -16.06020164 -0.808545053 0.7898983955 
61.89565277 -14.5834198 -0.8720858693 0.775392592 
77.14860535 -14.58887863 -1.076779962 0.7304510474 
23.53993034 2.948244572 -0.3253512383 0.9094600081 
22.10612679 3.774050236 -0.3075527847 0.9141941071 
27.80353546 8.679626465 -0.3994476199 0.890013814 
65.18453979 26.91541672 -0.9671627879 0.7541849017 
53.00364304 24.70002556 -0.8019319177 0.7914194465 
71.06291199 37.04880524 -1.099057794 0.7257182598 
53.00596619 30.70789719 -0.8401010036 0.7826597691 
56.1294632 39.57180405 -0.9418438673 0.7597762346 
53.01146317 44.93044662 -0.9530133605 0.7573051453 
53.11209869 49.23898315 -0.9932456017 0.7484678626 
10.63011742 10.772995 -0.2075591981 0.941252172 
8.889955521 10.77733135 -0.1915986538 0.9456447363 
8.222177505 10.92355442 -0.1875016689 0.9467749596 
6.802397251 10.94141865 -0.176688686 0.9497663379 
2.567416906 8.627497673 -0.1234463453 0.9646316171 
2.607910156 10.44214535 -0.1476039141 0.9578581452 
1.662309527 10.58690643 -0.1469692886 0.9580354691 
0.8362353444 37.57841492 -0.5154835582 0.8603938818 
-4.216987133 37.75056458 -0.5209373236 0.8590263128 
-5.926826 37.74621582 -0.5240014791 0.858259201 
-7.058598518 34.77741241 -0.4866654873 0.8676564693 
-9.31068325 37.28005219 -0.5269651413 0.857516408 
-3.629047871 10.46716976 -0.151927799 0.9566497803 
-4.072138786 10.24774361 -0.1512264907 0.9568459988 
-4.699262619 10.44615459 -0.1570867896 0.9552117586 
-5.994130611 10.67265892 -0.1678721607 0.9522120953 
-7.248125076 10.57797813 -0.1758557111 0.9499967098 
-7.935981274 10.54332256 -0.1809754968 0.9485791922 
-8.988696098 10.89704323 -0.193725273 0.9450579286 
-9.635166168 10.67544079 -0.1972181648 0.9440956712 
-11.56643009 10.7229681 -0.2163040042 0.9388542771 
-69.9885025 54.15887451 -1.213659048 0.7018623352 
-39.98091888 16.50854683 -0.5932053924 0.8411066532 
-40.16634369 14.52947712 -0.585776329 0.8429311514 
-70.45276642 21.99374199 -1.012185335 0.7443443537 
-64.7543869 17.09370804 -0.9184693098 0.7649723887 
-100.3935547 17.13957214 -1.396724463 0.6653628349 
-100.7934418 12.62379646 -1.393092871 0.66606915 
-15.59448433 -0.1387792975 -0.213874504 0.9395198822 
-71.53830719 -13.52799034 -0.9984712601 0.7473273277 
-63.91545868 -15.05929375 -0.9005438685 0.7689825296 
-61.00798798 -17.27203369 -0.8695585728 0.7759655714 
-58.73355484 -22.43578339 -0.8622488379 0.7776217461 
-59.66530609 -25.88880157 -0.8919765353 0.7709099054 
-28.2929039 -15.3971653 -0.4417483509 0.8790997267 
-26.60697746 -16.05344009 -0.4261656106 0.8831051588 
-24.11414528 -16.05444527 -0.3972958326 0.8905738592 
-21.9336319 -16.05533981 -0.3727752566 0.8969653845 
-20.00298309 -16.05611038 -0.351764679 0.9024795294 
-18.27508736 -16.05681801 -0.3336222768 0.907268405 
-16.45490265 -15.80873299 -0.3129351735 0.9127600789 
-15.5947113 -16.37732124 -0.3101362586 0.9135052562 
-12.82864189 -16.12866402 -0.2826274037 0.9208652973 
-12.82999516 -19.45812225 -0.3196371496 0.9109769464 
-12.83081055 -21.48134995 -0.3431489468 0.9047508836 
-12.83177662 -23.83089066 -0.3711837828 0.8973816633 
-5.354907036 -16.38144684 -0.2363543659 0.9333786368 
-3.782953978 -16.38206673 -0.2305772305 0.9349529743 
-2.840278149 -15.3948164 -0.2146914601 0.939296186 
-2.137270451 -15.39509964 -0.2131544501 0.9397166967 
-0.7626562119 -15.56835175 -0.2137628198 0.9395502806 
0.6238671541 -15.56890869 -0.2136860639 0.9395713806 
2.729496956 -15.56975269 -0.2167819142 0.9387230873 
4.184443474 -15.57033443 -0.2211114466 0.9375386238 
5.710981369 -15.57095432 -0.2274510115 0.9358059168 
6.510805607 -15.57127666 -0.2314633131 0.9347118735 
7.34099102 -15.57159901 -0.2360940427 0.9334503412 
9.013222694 -15.39962101 -0.2447067201 0.9311077595 
52.90742111 -61.86304474 -1.116352916 0.7220669985 
50.03090668 -53.48680496 -1.004412413 0.746034801 
54.07168961 -44.19951248 -0.9577599764 0.7562537789 
54.47903061 -40.62794113 -0.9320301414 0.7619559169 
59.35889435 -36.5389328 -0.9559227824 0.7566609383 
56.63476562 -31.47744751 -0.8886004686 0.7716668844 
56.41572189 -25.07769203 -0.8466907144 0.7811589241 
60.18545914 -14.74700928 -0.8498151898 0.7804484367 
54.40666962 11.29485035 -0.7620395422 0.8006849289 
52.99928665 13.48729229 -0.7500150204 0.8035028577 
46.8965416 14.1831665 -0.6719210744 0.8220156431 
52.95503616 24.1061306 -0.7978297472 0.7923463583 
88.99355316 45.39444351 -1.370072722 0.6705563068 
52.95867157 30.054245 -0.8350781202 0.7838070989 
53.00696182 33.28296661 -0.8583422899 0.7785024643 
53.00827026 36.66935349 -0.8839579821 0.7727138996 
53.24966812 53.01325989 -1.030480862 0.7403842807 
6.919863224 10.9125042 -0.1772080958 0.9496220946 
3.740117073 10.48508549 -0.1526689082 0.9564441442 
2.642211914 8.598178864 -0.1233581528 0.964656353 
2.254247904 10.62087631 -0.1489012092 0.9574958086 
1.748969674 10.52650642 -0.1463400275 0.9582110047 
1.257353544 10.41495323 -0.1438684016 0.9589021206 
-0.6708886623 50.25004959 -0.6891981363 0.8178821206 
-2.972578049 51.32842636 -0.705105722 0.8140959144 
-3.857958794 37.56338501 -0.5178596377 0.8597977161 
-5.572455883 37.67467117 -0.5222967267 0.8586854935 
-7.713093281 32.09560776 -0.452696383 0.8762971759 
-4.639081955 10.562644 -0.1582127362 0.954898417 
-6.448617935 10.5812521 -0.1699383557 0.9516381621 
-7.790898323 10.54457283 -0.1797991842 0.9489045143 
-11.50861263 10.86141777 -0.2170219421 0.938657701 
-12.27424812 10.59230328 -0.2223438919 0.9372012615 
-93.8575058 67.42874908 -1.58490622 0.6298246384 
-79.15563202 42.16802216 -1.229973674 0.6985267997 
-70.5593338 33.64855957 -1.072055221 0.7314568758 
-39.9668541 16.92060089 -0.5952118039 0.8406156301 
-87.35734558 19.76342773 -1.228310108 0.698867619 
-15.59196949 0.6942700148 -0.2140418887 0.939473629 
-15.59406948 0 -0.2138601691 0.9395237565 
-102.3446198 -13.74423599 -1.416166663 0.6616011858 
-75.18945312 -13.52651596 -1.047707438 0.7366704345 
-63.91521454 -14.46012402 -0.8986956477 0.7693980932 
-63.14360809 -17.27118301 -0.8977710009 0.7696058154 
-58.73213196 -18.91006088 -0.8461793065 0.7812746763 
-58.73331451 -21.83878136 -0.8593542576 0.7782776952 
-59.66505814 -25.26014328 -0.8885598779 0.7716748118 
-28.87843704 -15.38422585 -0.4487348795 0.8773100972 
-24.58537483 -16.05425453 -0.4026832581 0.8891737461 
-20.37155151 -16.05596352 -0.3557212651 0.9014390707 
-18.60629845 -16.05668259 -0.3370478749 0.9063625932 
-16.45479012 -15.52941608 -0.3102900684 0.9134639502 
-15.87486267 -16.37720871 -0.3127970695 0.9127965569 
-14.51945782 -16.3777504 -0.30016312 0.9161669612 
-12.82852554 -15.83708191 -0.2795092762 0.921703577 
-12.83157158 -23.33070564 -0.365160048 0.8989605904 
-12.83267021 -26.00992393 -0.3977561891 0.8904536366 
-5.958871841 -15.39355183 -0.2263761908 0.9361001253 
-4.716664791 -16.38169098 -0.2337873727 0.9340781569 
-1.598915935 -15.5680151 -0.2146237195 0.9393139482 
-0.901601553 -15.56829357 -0.2138636708 0.939522624 
-0.2078515589 -15.56857109 -0.2135290504 0.9396144152 
0.4850976467 -15.56884956 -0.2136155665 0.9395901561 
1.180034161 -15.56912804 -0.2141304016 0.9394496679 
3.304692268 -15.56998253 -0.2182864398 0.9383115172 
4.036196232 -15.57028008 -0.220590055 0.9376807809 
4.78482914 -15.57057858 -0.2233933955 0.9369148612 
5.554252625 -15.57089043 -0.2267205715 0.9360057712 
6.348539829 -15.57121277 -0.2306121737 0.934943676 
8.03054142 -15.57187748 -0.2402825803 0.9323107004 
8.929174423 -15.57223797 -0.2461770624 0.9307084084 
50.0699501 -59.61124039 -1.067625999 0.7324017286 
50.46111298 -54.91853333 -1.022820473 0.742039144 
51.66574097 -51.43637466 -0.9998191595 0.7470337152 
52.9425087 -48.21268463 -0.9820124507 0.7509248853 
53.91914749 -44.88121033 -0.9620994329 0.7552980781 
56.63178635 -39.1760025 -0.9443823099 0.7592134476 
57.2789917 -35.9654007 -0.927547574 0.7629502416 
56.19274139 -31.88957787 -0.8860787749 0.7722337842 
56.50688171 -17.08966064 -0.8096044064 0.7896538377 
60.18441391 -15.31577396 -0.851685822 0.7800214291 
74.15202332 -15.39398193 -1.038602352 0.7386280894 
108.5912399 -17.54613495 -1.508552194 0.644010663 
84.2615509 9.033259392 -1.162197351 0.7124757767 
47.10100555 18.47431374 -0.6938570738 0.816770494 
53.0031929 23.56091499 -0.7954747081 0.7929163575 
53.00547791 29.46030045 -0.8316665292 0.784591496 
52.91830826 35.91507339 -0.8771071434 0.7742627263 
19.09918976 14.2432785 -0.3267437816 0.909090519 
9.442851067 11.04124737 -0.1992448419 0.9435372949 
7.645444393 10.74266815 -0.1808271706 0.9486199617 
6.114111423 10.44629097 -0.1659965515 0.9527329206 
5.686132908 10.78907967 -0.1672543287 0.952383399 
4.525092602 10.82225037 -0.1608697474 0.954158783 
3.335649252 10.52033901 -0.1513568014 0.9568102956 
1.860332012 10.61185741 -0.1477514654 0.95781672 
1.349882841 10.40231133 -0.1438539028 0.9589061737 
0.877861321 10.35831738 -0.1425628662 0.9592671394 
-3.005439281 10.7988348 -0.1537217647 0.9561492801 
-4.543618202 10.60050488 -0.1581683308 0.954910934 
-6.347260475 10.62659645 -0.1697526574 0.9516897202 
-7.66677475 10.57220173 -0.1791003346 0.9490982294 
-8.389103889 10.54711628 -0.1848201007 0.9475159645 
-9.333397865 10.71867085 -0.1949154586 0.9447297454 
-11.28616714 10.84303188 -0.2146385163 0.9393104315 
-68.09015656 54.65476608 -1.197408319 0.7051945925 
-64.59201813 43.00316238 -1.064191341 0.7331390381 
-65.7672348 39.68074036 -1.053390741 0.7354506254 
-70.30233002 34.29719543 -1.072759509 0.7313096523 
-40.00833511 15.28288269 -0.5873469114 0.8425452709 
-40.52087784 13.44569302 -0.5855067372 0.8429988027 
-69.03593445 16.26573753 -0.9726904631 0.7529686093 
-87.26564026 16.50206184 -1.217986107 0.7009755373 
-100.3946457 14.39322472 -1.390902996 0.6664949059 
-15.59365463 0.1388037056 -0.2138632089 0.9395230412 
-15.5957098 -0.5554589629 -0.2140190005 0.9394804239 
-63.9161911 -16.87259483 -0.9065865874 0.7676298022 
-58.73190308 -18.3347683 -0.8437988758 0.7818189859 
-58.73307419 -21.24568558 -0.8565492034 0.7789145708 
-79.98809052 -41.70199203 -1.237108231 0.6970775723 
-12.82840347 -15.55196953 -0.2764776647 0.9225181937 
-12.8290081 -17.04401016 -0.2925602794 0.9182013273 
-12.82969666 -18.72382545 -0.3112808168 0.9132011533 
-12.83047295 -20.63736534 -0.3332624733 0.907363832 
-12.83137703 -22.8464756 -0.3593537807 0.9004843235 
-12.83242607 -25.43643761 -0.3907157779 0.8922838569 
-4.874965668 -16.38162804 -0.2343969643 0.9339122176 
-4.091391563 -16.38194466 -0.231564939 0.934683919 
-1.739081979 -15.56795597 -0.2148295492 0.939258039 
-0.3464062512 -15.56851292 -0.2135620117 0.9396053553 
1.040766597 -15.56907463 -0.2139917016 0.9394870996 
1.739233375 -15.56935787 -0.2148489356 0.9392527342 
2.444711924 -15.56964111 -0.2161404341 0.9388988018 
6.187494755 -15.57114506 -0.2297874391 0.9351688623 
8.745873451 -15.57216549 -0.2449353039 0.9310455918 
9.57424736 -15.39984608 -0.2486848384 0.9300280213 
23.19012642 -33.8439827 -0.5626504421 0.8486379981 
23.29688835 -30.95113373 -0.5312704444 0.8564400077 
48.51350403 -58.81332016 -1.045570493 0.7371311188 
49.68426514 -55.04820251 -1.016959786 0.7433083653 
51.36206055 -52.05215836 -1.002865314 0.7463701367 
54.80657196 -42.41073227 -0.950378716 0.7578844428 
55.87973404 -39.39560318 -0.9376561642 0.7607057095 
23.48929596 -13.60804939 -0.3723908961 0.897092998 
56.79140472 -29.60832787 -0.8783398271 0.7739802599 
56.50435257 -23.33124733 -0.8383737206 0.7830568552 
56.45485306 -17.623909 -0.8110740185 0.7893152833 
57.53667831 -15.18854713 -0.816093564 0.7881609201 
108.5908279 -18.53936768 -1.51077652 0.6435924172 
55.52064514 10.4990406 -0.774913013 0.797686398 
52.86079788 12.45469475 -0.7447865009 0.8047260642 
47.08400345 17.98574829 -0.6912298203 0.8173988461 
53.0064621 31.9815197 -0.8490009904 0.780631423 
53.00774384 35.29071808 -0.8733096719 0.7751121521 
53.12010574 38.88385391 -0.9028311968 0.7684743404 
78.49550629 63.00750732 -1.380414367 0.6685400009 
53.01210022 46.57754898 -0.9677869678 0.7540504932 
53.1999321 51.11105347 -1.011769772 0.7444400787 
9.973246574 10.47380638 -0.1983410567 0.9437860847 
8.471581459 10.6508131 -0.1866374165 0.9470139146 
7.040473461 10.67766571 -0.1754016131 0.9501225352 
6.25454092 10.47134209 -0.1672726423 0.9523783922 
4.615761757 10.76877213 -0.1606796235 0.9542118311 
2.419345617 10.47688007 -0.1474635303 0.9578976035 
1.955332041 10.59841728 -0.1478008926 0.9578030109 
0.9682177305 10.33128166 -0.1423051357 0.9593396187 
1.841127872 37.58427811 -0.5160499215 0.8602505922 
0.2234814465 50.2314949 -0.688888967 0.8179558516 
-4.833539963 37.24756622 -0.5151019096 0.8604896665 
-3.351982355 10.57187271 -0.1520951837 0.9566034079 
-3.766738176 10.2699995 -0.1500163227 0.9571836591 
-4.246288776 10.15550041 -0.1509562582 0.9569212794 
-5.684365273 10.78584194 -0.1672024429 0.9523974657 
-6.841364384 10.57932568 -0.172781527 0.9508495927 
-7.526091099 10.57490253 -0.1780044585 0.9494016171 
-8.294687271 10.62101555 -0.1848139912 0.9475175142 
-97.22315979 54.03636169 -1.525436997 0.6408469081 
-39.94369125 17.7557106 -0.5994775295 0.8395698667 
-40.00038147 15.68926716 -0.5892603993 0.8420758843 
-40.19012451 13.73425102 -0.5824671984 0.8437456489 
-64.69862366 18.94051743 -0.9245256782 0.763622582 
-64.68305206 15.84887981 -0.913308084 0.7661243677 
-100.3942719 15.30593491 -1.392730832 0.6661399603 
-100.3271484 10.75535393 -1.383773327 0.6678804755 
-15.59323692 0.2775659263 -0.2138812244 0.9395176172 
-15.59530735 -0.4164892435 -0.2139538527 0.9394982457 
-15.59733105 -1.11238277 -0.2144473195 0.9393626451 
-86.88017273 -14.03802967 -1.20694375 0.7032371759 
-58.05040741 -12.0512867 -0.8130867481 0.7888533473 
-63.91594696 -16.26535797 -0.9044880271 0.7680985928 
-36.43436813 -12.81392765 -0.5296688676 0.8568412662 
-58.73403549 -23.64219856 -0.8682968616 0.7762511969 
-77.11334991 -35.10328293 -1.161959171 0.7125245333 
-28.28648376 -16.05276489 -0.4460395575 0.8780000806 
-23.20832062 -16.0548172 -0.3870182633 0.8932474256 
-21.13426208 -16.05565643 -0.3639903069 0.8992670774 
-19.28967667 -16.05640793 -0.3441955447 0.9044749737 
-16.89874077 -15.38908386 -0.313446492 0.9126232266 
-16.4500103 -16.37697983 -0.3183352649 0.9113231301 
-15.04827118 -16.37753677 -0.3050193787 0.9148698449 
-12.92729473 -15.39069557 -0.2756434679 0.922742188 
-12.82888126 -16.7317791 -0.2891483903 0.9191153049 
-12.82955551 -18.37075806 -0.30729568 0.9142628312 
-12.83118629 -22.37724876 -0.3537524343 0.9019559622 
-12.83342743 -27.86224747 -0.420689702 0.88451612 
-5.843286037 -16.38125229 -0.2385179102 0.9327897429 
-5.034018517 -16.38157845 -0.2350265384 0.9337403774 
-3.47705555 -16.3821888 -0.2296727002 0.9352000952 
-1.861054659 -15.41550541 -0.2129443288 0.9397742748 
-0.4850878716 -15.56845951 -0.2136120498 0.9395916462 
3.016078949 -15.56987 -0.2174981683 0.9385274053 
3.741723537 -15.570158 -0.2196087539 0.9379489422 
4.483071327 -15.5704565 -0.2222103775 0.937237978 
6.027544022 -15.57108116 -0.2289848328 0.9353876114 
7.682748795 -15.57174015 -0.2381292731 0.9328956008 
9.385268211 -15.39977264 -0.2473251224 0.9303969145 
23.48142052 -31.7808857 -0.541911602 0.853787303 
47.69490051 -58.8803978 -1.039182186 0.7385070324 
50.22734451 -51.81677628 -0.9896764755 0.7492470145 
54.49678421 -39.15140152 -0.9202544689 0.764575243 
56.24285889 -33.25528336 -0.8960692286 0.7699881196 
56.42820358 -30.06079292 -0.8768250346 0.7743219733 
56.50529099 -21.01018715 -0.826757431 0.7857139111 
63.5178299 -14.37009048 -0.8931094408 0.7706531882 
108.5924072 -14.5833025 -1.502626896 0.6451255679 
106.0115204 9.459616661 -1.459635139 0.6532659531 
22.10952568 2.969172239 -0.305934757 0.9146256447 
22.10891533 3.977326632 -0.3080744743 0.9140557051 
53.3613739 12.0723114 -0.7503060699 0.8034339547 
52.99968719 14.49647141 -0.7535477281 0.8026740551 
53.00277328 22.43969345 -0.7893457413 0.7943345308 
53.00621033 31.34150124 -0.8444905877 0.7816576958 
53.00748825 34.61388397 -0.8682044744 0.776268959 
10.30957985 10.6358223 -0.2031390369 0.9424661398 
7.113276005 10.58190155 -0.1748628169 0.9502722025 
6.508749962 10.67984581 -0.171522215 0.9511986375 
5.852373123 10.64099312 -0.1665472388 0.9525799155 
5.318525314 10.7799263 -0.1648515314 0.9530511498 
4.148178577 10.71605968 -0.1575891078 0.9550725222 
3.52994132 10.48185253 -0.1516819745 0.9567192793 
3.063364267 10.63960171 -0.151839748 0.9566750526 
2.077578068 10.72505569 -0.1498185694 0.9572393298 
1.538706064 10.40307808 -0.1442201138 0.9588036537 
0.641874969 11.08359146 -0.152256012 0.9565590024 
0.6705077887 50.22221756 -0.6888105869 0.8179732561 
-1.545375943 49.597332 -0.6805152893 0.819956243 
-4.546440125 37.65903091 -0.520211935 0.8592080474 
-6.224721432 37.46506119 -0.5208462477 0.8590493798 
-9.653849602 37.24084091 -0.5276100039 0.8573564291 
-7.432509422 10.64268494 -0.1780259609 0.9493960142 
-9.079555511 10.80975056 -0.1936035156 0.945091784 
-70.30563354 35.86169434 -1.082377076 0.7292604446 
-34.93717194 8.890822411 -0.4944041371 0.8657004237 
-100.3267822 11.65951347 -1.38515532 0.6676133871 
-15.59068584 1.111906767 -0.2143565267 0.9393876791 
-15.59281921 0.4164135754 -0.2139187604 0.9395076036 
-68.21390533 -13.52933788 -0.9537172318 0.7571478486 
-63.91569519 -15.66114998 -0.9024803638 0.7685493231 
-26.07979012 -16.05365372 -0.4199919105 0.8846966028 
-21.52923775 -16.05550003 -0.3683189452 0.8981328607 
-17.20376015 -15.38895702 -0.3165470958 0.9117972851 
-15.31925297 -16.37742424 -0.3075447083 0.9141961336 
-13.16263199 -15.39059734 -0.2777363658 0.9221809506 
-12.82876396 -16.42684746 -0.2858387828 0.9200026989 
-12.82941341 -18.02675056 -0.3034367263 0.9152920246 
-12.83014584 -19.84041214 -0.3240304589 0.9098108411 
-12.83198738 -24.34804916 -0.3774482608 0.8957442641 
-5.895830154 -16.07490921 -0.2348130792 0.9337985516 
-4.402524471 -16.38181877 -0.2326348871 0.9343925118 
-2.698852539 -15.3948698 -0.2143467665 0.9393900633 
-1.997797847 -15.39515877 -0.2129020691 0.9397862554 
-1.319394469 -15.56812191 -0.2142674178 0.9394115806 
0.06925781071 -15.56868362 -0.2135156244 0.9396186471 
0.7626562119 -15.5689621 -0.2137696743 0.939547956 
1.459184527 -15.56924534 -0.2144550979 0.9393606782 
2.161508799 -15.56952381 -0.2155705243 0.9390549064 
2.872582912 -15.56981182 -0.2171299756 0.9386277795 
3.595483303 -15.57009983 -0.2191503793 0.938075006 
5.8687644 -15.57101727 -0.2282075435 0.9355998635 
9.198242188 -15.39969444 -0.2459989935 0.9307568073 
53.06012726 -50.97672653 -1.009082675 0.7450176477 
54.75853348 -48.11161041 -0.9996472597 0.747071147 
54.62836838 -43.84924698 -0.9606730342 0.7556123734 
56.6113472 -18.78484535 -0.8180001378 0.7877230048 
22.10612679 3.774099112 -0.3075527847 0.9141941071 
27.80353546 8.679626465 -0.3994476199 0.890013814 
47.051651 17.02012444 -0.6861968637 0.8185993433 
65.18453979 26.91541672 -0.9671627879 0.7541849017 
71.06291199 37.04880524 -1.099057794 0.7257182598 
53.00596619 30.70789719 -0.8401010036 0.7826597691 
53.00722504 33.94456863 -0.8632301688 0.7773991227 
56.12958908 39.57168579 -0.9418442249 0.7597761154 
53.00996017 41.02046967 -0.9192256927 0.7648032308 
10.63008308 10.77301216 -0.2075591981 0.9412522316 
9.660048485 10.70304871 -0.1977281123 0.9439553022 
6.802397251 10.94141865 -0.176688686 0.9497663379 
4.253388405 10.70384502 -0.1579583734 0.9549691677 
3.621337891 10.44491959 -0.1516087353 0.9567399025 
2.607910156 10.44214535 -0.1476039141 0.9578581452 
2.172792912 10.7053175 -0.1498063654 0.9572425485 
1.15353024 10.32623959 -0.1424958706 0.9592862129 
0.8361523151 37.57843399 -0.5154835582 0.8603938222 
-3.409921885 51.00944138 -0.7011116147 0.8150446415 
-7.058598518 34.77741241 -0.4866654873 0.8676564693 
-9.31068325 37.28005219 -0.5269651413 0.857516408 
-3.629047871 10.46716976 -0.151927799 0.9566497803 
-4.699262619 10.44615459 -0.1570867896 0.9552117586 
-5.994130611 10.67265892 -0.1678721607 0.9522120953 
-6.540502548 10.52018261 -0.1698840261 0.9516527653 
-7.248110294 10.57798576 -0.1758555621 0.9499967098 
-9.63519001 10.67541599 -0.1972181648 0.9440956712 
-10.57100582 10.71306038 -0.2064042687 0.9415692091 
-23.74000359 13.7532692 -0.376260221 0.8960538507 
-70.30739594 36.65489197 -1.087376833 0.7281960249 
-43.95293045 20.48233414 -0.6650159955 0.823672235 
-39.98091888 16.50854683 -0.5932053924 0.8411066532 
-40.16634369 14.52947712 -0.585776329 0.8429311514 
-64.75437927 17.09384346 -0.9184758663 0.7649723291 
-87.18903351 18.91154289 -1.223521948 0.6998429298 
-100.3935547 17.13978767 -1.396724939 0.6653627157 
-100.7925797 12.62349319 -1.393092871 0.6660715342 
-15.62711143 1.25433588 -0.2150013745 0.9392107725 
-15.59448242 -0.1388134807 -0.213874504 0.9395198822 
-15.59652042 -0.8336400986 -0.2141987532 0.9394308925 
-63.91545868 -15.05929375 -0.9005438685 0.7689825296 
-61.00798798 -17.27203369 -0.8695585728 0.7759655714 
-58.73355484 -22.43578339 -0.8622488379 0.7776217461 
-59.66530609 -25.88880157 -0.8919765353 0.7709099054 
-72.79139709 -35.51157379 -1.110738277 0.7232521772 
-28.2929039 -15.39708233 -0.4417428374 0.8790999055 
-24.11425209 -16.05444527 -0.3972970545 0.8905735016 
-21.93354034 -16.05533981 -0.3727740347 0.8969656229 
-20.00290489 -16.0561161 -0.3517645299 0.9024797082 
-18.27500916 -16.05681801 -0.3336218297 0.9072686434 
-16.45490646 -15.8088007 -0.3129357696 0.9127599001 
-15.59463787 -16.37732124 -0.3101356328 0.913505435 
-13.40146446 -15.39050007 -0.2798757851 0.9216057658 
-12.82864189 -16.12866402 -0.2826274037 0.9208652973 
-12.82927704 -17.69109154 -0.299698025 0.9162909985 
-12.82999516 -19.45812225 -0.3196371496 0.9109769464 
-12.83081055 -21.48134995 -0.3431489468 0.9047508836 
-18.90816879 -44.11358261 -0.6582113504 0.8253082037 
-5.3549366 -16.38144684 -0.2363543659 0.9333785772 
-4.559243202 -16.38175583 -0.2332012951 0.9342381358 
-3.782914877 -16.38206673 -0.2305772305 0.9349530339 
-2.13723135 -15.39509964 -0.2131544501 0.9397166967 
-1.459013581 -15.5680685 -0.2144386172 0.9393651485 
-0.7626367211 -15.56834698 -0.2137626559 0.9395502806 
-0.06925781071 -15.56862545 -0.2135127187 0.9396188259 
3.449780226 -15.57004642 -0.2187069654 0.9381958246 
4.184443474 -15.57033443 -0.2211114466 0.9375386238 
4.936918736 -15.57064152 -0.2240150422 0.9367448092 
8.206782341 -15.57194996 -0.2413993776 0.9320065975 
9.013261795 -15.39962101 -0.2447068691 0.9311076999 
23.48093224 -32.99303055 -0.5553588867 0.8504431844 
50.03090668 -53.48680496 -1.004412413 0.746034801 
51.97727585 -50.83335876 -0.9970546365 0.7476369739 
53.63239288 -47.97481155 -0.9868214726 0.7498660088 
54.47903061 -40.62794113 -0.9320301414 0.7619559169 
55.61231232 -37.7435112 -0.9217364788 0.7642435431 
56.41572952 -25.07784462 -0.8466902971 0.7811587453 
56.4541893 -19.29221916 -0.8181910515 0.7876820564 
56.52026367 -16.54605103 -0.8076613545 0.7901032567 
60.18545914 -14.74687195 -0.849814117 0.7804484963 
108.591629 -16.5557251 -1.506440043 0.6444056034 
76.06852722 8.840349197 -1.050178766 0.7361283302 
22.10669327 3.571984768 -0.3071060181 0.9143131971 
52.99928665 13.48729229 -0.7500150204 0.8035028577 
46.8965416 14.1831665 -0.6719210744 0.8220156431 
47.04255676 16.54480171 -0.6838848591 0.8191505671 
52.95423889 24.10562134 -0.7973405123 0.7923493981 
53.00697327 33.28314209 -0.8583660722 0.7785021663 
53.00828171 36.66951752 -0.8839498758 0.772713542 
53.24966812 53.01325989 -1.030480862 0.7403842807 
9.227695465 10.98611546 -0.1967596412 0.9442213774 
6.919863224 10.9125042 -0.1772080958 0.9496220946 
6.00165987 10.4667263 -0.1654661596 0.9528803825 
5.541689396 10.74579334 -0.1658125222 0.952784121 
3.740087748 10.48509502 -0.1526684463 0.9564441442 
2.706049681 10.43912315 -0.1478955001 0.9577766657 
2.254223585 10.62086868 -0.1489005983 0.9574958086 
1.748935461 10.52647972 -0.1463389546 0.9582111239 
1.257353544 10.41495323 -0.1438684016 0.9589021206 
1.170742154 37.57314301 -0.5155291557 0.8603812456 
-2.972578049 51.32842636 -0.705105722 0.8140959144 
-7.71305418 32.09576416 -0.45269835 0.876296699 
-3.078940392 10.69367695 -0.1526104659 0.9564597607 
-3.525107384 10.46751213 -0.1514733881 0.956777215 
-5.892177582 10.71327114 -0.1676782221 0.9522655606 
-6.448671818 10.5812912 -0.1699391156 0.9516379237 
-7.08369112 10.53790474 -0.1741342098 0.9504737854 
-7.790898323 10.54457283 -0.1797991842 0.9489045143 
-8.537079811 10.53921127 -0.1860050857 0.9471883178 
-9.512518883 10.73001194 -0.1966548115 0.9442508817 
-10.39869118 10.72776794 -0.2048948556 0.941983521 
-82.00215912 48.48622513 -1.30645442 0.6831145883 
-39.96685791 16.92049408 -0.5952110291 0.8406157494 
-41.77196121 13.44926739 -0.6018285751 0.8389943242 
-15.59196949 0.6942700148 -0.2140418887 0.939473629 
-15.59406948 0 -0.2138601691 0.9395237565 
-75.19042969 -13.52651596 -1.047720432 0.7366676331 
-63.91521454 -14.45997238 -0.8986951113 0.7693982124 
-63.14411926 -17.2711792 -0.8977758884 0.7696043253 
-58.73213196 -18.91017723 -0.8461800218 0.7812745571 
-58.73331451 -21.83891869 -0.8593565226 0.778277576 
-59.66505814 -25.26029015 -0.8885648251 0.7716745734 
-28.87829971 -15.38422585 -0.4487332106 0.8773105145 
-27.14994049 -16.05321503 -0.4325547814 0.8814603686 
-22.34798241 -16.05516815 -0.3773739636 0.8957629204 
-20.37155151 -16.05596352 -0.3557212651 0.9014390707 
-14.51945782 -16.3777504 -0.30016312 0.9161669612 
-12.82852554 -15.83708191 -0.2795092762 0.921703577 
-12.83064461 -21.05309677 -0.3381159902 0.9060793519 
-12.8315773 -23.33082771 -0.3651615679 0.8989602327 
-12.83267021 -26.0100708 -0.397756964 0.8904531598 
-19.37445831 -44.11339569 -0.6607519388 0.8246962428 
-5.958832741 -15.39355183 -0.2263758779 0.9361001849 
-4.716664791 -16.38169098 -0.2337873727 0.9340781569 
-0.901601553 -15.56829357 -0.2138636708 0.939522624 
-0.2078515589 -15.56857109 -0.2135290504 0.9396144152 
0.4850976467 -15.56884956 -0.2136155665 0.9395901561 
1.180004835 -15.56912804 -0.2141304016 0.9394497275 
4.036235332 -15.57028008 -0.220590353 0.9376807213 
5.554282188 -15.57089043 -0.2267205715 0.9360057116 
6.34857893 -15.571208 -0.2306124866 0.9349436164 
9.765424728 -15.39992905 -0.2500820756 0.9296495914 
23.5388813 -30.70004082 -0.5305345058 0.8566235304 
50.0699501 -59.61124039 -1.067625999 0.7324017286 
53.91912842 -44.88137436 -0.962100327 0.75529778 
56.63182449 -39.1758461 -0.9443814754 0.7592136264 
55.69615173 -28.40968895 -0.8574502468 0.77870965 
56.50688171 -17.08966064 -0.8096044064 0.7896538377 
60.18441391 -15.31577396 -0.851685822 0.7800214291 
108.5912399 -17.54613495 -1.508552194 0.644010663 
84.2615509 9.033082962 -1.162196994 0.7124758363 
53.00671768 32.62875748 -0.8536377549 0.7795795798 
52.91830826 35.91507339 -0.8771071434 0.7742627263 
19.09918976 14.2432785 -0.3267437816 0.909090519 
53.13957977 43.43763733 -0.9412444234 0.759904623 
52.96537018 47.37812424 -0.9745638967 0.7525554299 
9.890986443 10.57422066 -0.1985684186 0.9437234998 
7.645419598 10.74268246 -0.1808268726 0.9486199617 
6.114077091 10.44628906 -0.1659962386 0.9527330399 
5.015947342 10.63978958 -0.1613172889 0.95403409 
4.525092602 10.82225037 -0.1608697474 0.954158783 
2.787206888 10.37125683 -0.1472792029 0.9579486847 
1.505966783 37.58174896 -0.5158151388 0.8603106141 
-2.512377977 51.28751755 -0.7042074203 0.814309001 
-3.501972675 37.3655014 -0.5146813989 0.8605951667 
-6.868136883 37.22614288 -0.5191381574 0.8594763875 
-8.651071548 37.46310806 -0.5272956491 0.8574345112 
-3.842656136 10.19535351 -0.1494200081 0.9573502541 
-4.965341568 10.29392529 -0.1567376703 0.9553095698 
-6.347260475 10.62659645 -0.1697526574 0.9516897202 
-7.66677475 10.57220173 -0.1791003346 0.9490982294 
-9.333397865 10.71867085 -0.1949154586 0.9447297454 
-11.28623486 10.84300423 -0.2146388143 0.9393103123 
-64.59201813 43.00316238 -1.064191341 0.7331390381 
-65.7672348 39.68074036 -1.053390741 0.7354506254 
-78.99052429 42.9868927 -1.233309269 0.6978485584 
-39.95719528 17.33744049 -0.5973411202 0.8400933743 
-69.03593445 16.26573753 -0.9726904631 0.7529686093 
-100.327507 9.853327751 -1.38252902 0.6681258678 
-76.87724304 -13.1249733 -1.069563866 0.7319905162 
-63.9149704 -13.86335182 -0.8969184756 0.7697962523 
-63.9161911 -16.87259483 -0.9065865874 0.7676298022 
-58.73190308 -18.3347683 -0.8437988758 0.7818189859 
-72.8091507 -33.92956161 -1.101616025 0.725178659 
-79.98809052 -41.70199203 -1.237108231 0.6970775723 
-27.70962334 -16.05299568 -0.4391796887 0.8797591329 
-20.74861717 -16.05581284 -0.3597952127 0.9003683329 
-18.94448662 -16.05654526 -0.3405697644 0.905431509 
-16.59962845 -15.3892107 -0.3104309142 0.9134274125 
-12.82840347 -15.55196953 -0.2764776647 0.9225181937 
-12.82969666 -18.72382545 -0.3112808168 0.9132011533 
-12.83369637 -28.52839088 -0.4290086329 0.882373035 
-4.874965668 -16.38162804 -0.2343969643 0.9339122176 
-4.091391563 -16.38194466 -0.231564939 0.934683919 
-1.739081979 -15.56795597 -0.2148295492 0.939258039 
-1.040654302 -15.56823444 -0.2139800936 0.9394903183 
-0.3464062512 -15.56851292 -0.2135620117 0.9396053553 
1.739233375 -15.56935787 -0.2148489356 0.9392527342 
2.444711924 -15.56964111 -0.2161404341 0.9388988018 
3.160141468 -15.56992912 -0.217881009 0.9384220243 
4.633559704 -15.57051945 -0.2227925062 0.9370791912 
5.39852047 -15.57082748 -0.2260093689 0.9361994863 
6.187494755 -15.57114506 -0.2297874391 0.9351688623 
8.745873451 -15.57216549 -0.2449353039 0.9310455918 
23.19012642 -33.8439827 -0.5626504421 0.8486379981 
23.29688835 -30.95113373 -0.5312704444 0.8564400077 
49.68426514 -55.04820251 -1.016959786 0.7433083653 
51.36206055 -52.05215836 -1.002865314 0.7463701367 
55.87973404 -39.39560318 -0.9376561642 0.7607057095 
31.53068352 -20.1917057 -0.5134835839 0.8608962297 
23.48929596 -13.60804939 -0.3723908961 0.897092998 
57.66472626 -26.87211609 -0.8724780679 0.7753052115 
56.50435257 -23.33097267 -0.8383719921 0.7830572128 
56.50551605 -20.43989944 -0.8240625858 0.7863307595 
108.5908279 -18.53936768 -1.51077652 0.6435924172 
108.511055 -13.59019756 -1.499767065 0.6456638575 
22.10667992 3.169362783 -0.306276381 0.9145352244 
55.52042007 10.49875736 -0.7749162316 0.7976872921 
52.86079788 12.45469475 -0.7447865009 0.8047260642 
47.97149277 13.58147144 -0.6837415695 0.8191838264 
47.0424614 15.60968971 -0.6797326803 0.8201423883 
53.00523376 28.84561157 -0.8275961876 0.7855225205 
53.0064621 31.9818325 -0.8490166068 0.7806309462 
53.00774384 35.29071808 -0.8733096719 0.7751121521 
78.49533081 63.00682449 -1.380404234 0.668541491 
8.471581459 10.6508131 -0.1866374165 0.9470139146 
7.040473461 10.67766571 -0.1754016131 0.9501225352 
5.783593655 10.74116421 -0.1673028469 0.9523699284 
5.141635418 10.6594944 -0.1623033136 0.9537597895 
3.971869946 10.53829765 -0.1544479281 0.9559477568 
2.897660971 10.41177464 -0.1482160985 0.9576873183 
1.955332041 10.59841728 -0.1478008926 0.9578030109 
1.841269493 37.5842247 -0.5160495043 0.860250771 
-4.833696365 37.24760818 -0.5151031613 0.8604894876 
-6.547924519 37.350914 -0.5200449824 0.859249115 
-7.51706028 33.92631912 -0.4765539467 0.8702197075 
-9.984946251 37.15402603 -0.5276144147 0.8573544621 
-3.352011681 10.57182312 -0.1520948708 0.9566035867 
-4.24631834 10.15546131 -0.1509561092 0.956921339 
-5.684633732 10.78622246 -0.1672088653 0.9523956776 
-6.841364384 10.57932568 -0.172781527 0.9508495927 
-7.526051998 10.57493401 -0.1780052185 0.9494016171 
-9.171274185 10.72375488 -0.1935162246 0.9451156259 
-9.895380974 10.57892418 -0.1986573786 0.9436992407 
-11.07095718 10.82741451 -0.2123698443 0.9399321079 
-11.89295864 10.63838196 -0.2188331485 0.9381616712 
-64.8283844 39.90567398 -1.044006824 0.7374676466 
-97.22315979 54.0357933 -1.525433064 0.6408476233 
-40.00038147 15.68926716 -0.5892603993 0.8420758843 
-100.3942719 15.30593491 -1.392730832 0.6661399603 
-15.59323978 0.2776293755 -0.2138813734 0.9395176172 
