# .PCD v0.7 - Point Cloud Data file format
VERSION 0.7
FIELDS x y z intensities
SIZE 4 4 4 4
TYPE F F F F
COUNT 1 1 1 1
WIDTH 924
HEIGHT 1
VIEWPOINT 0 0 0 1 0 0 0
POINTS 924
DATA ascii
-7.803766727 -4.803689003 -1.99961412 0.9631775618 
-7.582580566 -5.146225452 -1.999674201 0.9631764889 
-7.346394062 -5.478603363 -1.999738455 0.9631752968 
-6.261191368 -6.693735123 -2.000033617 0.9631701708 
-5.315087795 -7.468522549 -2.000291586 0.96316576 
-4.630859375 -7.912140846 -2.000478029 0.9631619453 
-4.274531364 -8.110702515 -2.000575304 0.9631601572 
-3.909677744 -8.293222427 -2.000674725 0.9631584287 
-3.53708005 -8.459357262 -2.000776529 0.9631565809 
-3.157455921 -8.608777046 -2.000880003 0.9631546736 
-2.771674633 -8.741176605 -2.000985384 0.9631525874 
-2.380175829 -8.856276512 -2.001092196 0.9631507397 
-0.774648428 -9.139753342 -2.001530886 0.9631429315 
-0.3672363162 -9.165680885 -2.001641989 0.9631409049 
0.04086913913 -9.173454285 -2.001753569 0.963138938 
2.064785004 -8.940800667 -2.002307177 0.9631287456 
2.460517406 -8.840582848 -2.002415419 0.9631268382 
3.236787081 -8.587824821 -2.002628088 0.9631230831 
5.053232193 -7.663818359 -2.003125429 0.9631141424 
5.389404297 -7.431779385 -2.003217459 0.9631124735 
6.028564453 -6.924018383 -2.003392696 0.9631105661 
6.331630707 -6.649181843 -2.003475904 0.9631072879 
6.621347427 -6.361213207 -2.003555298 0.9631059766 
6.897914886 -6.060597897 -2.003631353 0.9631049633 
7.160927773 -5.747956276 -2.003703594 0.9631037116 
7.409784794 -5.423913479 -2.00377202 0.9631024599 
7.643964767 -5.08909893 -2.003836393 0.9631012678 
8.066503525 -4.389816761 -2.003952503 0.9630991817 
8.717084885 -2.892512083 -2.004132032 0.9630959034 
8.837265015 -2.501921415 -2.004165411 0.9630953074 
8.93993187 -2.106367111 -2.004193783 0.9630948305 
9.024863243 -1.706621051 -2.004217386 0.9630944729 
9.091962814 -1.303478956 -2.004235983 0.9630940557 
9.141025543 -0.8977563381 -2.00425005 0.963093698 
9.171928406 -0.4902465641 -2.004258871 0.9630936384 
9.179218292 0.3269311488 -2.004261732 0.9630935788 
9.053886414 1.545737267 -2.00422883 0.9630941749 
8.976113319 1.946945786 -2.004208088 0.9630944133 
8.880468369 2.344264984 -2.004182339 0.9630950093 
8.767177582 2.736928701 -2.004151821 0.9630959034 
8.636689186 3.124162436 -2.004116535 0.9630962014 
8.488993645 3.505190372 -2.004076481 0.9630969167 
7.262304306 5.619711876 -2.00374341 0.9631027579 
5.683310509 6.296831131 -1.850912452 0.9658683538 
5.397265434 6.543134689 -1.850834608 0.9658699632 
5.100615025 6.776447773 -1.850753784 0.9658715129 
4.152739048 7.394013405 -1.850495219 0.9658761621 
3.819526196 7.571052074 -1.850404501 0.9658777714 
3.478784084 7.733071327 -1.850311399 0.9658794999 
3.131186485 7.879760742 -1.850216627 0.9658811688 
1.686205983 8.30788517 -1.849822044 0.965888381 
1.314902306 8.374140739 -1.849703431 0.9658904672 
0.1885302663 8.472797394 -1.849301815 0.9658977985 
-0.5652099252 8.455161095 -1.849112511 0.965901196 
-2.416459799 8.120204926 -1.848700404 0.9659087062 
-2.775136709 8.004257202 -1.848602295 0.9659104347 
-3.128281116 7.872470379 -1.848505497 0.9659122229 
-3.815209866 7.562504768 -1.848317504 0.9659156203 
-4.147636414 7.384946346 -1.848226428 0.9659172893 
-4.471826077 7.192782879 -1.848137617 0.9659188986 
-5.38870573 6.532687664 -1.847886324 0.9659233689 
-7.490114689 5.280446529 -1.999710441 0.9631752968 
-7.929132938 4.593574047 -1.999589801 0.9631780386 
-8.125395775 4.236198425 -1.999535799 0.9631789923 
-8.616352081 3.116813898 -1.999400496 0.9631814957 
-9.031545639 1.541921377 -1.999285221 0.9631835818 
-9.091115952 1.13859129 -1.999268413 0.9631838799 
-9.118234634 -0.8955224156 -1.999258876 0.9631839991 
-9.069428444 -1.300258756 -1.99927175 0.9631838202 
-9.002634048 -1.702426672 -1.999289632 0.963183701 
-8.918161392 -2.101237774 -1.999312282 0.9631830454 
-8.815983772 -2.49590826 -1.999339819 0.9631825089 
-8.696367264 -2.88564682 -1.999372005 0.9631819725 
-8.23543644 -4.017690182 -1.999496818 0.9631797075 
-8.04876709 -4.380168438 -1.999547482 0.9631787539 
-7.628041744 -5.078491211 -1.999661803 0.9631767273 
-7.394773006 -5.412985802 -1.999725103 0.9631756544 
-6.884880066 -6.049228191 -1.999863863 0.963173151 
-6.320448875 -6.637717247 -2.000017405 0.9631704092 
-5.705937386 -7.17380619 -2.000184774 0.963167429 
-5.381484032 -7.420864105 -2.000273466 0.9631656408 
-5.046371937 -7.653259277 -2.00036478 0.9631637931 
-4.70106411 -7.870529652 -2.000458956 0.963162303 
-4.346503735 -8.072245598 -2.000555515 0.9631605744 
-3.983320236 -8.258014679 -2.000654697 0.9631587267 
-3.612206936 -8.42746067 -2.000755787 0.9631569386 
-3.233916044 -8.580244064 -2.000859261 0.9631550908 
-0.4487988055 -9.161950111 -2.001619816 0.9631413221 
-0.04074218497 -9.173352242 -2.001731396 0.9631392956 
0.3673730493 -9.166596413 -2.001842976 0.963137269 
1.584443331 -9.037653923 -2.002175808 0.963131249 
1.985156178 -8.9587183 -2.00228548 0.9631291032 
2.381699085 -8.862038612 -2.002393961 0.9631272554 
3.1601758 -8.616203308 -2.002606869 0.9631235003 
3.540522337 -8.467543602 -2.002711058 0.963121593 
4.279511452 -8.120175362 -2.002913475 0.9631179571 
4.636767387 -7.922138691 -2.003011227 0.963116169 
6.843783855 -6.121696472 -2.003616333 0.9631048441 
7.109433651 -5.81142807 -2.003689528 0.96310395 
7.598330021 -5.156897068 -2.003823757 0.9631015062 
7.820444107 -4.813937664 -2.003884792 0.9631003737 
8.027070045 -4.461428165 -2.003941774 0.9630993605 
8.392251015 -3.730515003 -2.004042387 0.9630975127 
8.690966606 -2.969980478 -2.004124641 0.9630960226 
8.814628601 -2.580436945 -2.004158974 0.9630954266 
9.167211533 -0.57182616 -2.004257441 0.9630936384 
8.901044846 2.265136719 -2.004187822 0.9630947709 
8.791377068 2.658806086 -2.004158258 0.9630951881 
8.358710289 3.805019379 -2.004041195 0.9630976319 
8.180971146 4.173015118 -2.003993034 0.9630984664 
7.987030983 4.53268528 -2.003940344 0.9630994201 
6.788866997 6.182382584 -2.003614664 0.9631052613 
5.455331802 6.494884968 -1.850850463 0.9658697248 
4.856074333 6.953430176 -1.850687027 0.9658726454 
4.541728497 7.162231445 -1.850601435 0.9658741951 
4.218437195 7.356825829 -1.85051322 0.9658758044 
3.547514677 7.701874733 -1.850330114 0.9658791423 
2.490419865 8.104262352 -1.850041628 0.9658843875 
2.127343655 8.206583977 -1.849942565 0.9658861756 
1.389370084 8.362248421 -1.849735022 0.9658899307 
0.6405468583 8.451311111 -1.849445701 0.9658951759 
0.2639453113 8.470888138 -1.849324346 0.9658973813 
-0.1131201163 8.473754883 -1.849218607 0.9658992887 
-0.865742147 8.429423332 -1.849054813 0.9659022689 
-1.611396432 8.318505287 -1.848920703 0.9659047127 
-1.979731441 8.238143921 -1.848819852 0.9659065604 
-2.344116211 8.141493797 -1.848720193 0.965908289 
-2.703808546 8.028725624 -1.848621726 0.9659101367 
-3.058154345 7.900087833 -1.84852469 0.9659118056 
-3.747822285 7.596227646 -1.848335981 0.9659152627 
-4.08180666 7.421620846 -1.848244429 0.9659169912 
-4.407700062 7.232355595 -1.848155141 0.965918541 
-5.032588005 6.811354637 -1.847983956 0.9659216404 
-5.617568016 6.33655262 -1.847823501 0.9659246206 
-6.022265434 6.212814808 -1.888067007 0.965195477 
-6.938466549 5.987692833 -1.999862075 0.963173151 
-7.197704792 5.672917366 -1.999790907 0.9631744027 
-8.270864487 3.94422102 -1.999495625 0.9631797671 
-8.437936783 3.572311878 -1.999449611 0.9631806016 
-8.721711159 2.808115244 -1.99937129 0.9631819725 
-8.936498642 2.021767616 -1.999311686 0.963183105 
-9.125834465 0.8143212795 -1.999258637 0.9631840587 
-9.162057877 0 -1.999247909 0.9631842375 
-9.152999878 -0.4075659215 -1.999249935 0.9631841779 
-9.017479897 -1.622219205 -1.999285698 0.9631835222 
-8.936491966 -2.021767616 -1.999307394 0.963183105 
-8.837826729 -2.417326689 -1.999333858 0.9631826282 
-8.270814896 -3.944243193 -1.999487281 0.9631798863 
-8.087375641 -4.308359146 -1.999536991 0.9631789923 
-6.080420017 -6.858678818 -2.00008297 0.9631692171 
-5.769570351 -7.122680664 -2.000167608 0.9631676078 
-5.11391592 -7.607939243 -2.000346422 0.9631649256 
-4.770888329 -7.828293324 -2.000439882 0.9631626606 
-4.056586742 -8.222160339 -2.00063467 0.9631591439 
-3.687011719 -8.394899368 -2.000735521 0.9631572962 
-3.310087919 -8.551042557 -2.000838518 0.9631554484 
-2.926181555 -8.690276146 -2.000943184 0.9631540179 
-1.744169831 -9.003932953 -2.001266003 0.9631476998 
-1.341967702 -9.073102951 -2.001375914 0.9631457329 
-0.9371093512 -9.124325752 -2.00148654 0.9631437659 
-0.1225097626 -9.172531128 -2.001708984 0.9631397128 
0.6933398247 -9.148129463 -2.001931906 0.9631356597 
1.099648356 -9.108730316 -2.002043247 0.9631336927 
1.503876925 -9.051299095 -2.002153635 0.9631316662 
2.302612305 -8.882782936 -2.002372265 0.9631277323 
3.839794874 -8.336501122 -2.002793074 0.9631201625 
4.20703125 -8.15784359 -2.002893686 0.9631183743 
4.915961742 -7.752392292 -2.003087759 0.9631147981 
5.904843807 -7.030065536 -2.003358841 0.9631099105 
6.212197304 -6.760703087 -2.003443241 0.9631078839 
6.506865025 -6.477958679 -2.003524065 0.9631068707 
6.788818359 -6.182343483 -2.003601551 0.9631054997 
7.057382584 -5.87444067 -2.003675222 0.9631041884 
7.552070141 -5.224265099 -2.003811121 0.9631018043 
7.777255535 -4.88330555 -2.003872871 0.9631006122 
8.180956841 -4.172971249 -2.003983974 0.9630985856 
8.993046761 -1.866960406 -2.004208565 0.9630945325 
9.181777 -0.2452075183 -2.004261971 0.9630935192 
9.132656097 0.9790405035 -2.004249573 0.9630938172 
9.009345055 1.786887169 -2.004216909 0.9630943537 
8.814662933 2.580485821 -2.004164457 0.9630952477 
8.690980911 2.969987631 -2.004131079 0.963095963 
8.217841148 4.100051403 -2.004003048 0.963098228 
8.027109146 4.461435318 -2.003951311 0.9630991817 
7.820478439 4.813960075 -2.003895044 0.9631001949 
7.598369122 5.156928539 -2.003834724 0.9631012678 
7.361210823 5.489645958 -2.003770351 0.9631024599 
5.220537186 6.684716702 -1.850786448 0.9658707976 
4.917773247 6.910017014 -1.850703955 0.9658723474 
4.60534668 7.121608734 -1.85061872 0.9658738375 
4.283759594 7.319069862 -1.850531101 0.9658755064 
2.919623852 7.960297585 -1.850158811 0.9658822417 
2.200331926 8.187414169 -1.849962473 0.965885818 
1.463769555 8.349667549 -1.849761367 0.9658894539 
1.09080565 8.405835152 -1.849612117 0.9658921957 
0.3393456936 8.468310356 -1.849347353 0.9658969641 
-0.03769531101 8.474521637 -1.849238396 0.965898931 
-0.4146142602 8.46402359 -1.849145293 0.9659006596 
-1.165195346 8.393051147 -1.849007487 0.9659031034 
-2.27161622 8.162109375 -1.848739982 0.9659079313 
-2.987734318 7.927070141 -1.848544121 0.9659115076 
-3.337245941 7.785912991 -1.848448396 0.9659132361 
-4.662118912 7.070634842 -1.848085403 0.9659198523 
-5.561005592 6.386359692 -1.847838998 0.965924263 
-5.918612957 6.215639591 -1.872839928 0.9654712081 
-6.884975433 6.049233437 -1.999876857 0.963172853 
-7.39485836 5.412988186 -1.999736786 0.9631753564 
-7.628083229 5.07851553 -1.999672651 0.9631765485 
-7.846210957 4.73402071 -1.99961257 0.9631776214 
-8.23547554 4.017702579 -1.999505401 0.9631795287 
-8.559584618 3.269699574 -1.999415994 0.9631811976 
-8.816005707 2.495898485 -1.999345183 0.9631824493 
-8.91817379 2.10123539 -1.999316812 0.9631829858 
-9.00271225 1.702424288 -1.999293327 0.963183403 
-9.118225098 0.8955248594 -1.999260783 0.9631840587 
-9.03153801 -1.541926265 -1.999281883 0.9631835818 
-8.954101562 -1.942172766 -1.999302626 0.9631832242 
-8.469316483 -3.497077465 -1.999433517 0.96318084 
-8.305561066 -3.870449066 -1.999477983 0.9631800056 
-8.12536335 -4.236186504 -1.999526739 0.9631791711 
-7.929096699 -4.593562126 -1.999580026 0.9631781578 
-7.717121601 -4.941870213 -1.999637604 0.9631771445 
-6.721105576 -6.231018066 -1.999908447 0.9631722569 
-4.840292931 -7.785461426 -2.000421047 0.9631630182 
-4.489384651 -7.993449688 -2.000516653 0.9631612897 
-4.129580021 -8.185647011 -2.000614643 0.9631595016 
-3.003798723 -8.663784027 -2.000921965 0.9631539583 
-2.614746094 -8.789294243 -2.001028299 0.963152945 
-1.422602534 -9.060698509 -2.001353741 0.9631462097 
-1.018173814 -9.115519524 -2.001464367 0.9631441832 
-0.6117968559 -9.152312279 -2.001575232 0.963142097 
0.6118456721 -9.153827667 -2.001909733 0.9631361365 
1.825131774 -8.992436409 -2.002241611 0.9631300569 
3.006269455 -8.670903206 -2.002564907 0.9631242156 
3.389184475 -8.529035568 -2.002669573 0.9631223679 
3.765439272 -8.3702631 -2.00277257 0.9631204605 
4.846733093 -7.795763969 -2.003068686 0.9631150961 
5.188940525 -7.572807312 -2.003162622 0.9631134272 
5.842001915 -7.082258224 -2.003341675 0.9631102681 
6.151825905 -6.815632343 -2.003426552 0.9631080627 
6.448905945 -6.535549164 -2.003508091 0.9631071687 
6.733427525 -6.242485046 -2.003586292 0.9631058574 
7.262187481 -5.619709492 -2.003731251 0.9631031156 
8.324458122 -3.87924552 -2.00402379 0.9630978703 
8.636650085 -3.124162436 -2.004109859 0.9630963206 
9.113754272 -1.141425729 -2.00424242 0.9630939364 
9.15555191 -0.734929204 -2.004254103 0.9630937576 
9.179218292 -0.3268920779 -2.004261017 0.9630935788 
9.171933174 0.4902416766 -2.004259825 0.9630936384 
9.091972351 1.303483844 -2.004239082 0.963093996 
9.024916649 1.706584454 -2.004220963 0.9630942941 
8.939990044 2.106372118 -2.004198313 0.9630945921 
8.837260246 2.5019629 -2.004170656 0.9630953074 
8.71709919 2.892521858 -2.004138231 0.9630958438 
8.579628944 3.277392387 -2.004101038 0.9630964994 
8.42519474 3.655688286 -2.004059315 0.9630972147 
8.254033089 4.026796818 -2.004012823 0.9630980492 
8.066542625 4.389829159 -2.003961802 0.9630990028 
7.863041878 4.74422121 -2.003906727 0.9631000161 
7.644023418 5.089118481 -2.003847122 0.9631010294 
7.161064148 5.747983456 -2.003715992 0.9631032348 
6.454873085 6.201352596 -1.953211069 0.9640164971 
5.91919899 6.216178894 -1.873001814 0.9654681087 
5.570180416 6.396850586 -1.850881815 0.9658691287 
4.348769665 7.280734539 -1.850548863 0.9658751488 
4.020400524 7.466598988 -1.850459218 0.9658768177 
3.684072256 7.637695312 -1.850367427 0.965878427 
2.990356445 7.9340868 -1.850178123 0.9658818841 
2.273124933 8.167602539 -1.849982381 0.9658854008 
-0.3392626941 8.467465401 -1.849162698 0.9659003019 
-0.715590775 8.443622589 -1.84908247 0.9659017324 
-1.090483427 8.403134346 -1.849018335 0.9659029245 
-1.832875967 8.272251129 -1.848860145 0.9659057856 
-2.198886633 8.182094574 -1.848760009 0.9659075737 
-2.917094707 7.953427792 -1.848563313 0.96591115 
-3.949160099 7.493244648 -1.848280787 0.965916276 
-4.59909153 7.11190176 -1.848102689 0.9659194946 
-5.21249485 6.674391747 -1.847934484 0.9659225941 
-5.503993988 6.435658932 -1.847854733 0.965923965 
-6.343437195 6.203894138 -1.936141372 0.9643253684 
-6.830898285 6.110327244 -1.999891639 0.9631726146 
-7.095761776 5.800170898 -1.999818802 0.9631738067 
-7.58264637 5.14621067 -1.999685168 0.9631763101 
-7.803805828 4.803700924 -1.999624252 0.9631773829 
-8.009552956 4.451640606 -1.999567628 0.9631784558 
-8.199425697 4.09086895 -1.999515295 0.9631793499 
-8.373098373 3.721957922 -1.999467611 0.963180244 
-8.670405388 2.96291995 -1.999385476 0.9631817341 
-8.793471336 2.57428956 -1.999351263 0.9631823301 
-8.899157524 2.180505276 -1.999322057 0.9631828666 
-8.987223625 1.782497525 -1.999297619 0.9631832838 
-9.057529449 1.380895972 -1.999277949 0.963183701 
-9.160605431 0.1630956978 -1.999248505 0.9631842375 
-9.100873947 -1.057665944 -1.999263406 0.9631839395 
-8.971013069 -1.862387657 -1.999298096 0.9631832838 
-8.770212173 -2.652429104 -1.999352217 0.9631823301 
-8.643683434 -3.040019512 -1.99938643 0.9631816745 
-8.16271019 -4.163669109 -1.999516606 0.9631793499 
-7.536510944 -5.213544846 -1.999686718 0.9631763101 
-7.297421932 -5.543791294 -1.999751687 0.9631750584 
-7.043786526 -5.863142014 -1.999820709 0.9631738663 
-6.495263577 -6.466459751 -1.99996984 0.9631712437 
-6.201386452 -6.749287128 -2.000050068 0.9631698132 
-5.577499866 -7.274384499 -2.00022006 0.9631665945 
-5.248632908 -7.515600204 -2.000309467 0.9631650448 
-4.560327053 -7.953103065 -2.000497341 0.9631615877 
-4.202207088 -8.148510933 -2.000594854 0.9631597996 
-3.835786104 -8.327760696 -2.00069499 0.963158071 
-3.461679697 -8.490597725 -2.000797033 0.9631562233 
-3.080751896 -8.636618614 -2.000900984 0.9631543159 
-2.693701029 -8.765583038 -2.001006603 0.963152349 
-2.301132679 -8.877197266 -2.001113892 0.9631505609 
-1.904096603 -8.971269608 -2.001222372 0.9631485343 
-1.099248052 -9.105996132 -2.001441956 0.9631446004 
0.122548826 -9.172829628 -2.00177598 0.9631385207 
0.9373632669 -9.126660347 -2.001998901 0.9631344676 
1.342568278 -9.076435089 -2.002109528 0.963132441 
1.745043874 -9.008214951 -2.002219677 0.9631304741 
2.144218683 -8.922172546 -2.002328873 0.9631283879 
2.539150238 -8.818429947 -2.002436876 0.963126421 
3.313129902 -8.558764458 -2.00264883 0.9631227255 
3.690732241 -8.403359413 -2.002752066 0.9631208777 
4.061113358 -8.231262207 -2.002853632 0.9631190896 
4.77711916 -7.838505745 -2.003049612 0.9631154537 
6.390703201 -6.592585087 -2.003492117 0.9631068707 
6.677617073 -6.302089691 -2.003571033 0.9631060362 
6.951640606 -5.998996258 -2.003646135 0.9631046653 
7.211845398 -5.684062481 -2.003717661 0.9631034136 
7.457827091 -5.357775688 -2.003785133 0.9631021619 
7.688998699 -5.020915508 -2.003848791 0.9631010294 
7.904990196 -4.674013615 -2.003908157 0.9630999565 
8.289569855 -3.953139544 -2.004014015 0.9630980492 
8.457382202 -3.580593109 -2.004060268 0.9630972147 
9.039751053 -1.626220703 -2.004221678 0.9630942941 
9.103207588 -1.222541451 -2.004239321 0.963093996 
9.148652077 -0.81635499 -2.004252195 0.9630937576 
9.175937653 -0.408542484 -2.004260063 0.9630936384 
9.175937653 0.4086181521 -2.004261017 0.9630936384 
9.103227615 1.222541451 -2.004241943 0.9630939364 
9.03976059 1.626220703 -2.004225016 0.9630942345 
8.958378792 2.026755333 -2.004203081 0.9630945921 
8.742519379 2.814855814 -2.004144907 0.9630957246 
8.289604187 3.953151703 -2.00402236 0.9630978703 
8.105321884 4.317912579 -2.00397253 0.963098824 
7.905029297 4.674035549 -2.003918171 0.9630997777 
7.689042568 5.020937443 -2.003859282 0.9631008506 
7.211972713 5.6840868 -2.003729582 0.9631029367 
6.951625824 5.999091625 -2.003658772 0.9631044865 
6.567499638 6.198149204 -1.970528364 0.9637033343 
6.022738934 6.21336174 -1.888225079 0.965192616 
5.040078163 6.821506023 -1.850737214 0.9658717513 
4.413437366 7.241794109 -1.850566387 0.9658749104 
4.086718559 7.43061018 -1.850477219 0.9658764601 
3.060927629 7.907226562 -1.850197434 0.9658815265 
2.705976486 8.035151482 -1.850100517 0.9658833146 
1.980917931 8.242973328 -1.84990263 0.9658868909 
0.8659374714 8.431574821 -1.849526167 0.9658936858 
0.1131005809 8.4740448 -1.84928 0.9658981562 
-1.015620112 8.412563324 -1.849029899 0.9659026861 
-1.388828039 8.358818054 -1.848978877 0.9659036398 
-2.126030207 8.201422691 -1.848779917 0.9659072161 
-3.198173761 7.844247818 -1.848486423 0.9659125805 
-3.543779135 7.693808556 -1.848391891 0.965914309 
-3.882294893 7.528190613 -1.848299026 0.965915978 
-4.535654068 7.152607441 -1.848120093 0.9659191966 
-5.729736328 6.235434532 -1.847792745 0.965924263 
-6.776320457 6.170900822 -1.99990654 0.9631723166 
-7.297448635 5.543810844 -1.999763489 0.9631748796 
-7.760803223 4.872975826 -1.999636054 0.9631772041 
-8.162743568 4.163676739 -1.999525428 0.9631792307 
-8.643712997 3.040021896 -1.999392867 0.9631816149 
-8.770241737 2.652429104 -1.99935782 0.9631822109 
-8.879424095 2.25960207 -1.99932754 0.9631827474 
-8.971030235 1.862390041 -1.99930203 0.9631832242 
-9.044904709 1.461420894 -1.999281406 0.9631836414 
-9.160600662 -0.163105458 -1.999248147 0.9631842375 
-9.057517052 -1.380898356 -1.999274969 0.9631837606 
-8.98720932 -1.782502413 -1.999293804 0.9631833434 
-8.793441772 -2.574286938 -1.999346018 0.9631824493 
-8.530148506 -3.345766544 -1.999417067 0.963181138 
-8.199389458 -4.090859413 -1.999506593 0.9631795287 
-8.009484291 -4.451699257 -1.99955821 0.963178575 
-7.803766727 -4.803689003 -1.99961412 0.9631775618 
-6.830893517 -6.110300064 -1.999878645 0.9631726742 
-6.261191368 -6.693735123 -2.000033617 0.9631701708 
-5.641889572 -7.224348068 -2.000202417 0.9631672502 
-4.978271484 -7.697934628 -2.000383139 0.9631631374 
-3.909677744 -8.293222427 -2.000674725 0.9631584287 
-3.157455921 -8.608777046 -2.000880003 0.9631546736 
-1.98382318 -8.953876495 -2.001200438 0.9631488919 
-0.3673046827 -9.165688515 -2.001641989 0.9631409049 
0.4489062428 -9.163070679 -2.001865149 0.9631369114 
0.8561279178 -9.134540558 -2.00197649 0.9631348848 
1.261748075 -9.087914467 -2.002087593 0.9631328583 
1.664790034 -9.023300171 -2.002197742 0.9631308317 
2.064785004 -8.940800667 -2.002307177 0.9631287456 
3.23674798 -8.587841988 -2.002628088 0.9631230831 
3.615771294 -8.435778618 -2.0027318 0.9631212354 
5.053232193 -7.663818359 -2.003125429 0.9631141424 
5.389404297 -7.43175745 -2.003217459 0.9631125331 
5.714911938 -7.185017109 -2.003306866 0.9631108046 
6.028564453 -6.923996449 -2.003392696 0.9631106257 
6.331630707 -6.649181843 -2.003475904 0.9631072879 
6.897880554 -6.060629845 -2.003631353 0.9631049633 
7.160927773 -5.747956276 -2.003703594 0.9631037116 
7.409760475 -5.423942566 -2.00377202 0.9631024599 
7.643964767 -5.08909893 -2.003836393 0.9631012678 
8.066503525 -4.389816761 -2.003952503 0.9630991817 
8.253993988 -4.026786804 -2.00400424 0.963098228 
8.93993187 -2.106367111 -2.004193783 0.9630948305 
9.024853706 -1.70658195 -2.004217386 0.9630945325 
9.171928406 -0.4902465641 -2.004258871 0.9630936384 
9.179218292 0.3268847466 -2.004261732 0.9630935788 
9.155566216 0.7349267602 -2.004255772 0.963093698 
9.053886414 1.545737267 -2.00422883 0.9630941749 
8.976103783 1.946901798 -2.004208088 0.9630944729 
8.880468369 2.344264984 -2.004182339 0.9630950093 
8.767285347 2.736899376 -2.004151821 0.9630955458 
8.324481964 3.879257679 -2.004031897 0.9630977511 
7.733447075 4.952363014 -2.003871441 0.9631006122 
7.262304306 5.619740963 -2.00374341 0.9631026983 
5.397284985 6.543112755 -1.850834608 0.9658699632 
4.477739334 7.202304363 -1.850583911 0.9658745527 
4.152763367 7.393996239 -1.850495219 0.9658761621 
3.819526196 7.571052074 -1.850404501 0.9658777714 
3.47874999 7.733085632 -1.850311399 0.9658794999 
3.131186485 7.879760742 -1.850216627 0.9658811688 
2.777387619 8.010832787 -1.850120068 0.965882957 
1.686205983 8.30788517 -1.849822044 0.965888381 
1.314863205 8.374145508 -1.849703312 0.9658904672 
0.9409960508 8.423651695 -1.8495543 0.965893209 
0.5652831793 8.456564903 -1.849420309 0.9658956528 
0.1885693371 8.472797394 -1.849301815 0.9658977985 
-0.1885498017 8.472324371 -1.849199176 0.9658996463 
-2.05292964 8.220116615 -1.848799825 0.9659068584 
-2.416459799 8.120204926 -1.848700404 0.9659087062 
-2.775166035 8.004245758 -1.848602295 0.9659104347 
-3.128281116 7.872470379 -1.848505497 0.9659122229 
-3.47523427 7.725117207 -1.848410606 0.9659138918 
-5.38870573 6.532687664 -1.847886324 0.9659233689 
-6.127577782 6.209911823 -1.903686166 0.9649127126 
-6.681425571 6.194255352 -1.988109231 0.963385582 
-6.991408348 5.925653934 -1.999847531 0.963173449 
-7.71714592 4.941926003 -1.999648094 0.9631769657 
-7.929132938 4.593574047 -1.999589801 0.9631780386 
-8.125419617 4.236162186 -1.999535799 0.9631789923 
-8.46936512 3.497048378 -1.999441028 0.9631807208 
-8.616352081 3.116813898 -1.999400496 0.9631814957 
-8.858971596 2.338588715 -1.999333143 0.9631826878 
-9.031545639 1.541921377 -1.999285221 0.9631835818 
-9.156264305 0.3260693252 -1.999249816 0.9631841779 
-9.161696434 -0.08151610941 -1.999247909 0.9631841779 
-9.002636909 -1.702468276 -1.999289632 0.9631836414 
-8.918161392 -2.101237774 -1.999312282 0.9631830454 
-8.696367264 -2.88564682 -1.999372005 0.9631819725 
-8.559545517 -3.269726515 -1.99940908 0.9631812572 
-8.04876709 -4.380168438 -1.999547482 0.9631787539 
-7.84615469 -4.734042645 -1.999602437 0.9631777406 
-7.628041744 -5.078491211 -1.999661803 0.9631767273 
-7.394773006 -5.412985802 -1.999725103 0.9631756544 
-7.14695549 -5.736742973 -1.999792576 0.9631743431 
-6.884880066 -6.049228191 -1.999863863 0.963173151 
-6.609316349 -6.349729061 -1.999938965 0.9631715417 
-5.705937386 -7.17380619 -2.000184774 0.963167429 
-5.381503582 -7.420888424 -2.000273466 0.9631655216 
-4.701005936 -7.870549202 -2.000458956 0.963162303 
-3.983286142 -8.258029938 -2.000654697 0.9631587863 
-2.849189281 -8.716059685 -2.000964165 0.9631531835 
-2.458652258 -8.834652901 -2.001070738 0.9631513357 
-2.063461781 -8.935759544 -2.001178741 0.9631493092 
-1.663974524 -9.01920414 -2.001287699 0.9631472826 
-1.261220694 -9.084787369 -2.001397848 0.9631453156 
-0.8558691144 -9.132407188 -2.001508474 0.9631433487 
-0.4488964677 -9.161950111 -2.001619816 0.9631413221 
0.367275387 -9.166604042 -2.001842976 0.963137269 
0.7748144269 -9.141698837 -2.001954317 0.9631352425 
1.584443331 -9.037653923 -2.002175808 0.963131249 
1.985156178 -8.958708763 -2.00228548 0.9631291628 
2.773666859 -8.747777939 -2.002501249 0.9631254077 
3.1601758 -8.616203308 -2.002606869 0.9631235003 
5.323017597 -7.479389668 -2.003199339 0.9631127119 
5.650712967 -7.235509872 -2.003289223 0.9631111622 
5.967216492 -6.977309227 -2.003376007 0.9631095529 
6.271972656 -6.705212116 -2.003459692 0.9631080627 
6.564267635 -6.41986084 -2.003539801 0.9631066322 
6.843783855 -6.121696472 -2.003616333 0.9631048441 
8.217803001 -4.100039005 -2.003994226 0.9630984068 
8.39226532 -3.730480909 -2.004042387 0.9630975127 
8.550078392 -3.353583813 -2.004085779 0.9630967379 
8.920820236 -2.185815334 -2.004188538 0.9630948901 
9.009316444 -1.78687501 -2.004213095 0.9630944729 
9.079990387 -1.384318829 -2.004232645 0.9630941153 
9.167211533 -0.57182616 -2.004257441 0.9630936384 
9.161738396 0.6534374952 -2.004257202 0.963093698 
8.993065834 1.866965294 -2.004212379 0.9630944729 
8.901024818 2.265173197 -2.004187822 0.9630948305 
8.519892693 3.429506779 -2.004084826 0.9630967975 
7.987030983 4.53268528 -2.003940344 0.9630994201 
7.777294636 4.8833251 -2.003883362 0.9631004333 
7.552118778 5.224318504 -2.003822327 0.9631015062 
5.739072323 6.246061802 -1.850927711 0.9658682942 
5.455331802 6.494884968 -1.850850463 0.9658697248 
5.160776138 6.730866432 -1.850770235 0.9658710957 
4.218437195 7.356825829 -1.85051322 0.9658758044 
3.2012012 7.851674557 -1.850235701 0.9658808112 
2.12737298 8.20657444 -1.849942565 0.9658861756 
1.389404297 8.362240791 -1.849735022 0.9658899307 
-0.1131689399 8.473759651 -1.849218607 0.9658992887 
-1.239824176 8.382304192 -1.848997355 0.9659032822 
-1.979731441 8.238143921 -1.848819852 0.9659065604 
-2.703808546 8.028725624 -1.848621726 0.9659101367 
-3.406327963 7.755834579 -1.848429561 0.9659135938 
-4.081777096 7.421638012 -1.848244429 0.9659169912 
-4.407700062 7.232355595 -1.848155141 0.965918541 
-4.724794865 7.028813362 -1.848068357 0.9659201503 
-6.022250652 6.212812424 -1.88807416 0.9651955366 
-6.566889286 6.19755125 -1.970337152 0.9637066722 
-7.197704792 5.672917366 -1.999790907 0.9631744027 
-7.442685604 5.346909046 -1.999723673 0.9631756544 
-7.672914982 5.010419846 -1.999660254 0.9631767869 
-7.887983322 4.663964748 -1.999601126 0.9631778598 
-8.270864487 3.94422102 -1.999495625 0.9631797671 
-9.017477989 1.622219205 -1.999289155 0.9631835222 
-9.080629349 1.219511747 -1.999271512 0.9631838202 
-9.125834465 0.8143212795 -1.999258637 0.9631840587 
-8.741847992 -0.7800634503 -1.999361992 0.9646347761 
-8.698547363 -1.168171406 -1.999373317 0.9646345377 
-8.638039589 -1.553967237 -1.99938941 0.9646342397 
-8.560070992 -1.93670404 -1.999410391 0.9646353126 
-8.226884842 -3.059001446 -1.999500275 0.9646323323 
-8.082824707 -3.421994448 -1.999539256 0.9646316767 
-6.89473629 -5.4341259 -1.999861836 0.9646260142 
-6.64637661 -5.735641956 -1.999929428 0.9646249413 
-5.217929363 -7.062243462 -2.000318289 0.9646181464 
-3.170722485 -8.190961838 -2.000876904 0.9646083713 
-2.430410147 -8.441203117 -2.001078844 0.9646049142 
-2.052626848 -8.54140377 -2.001182079 0.964603126 
-1.670712829 -8.62471199 -2.001286507 0.9646012783 
-0.8975781202 -8.739987373 -2.001497507 0.9645976424 
-0.5076562166 -8.771728516 -2.001604319 0.9645958543 
-0.1170507818 -8.786115646 -2.001710892 0.9645939469 
0.6646777391 -8.762701988 -2.001924753 0.9645900726 
2.58203125 -8.402358055 -2.002449036 0.9645811319 
2.953408241 -8.27959919 -2.00255084 0.9645793438 
3.318954945 -8.140437126 -2.002650976 0.9645776153 
3.677978516 -7.985126972 -2.002749205 0.9645758867 
4.029726505 -7.813998699 -2.002845526 0.9645742178 
5.034609318 -7.209106445 -2.003120899 0.9645693898 
5.351557732 -6.97824192 -2.003207684 0.9645658135 
5.656289101 -6.733642578 -2.003291368 0.9645656347 
6.759804726 -5.626738071 -2.003593922 0.9645611644 
7.003642559 -5.32063961 -2.003660917 0.9645600319 
7.233623028 -5.003984451 -2.003724337 0.9645588994 
7.835942268 -3.996999502 -2.003890038 0.9645560384 
8.298740387 -2.918669462 -2.004017591 0.964553833 
8.420493126 -2.546667337 -2.004051208 0.9645532966 
8.525575638 -2.169599533 -2.004080534 0.9645527601 
8.684853554 -1.403293371 -2.004124641 0.9645519853 
8.738754272 -1.01557374 -2.0041399 0.9645516872 
8.77532196 -0.6258422732 -2.004150391 0.9645515084 
8.794511795 -0.2348608375 -2.004155874 0.9645513892 
7.871269226 3.927126408 -2.003907919 0.9645557404 
7.277948856 4.939457893 -2.003746986 0.9645585418 
7.050829887 5.258154392 -2.003685236 0.9645595551 
6.287558556 6.149187088 -2.003477573 0.9645632505 
5.318915844 6.219238281 -1.86425364 0.9669846296 
5.000439167 6.402885437 -1.850726008 0.9672202468 
4.710478306 6.61870575 -1.850646973 0.9672216177 
4.411201 6.821386337 -1.850565314 0.9672230482 
3.787060499 7.185795784 -1.850395203 0.967226088 
3.463540077 7.346796513 -1.850306869 0.9672275186 
2.454511642 7.741264343 -1.850031495 0.9672323465 
1.756552696 7.927968502 -1.849840999 0.9672356844 
1.04489255 8.051870346 -1.849646568 0.9672390223 
0.3250439465 8.112006187 -1.849449754 0.9672424793 
-0.03612304479 8.11800766 -1.849351168 0.9672442079 
-0.3971826136 8.10792923 -1.849252462 0.9672459364 
-0.7574218512 8.081801414 -1.849153876 0.9672476649 
-1.116132736 8.039682388 -1.849055767 0.9672493339 
-1.472563386 7.981647968 -1.848958254 0.9672510624 
-2.175927639 7.81837368 -1.84876585 0.9672544003 
-3.196689367 7.458068848 -1.848486423 0.9672592878 
-3.525131702 7.308125019 -1.84839654 0.9672608376 
-3.846562386 7.143740177 -1.848308563 0.9672623277 
-4.762490273 6.567311764 -1.848057508 0.967266798 
-5.411679745 6.214836121 -1.877298236 0.9667574763 
-5.904877663 6.201227665 -1.950677037 0.965480864 
-6.331108093 6.082504749 -2.000028133 0.9646231532 
-7.083625317 5.18517828 -1.999821544 0.9646267891 
-7.515991211 4.534804821 -1.999702692 0.9646288753 
-7.710083008 4.195859432 -1.999649286 0.9646297693 
-8.199389458 3.132111788 -1.999514461 0.9646320939 
-8.734577179 0.8578246832 -1.999365687 0.9646346569 
-8.770991325 -0.3123730421 -1.999354482 0.9646348953 
-8.748436928 -0.7022387385 -1.999360204 0.9646347761 
-8.708583832 -1.090710402 -1.999370694 0.9646345973 
-8.651501656 -1.477031231 -1.999385953 0.9646343589 
-8.577326775 -1.86043942 -1.999405742 0.9646340013 
-8.486176491 -2.240178108 -1.99943018 0.964633584 
-8.253752708 -2.985651731 -1.999493003 0.9646324515 
-7.174660683 -5.058200359 -1.999785781 0.9646273851 
-6.942775726 -5.372514725 -1.999848723 0.9646262527 
-6.697118759 -5.676228046 -1.9999156 0.9646251798 
-6.438232422 -5.968739986 -1.999986053 0.9646238685 
-6.166582108 -6.249455452 -2.000060081 0.9646225572 
-5.587192059 -6.773351669 -2.000217915 0.9646197557 
-5.280448914 -7.015446663 -2.000301361 0.9646186829 
-4.963486195 -7.243732929 -2.000387907 0.9646168351 
-4.636396408 -7.457668304 -2.000476837 0.964615643 
-4.300077915 -7.656882286 -2.000568867 0.9646143913 
-3.955693245 -7.840988636 -2.000662565 0.964612186 
-2.87729001 -8.298950195 -2.000957012 0.96460706 
-2.50541997 -8.419157982 -2.00105834 0.9646052718 
-2.128540039 -8.522717476 -2.001161337 0.9646034241 
-1.362753868 -8.679067612 -2.00137043 0.9645998478 
0.5861132741 -8.768173218 -2.001903296 0.9645906091 
1.748232365 -8.613517761 -2.002221107 0.9645850658 
2.129785061 -8.527663231 -2.002325296 0.9645832777 
2.507138729 -8.424919128 -2.00242877 0.96458143 
3.246328115 -8.16957283 -2.002630949 0.9645779729 
3.959990263 -7.849472523 -2.002826452 0.9645745158 
4.642412186 -7.467141151 -2.003013372 0.9645712972 
6.449579716 -5.979252815 -2.003508806 0.9645626545 
6.709414005 -5.686625957 -2.003580332 0.9645614624 
6.955976486 -5.382714748 -2.003648043 0.9645602703 
7.407314301 -4.743474007 -2.00377202 0.9645580649 
7.973369122 -3.715651751 -2.003927946 0.9645554423 
8.130947113 -3.35736084 -2.003971338 0.9645546079 
8.505898476 -2.245380878 -2.00407505 0.9645528793 
8.729340553 -1.0933007 -2.004137278 0.9645518064 
8.792059898 -0.3131225407 -2.004155159 0.9645514488 
8.797304153 0.07830078155 -2.004157066 0.9645513892 
8.785087585 0.4695556462 -2.004154205 0.9645514488 
8.755468369 0.8598803282 -2.004146576 0.9645516276 
8.708500862 1.248500943 -2.00413394 0.9645518064 
8.349457741 2.770522356 -2.004037619 0.9645534754 
8.069868088 3.501523256 -2.003961802 0.9645547867 
7.726362228 4.204711914 -2.003868818 0.964556396 
7.321660042 4.874516487 -2.003758907 0.964558363 
6.859008789 5.505629539 -2.003633022 0.9645605087 
6.342089653 6.093041897 -2.003492355 0.9645629525 
5.412085056 6.215326786 -1.877447724 0.9667549133 
3.850917816 7.15186739 -1.850412607 0.96722579 
2.864350557 7.599687099 -1.850143433 0.9672304392 
2.177343607 7.823400497 -1.849955916 0.9672336578 
1.827080011 7.91210413 -1.849860191 0.9672353268 
-1.044536114 8.049379349 -1.849075317 0.9672490358 
-1.401513696 7.99452877 -1.848977804 0.9672507048 
-1.755639553 7.923857212 -1.848880887 0.9672524333 
-2.106269598 7.837507248 -1.848784924 0.9672541022 
-2.794247866 7.618505478 -1.848596573 0.9672573805 
-3.459975481 7.339279652 -1.848414302 0.9672605395 
-3.782861233 7.177758694 -1.848325968 0.9672620893 
-4.098222733 7.002045631 -1.848239541 0.9672635794 
-4.703935623 6.60949707 -1.848073483 0.9672664404 
-4.993085861 6.393430233 -1.847994328 0.9672678113 
-5.803212643 6.204084396 -1.935253263 0.9657490253 
-6.276772499 6.138654709 -2.000043154 0.9646229148 
-7.03749752 5.248051643 -1.999834299 0.9646257758 
-7.263503075 4.929663181 -1.999772191 0.9646276236 
-7.475383282 4.601540565 -1.999713898 0.9646286368 
-7.67247057 4.264326096 -1.999659538 0.9646295905 
-7.854374886 3.918708324 -1.99960947 0.964630425 
-8.609060287 1.707470655 -1.999400854 0.9646340609 
-8.676410675 1.322805166 -1.999382019 0.9646344185 
-8.77515316 0.1562109292 -1.999353766 0.9646348953 
-8.664297104 -1.399973154 -1.999382377 0.9646344185 
-8.593527794 -1.784025788 -1.999401331 0.9646340609 
-8.142385483 -3.277570724 -1.999523163 0.9646319151 
-7.819186687 -3.988461733 -1.999610662 0.964630425 
-7.634218693 -4.332456112 -1.99966085 0.9646295309 
-7.219343185 -4.994116306 -1.999773622 0.9646276236 
-6.990265846 -5.310481071 -1.999835968 0.9646264911 
-5.940414906 -6.465166092 -2.000121593 0.9646215439 
-4.368319988 -7.618258953 -2.00055027 0.9646140933 
-3.674277306 -7.977114201 -2.000739336 0.964610815 
-3.315932512 -8.133069038 -2.000837088 0.9646090865 
-2.580219746 -8.396440506 -2.001038074 0.9646056294 
-1.823906183 -8.59342289 -2.001244545 0.9646020532 
-1.052646518 -8.722438812 -2.001455307 0.9645985365 
-0.273085922 -8.782444 -2.001668453 0.9645947814 
0.1179101542 -8.786394119 -2.001775265 0.9645928144 
0.5086035132 -8.772946358 -2.001882076 0.9645908475 
0.8981249928 -8.742128372 -2.001988411 0.9645889997 
1.671494126 -8.628649712 -2.002199888 0.9645854235 
2.80552721 -8.330690384 -2.002510309 0.9645799994 
3.88993144 -7.884325981 -2.002807379 0.9645748734 
4.237011433 -7.703855038 -2.002902269 0.9645732045 
6.396044731 -6.03636694 -2.003494263 0.9645629525 
7.143330097 -5.131869793 -2.003699541 0.9645593166 
7.763476372 -4.135798454 -2.00387001 0.964556396 
7.939960957 -3.786440372 -2.003918648 0.9645555615 
8.100722313 -3.429567814 -2.003962994 0.9645547867 
8.373784065 -2.696118116 -2.004038334 0.9645534754 
8.580512047 -1.941245079 -2.004095793 0.9645525217 
8.658466339 -1.557646394 -2.004117489 0.9645521641 
8.762768745 -0.7819164991 -2.004146576 0.9645516276 
8.788915634 -0.3913452029 -2.004154205 0.9645515084 
8.580522537 1.941240191 -2.004099846 0.9645524621 
8.485580444 2.320988655 -2.004074335 0.9645528793 
8.373857498 2.696125507 -2.004044056 0.964553237 
8.245439529 3.065888643 -2.004009485 0.9645540118 
8.10074234 3.429572582 -2.003970385 0.9645546675 
7.939990044 3.786437988 -2.003926754 0.9645554423 
7.763505459 4.135810375 -2.003878832 0.9645562768 
7.364794731 4.809194088 -2.00377059 0.9645581245 
7.143363953 5.131892204 -2.003710508 0.9645591974 
6.907783031 5.444406509 -2.003646374 0.9645602703 
6.008700848 6.198837757 -1.966670036 0.9652028084 
5.507939339 6.212751389 -1.891401291 0.9665117264 
5.113696098 6.312973499 -1.850756764 0.9672197104 
4.53196764 6.741906643 -1.850598216 0.9672225118 
4.227392673 6.936525822 -1.850515246 0.9672239423 
3.593808413 7.284123421 -1.850342393 0.9672269821 
2.591953039 7.696511269 -1.850068927 0.9672316909 
2.246923685 7.803798676 -1.849974751 0.9672333002 
1.8974365 7.895615101 -1.849879384 0.9672349691 
1.188046813 8.032167435 -1.849685669 0.9672383666 
0.8295165896 8.076635361 -1.849587679 0.9672400951 
-0.9728710651 8.058442116 -1.849094987 0.9672486782 
-1.330297828 8.006767273 -1.848997116 0.9672504067 
-2.383798838 7.757260799 -1.848708868 0.9672554135 
-3.063515663 7.513930321 -1.848522902 0.9672586322 
-4.344707012 6.851499081 -1.848171949 0.9672647119 
-5.231015682 6.227829456 -1.852800608 0.9671841264 
-5.703090668 6.206872463 -1.920214176 0.9660106897 
-6.219789982 6.192192078 -1.999371767 0.9646345973 
-6.491074085 5.911198616 -1.999984264 0.9646239281 
-6.747382641 5.616386414 -1.999913931 0.9646251798 
-7.434182167 4.667907715 -1.999725103 0.964628458 
-7.634255409 4.332468033 -1.999670029 0.9646294117 
-7.988722801 3.636618614 -1.999572515 0.9646310806 
-8.142409325 3.277582884 -1.999530196 0.9646317959 
-8.279994965 2.912060499 -1.999492168 0.9646325111 
-8.505773544 2.164550781 -1.999429584 0.964633584 
-8.593540192 1.784018517 -1.999405146 0.9646340013 
-8.773422241 0.2342944294 -1.999354362 0.9646348953 
-8.759543419 -0.5464208722 -1.999357224 0.9646347761 
-8.42343235 -2.465939999 -1.999447107 0.9646332264 
-8.020700455 -3.565358877 -1.999556065 0.9646313787 
-7.854335785 -3.918708324 -1.999601245 0.9646306038 
-7.672433853 -4.264326096 -1.999650478 0.9646297097 
-7.475353718 -4.601523399 -1.999704123 0.964628756 
-6.797014236 -5.556059361 -1.99988842 0.9646255374 
-6.276703835 -6.138617992 -2.000030041 0.9646232128 
-5.404560566 -6.920273304 -2.000267506 0.9646187425 
-4.768232346 -7.37382555 -2.000441074 0.9646164775 
-4.09457016 -7.769189358 -2.000624895 0.964612782 
-3.388164043 -8.10315609 -2.000817537 0.9646094441 
-3.024501801 -8.246261597 -2.000916958 0.9646077156 
-2.654804707 -8.373059273 -2.001017809 0.9646059871 
-2.279824257 -8.483307838 -2.00112009 0.9646041989 
-1.516982436 -8.653264046 -2.001328468 0.964600563 
-1.130605459 -8.712634087 -2.001434088 0.9645987153 
-0.741987288 -8.75477314 -2.001540184 0.9645968676 
0.03971679509 -8.78700161 -2.001753807 0.9645931721 
0.4300341606 -8.777035713 -2.00186038 0.9645913243 
1.208173752 -8.705012321 -2.002073288 0.9645877481 
1.594619155 -8.643090248 -2.002178907 0.9645857811 
1.977622032 -8.564040184 -2.002283812 0.964583993 
2.356723547 -8.468036652 -2.002387524 0.9645821452 
3.463388681 -8.080234528 -2.002690315 0.9645769 
3.819570303 -7.918561935 -2.002787828 0.9645752311 
4.508696079 -7.548454285 -2.002976656 0.9645718932 
5.162207127 -7.118486404 -2.003155708 0.9645687938 
5.473857403 -6.882116318 -2.003241301 0.9645675421 
6.064492226 -6.368840218 -2.003403187 0.9645645022 
6.607050419 -5.805063248 -2.003552198 0.9645618796 
7.097323895 -5.195212364 -2.003686666 0.9645595551 
7.726327896 -4.204692364 -2.003859758 0.9645565748 
7.905917645 -3.856923819 -2.003909349 0.9645557404 
8.562880516 -2.017529249 -2.004090786 0.9645525813 
8.708480835 -1.248505831 -2.004131317 0.9645518661 
8.755473137 -0.8598730564 -2.004144669 0.9645516276 
8.672020912 1.48052001 -2.004124403 0.9645519853 
8.597499847 1.864797354 -2.004104376 0.9645523429 
8.505927086 2.245390654 -2.00407958 0.9645527601 
7.973412991 3.715654135 -2.003935814 0.9645552635 
7.800048828 4.066567421 -2.003888845 0.964556098 
7.188788891 5.068151951 -2.003722906 0.964558959 
6.956005573 5.382753849 -2.003659487 0.9645600915 
6.709394455 5.686665058 -2.003592253 0.9645614028 
5.169277191 6.267267704 -1.850772023 0.9672204852 
4.591855526 6.701369286 -1.850614548 0.9672221541 
4.288993835 6.898695946 -1.850532055 0.9672236443 
3.977656126 7.082331181 -1.850447178 0.967225194 
3.658505678 7.251921177 -1.850360036 0.9672266841 
2.999218702 7.547660828 -1.850180149 0.9672297239 
1.615146399 7.957812309 -1.849802256 0.96723634 
1.259482384 8.021367073 -1.8497051 0.967238009 
0.5415039062 8.100703239 -1.849508882 0.967241466 
0.1806152314 8.116337776 -1.849410415 0.9672431946 
-1.25901854 8.018371582 -1.849016666 0.9672500491 
-1.966498971 7.873913288 -1.84882319 0.9672534466 
-2.314707041 7.778237343 -1.848727822 0.9672550559 
-2.996542931 7.540966511 -1.84854126 0.9672583342 
-3.328871965 7.399846077 -1.848450303 0.9672598839 
-3.654560566 7.244091511 -1.848361015 0.9672614932 
-3.973007679 7.074010849 -1.848273873 0.9672629833 
-4.585615158 6.692277908 -1.848106027 0.9672659039 
-6.697148323 5.676264286 -1.99992764 0.964625001 
-7.392382622 4.733908653 -1.999736547 0.9646282792 
-7.783456802 4.057922363 -1.999629021 0.964630127 
-7.956083775 3.707582951 -1.999581456 0.9646309018 
-8.112956047 3.349921703 -1.999538183 0.9646316767 
-8.25378418 2.985656738 -1.999499321 0.9646323323 
-8.378278732 2.615507841 -1.999464989 0.9646329284 
-8.48625946 2.240163565 -1.999434948 0.964633286 
-8.577343941 1.860432029 -1.999409795 0.9646339417 
-8.65152359 1.477018952 -1.999389052 0.9646342993 
-8.7085886 1.090700626 -1.999372959 0.9646345973 
-8.74844265 0.7022240758 -1.999361634 0.9646347761 
-8.776193619 -0.07810546458 -1.99935329 0.9646348953 
-8.734570503 -0.8578442335 -1.99936378 0.9646347165 
-8.624108315 -1.630788565 -1.999393225 0.9646333456 
-8.445019722 -2.390878916 -1.999441385 0.9646333456 
-8.330431938 -2.7642138 -1.99947226 0.9646328092 
-8.199364662 -3.132099628 -1.999507666 0.9646322131 
-8.052082062 -3.493810892 -1.999547482 0.9646314979 
-7.307006836 -4.864785194 -1.99974966 0.9646279812 
-7.083583832 -5.185163498 -1.999810457 0.9646269083 
-6.331108093 -6.082468033 -2.000015259 0.9646232724 
-6.054457664 -6.358313084 -2.000090599 0.9646220803 
-5.76583004 -6.621608734 -2.000169277 0.964620769 
-5.154985428 -7.108471394 -2.000335693 0.9646176696 
-4.833701134 -7.331044674 -2.000423193 0.9646165967 
-4.503056526 -7.539162636 -2.000513315 0.9646148682 
-3.815595627 -7.910309792 -2.000700951 0.9646114707 
-3.460107327 -8.072597504 -2.000797749 0.9646098018 
-2.355214834 -8.462590218 -2.001099586 0.9646045566 
-1.207934499 -8.702133179 -2.001412868 0.9645991921 
-0.4301611185 -8.776005745 -2.001625299 0.9645953178 
-0.03883300722 -8.786909103 -2.001732349 0.9645935297 
0.7420019507 -8.756532669 -2.001945734 0.9645898938 
1.130981445 -8.715327263 -2.002052069 0.9645879865 
1.517612219 -8.656845093 -2.002157927 0.9645861387 
2.656733274 -8.379133224 -2.00246954 0.9645807743 
3.026992083 -8.253078461 -2.002570868 0.9645789862 
3.391328096 -8.110653877 -2.002670765 0.964577198 
4.0991745 -7.777897835 -2.002864599 0.9645738006 
4.441274166 -7.588205338 -2.002958059 0.9645722508 
5.09859848 -7.164079666 -2.003138304 0.9645691514 
5.413017273 -6.930446625 -2.003224611 0.9645664692 
5.715649128 -6.683132172 -2.003307581 0.9645661712 
6.55511713 -5.863586426 -2.003537893 0.9645620584 
6.809658051 -5.566384315 -2.00360775 0.9645609856 
7.050766468 -5.258127213 -2.00367403 0.9645597935 
7.277909756 -4.939438343 -2.003736258 0.9645587206 
7.490649223 -4.610942364 -2.003794909 0.9645577073 
7.688564301 -4.273283482 -2.003849506 0.964556694 
7.871225357 -3.927128792 -2.003899574 0.9645559192 
8.038330078 -3.57316637 -2.003945827 0.9645550847 
8.189487457 -3.212123871 -2.003987312 0.9645543694 
8.544569969 -2.093642473 -2.004085541 0.9645526409 
8.697011948 -1.325952172 -2.004128218 0.9645519257 
8.747436523 -0.9377782941 -2.004142523 0.9645517468 
8.780556679 -0.5477050543 -2.004151821 0.9645515084 
8.79624939 -0.1565746963 -2.00415659 0.9645513892 
8.794501305 0.2348657101 -2.004156351 0.9645514488 
8.775336266 0.6258422732 -2.004151821 0.9645515084 
8.738754272 1.015568852 -2.004142046 0.9645516872 
8.420546532 2.546660185 -2.004056692 0.9645530581 
8.160556793 3.284877777 -2.003986359 0.9645544291 
8.006196022 3.644565344 -2.003944635 0.9645551443 
7.650214672 4.341518402 -2.003848076 0.9645568132 
6.502636433 5.921691895 -2.003535986 0.9645621777 
6.220376015 6.192753792 -1.999553442 0.9646313787 
4.651337624 6.660297871 -1.85063076 0.9672219157 
4.350287914 6.860307693 -1.850548863 0.9672232866 
4.04058075 7.046718597 -1.850464225 0.9672248363 
3.397968769 7.377260685 -1.850288987 0.9672278762 
3.066298723 7.52074194 -1.850198507 0.9672294259 
2.728583813 7.649313927 -1.850106359 0.9672310352 
2.037685394 7.860754013 -1.849917769 0.9672343731 
0.9731591344 8.06076622 -1.849626899 0.9672393799 
0.613583982 8.095643997 -1.84952867 0.9672411084 
-0.1083642542 8.117275238 -1.84933126 0.9672445655 
-0.4693212807 8.103981972 -1.849232554 0.967246294 
-0.8293066025 8.074658394 -1.849134207 0.967247963 
-1.187626958 8.029348373 -1.849036217 0.9672496915 
-2.245405197 7.79861784 -1.848746896 0.9672547579 
-2.58994627 7.690619946 -1.848652601 0.9672563672 
-2.929345608 7.567414284 -1.848559737 0.9672580361 
-3.262919903 7.429245472 -1.848468304 0.9672595859 
-3.589995146 7.276389122 -1.848378658 0.9672611952 
-3.909941435 7.109155178 -1.848291159 0.9672626853 
-4.2221241 6.927873611 -1.848205566 0.9672641158 
-6.894762993 5.434152603 -1.999873519 0.964625895 
-7.129443169 5.121911526 -1.999808908 0.9646269679 
-7.350011826 4.799538612 -1.999748349 0.9646280408 
-7.922802448 3.778256655 -1.999590755 0.9646307826 
-8.082848549 3.421999454 -1.999546409 0.9646315575 
-8.560468674 1.936689377 -1.999414325 0.9646338224 
-8.638046265 1.553959966 -1.999392867 0.9646342397 
-8.767866135 0.3904125988 -1.999356031 0.9646348357 
-8.776547432 -4.882812391e-06 -1.99935329 0.9646348953 
-8.767866135 -0.3904150426 -1.999355316 0.9646348357 
-8.698547363 -1.168161631 -1.999373317 0.9646345377 
-8.63803196 -1.553984284 -1.99938941 0.9646342993 
-8.560072899 -1.936721206 -1.999410391 0.964635253 
-7.349965572 -4.799533367 -1.999738097 0.96462816 
-7.129404068 -5.12189436 -1.999798059 0.9646271467 
-6.89471674 -5.4341259 -1.999861836 0.9646260738 
-6.64637661 -5.735637188 -1.999929428 0.9646249413 
-6.110742092 -6.304132938 -2.000075102 0.9646223783 
-5.52670908 -6.822841644 -2.000234365 0.9646195769 
-5.218017578 -7.062260628 -2.000318289 0.964617908 
-4.898935318 -7.287692547 -2.000405312 0.9646163583 
-4.569990158 -7.498720646 -2.000495195 0.9646151066 
-4.232192516 -7.694953442 -2.000587225 0.9646132588 
-3.531772375 -8.041408539 -2.000778198 0.9646100998 
-3.170737267 -8.190957069 -2.000876904 0.9646083713 
-2.803369045 -8.324316025 -2.000977039 0.9646066427 
-2.052607298 -8.54140377 -2.001182318 0.964603126 
-1.670712829 -8.624713898 -2.001286507 0.9646012783 
-0.8975781202 -8.739987373 -2.001497507 0.9645976424 
-0.5076562166 -8.771728516 -2.001604319 0.9645958543 
-0.1170410141 -8.786117554 -2.001710892 0.9645939469 
0.2739745975 -8.783107758 -2.001817942 0.9645920396 
1.053290963 -8.724941254 -2.002030849 0.9645884037 
1.824858308 -8.597702026 -2.00224185 0.9645847082 
2.58203125 -8.402358055 -2.002449036 0.9645811319 
2.953408241 -8.279602051 -2.00255084 0.9645793438 
3.318945169 -8.140437126 -2.002650976 0.9645776153 
