# .PCD v0.7 - Point Cloud Data file format
VERSION 0.7
FIELDS x y z intensities
SIZE 4 4 4 4
TYPE F F F F
COUNT 1 1 1 1
WIDTH 943
HEIGHT 1
VIEWPOINT 0 0 0 1 0 0 0
POINTS 943
DATA ascii
-25.12641144 -15.46679688 3.386541605 0.8879891634 
-22.79059029 -15.46774864 3.161416054 0.8950294256 
-20.74221611 -15.46857834 2.969872952 0.9010634422 
-17.29432106 -15.46996593 2.663270712 0.9108069539 
-15.81863689 -15.47057056 2.53958869 0.9147670865 
-14.59360313 -15.60173321 2.452020407 0.917581439 
-14.59419441 -17.0645752 2.577236176 0.9135597944 
-14.5948534 -18.68821716 2.721606493 0.9089449644 
-14.59559536 -20.50836945 2.889174223 0.9036179185 
-14.59740162 -24.94050217 3.316878557 0.8901616335 
-8.112719536 -15.39341259 1.99717474 0.932339251 
-6.436689377 -15.39408684 1.91513288 0.9350263476 
-5.646230221 -15.39441395 1.882029891 0.9361127019 
-4.881142616 -15.39472103 1.853658915 0.9370447993 
-3.411054611 -15.39531231 1.809890866 0.9384846687 
-2.698964834 -15.39560032 1.794017792 0.9390072823 
-0.6169238091 -15.39644527 1.768584371 0.9398454428 
0.7542675734 -15.39700603 1.769349217 0.9398201704 
2.137597561 -15.39756298 1.784242988 0.9393292665 
2.840830088 -15.39784622 1.797153115 0.9389039874 
4.285542011 -15.39843273 1.834566116 0.9376726151 
5.803959846 -15.39904308 1.888837337 0.9358891845 
6.600551605 -15.39937496 1.923021913 0.9347675443 
8.292181969 -15.40005302 2.007529974 0.9320005774 
9.627978325 -16.1191597 2.155021429 0.9271909595 
10.53761673 -15.98146439 2.197168112 0.9258212447 
66.35998535 11.32926273 7.726835251 0.7625795603 
60.63562393 25.03710365 7.529565334 0.7678751349 
69.71263885 32.48652649 8.827589989 0.7336950302 
15.88811493 14.72950172 2.48670125 0.9164656997 
5.039648533 12.68249226 1.566381335 0.9465354681 
4.666284084 13.45881271 1.634979963 0.944260478 
7.792045593 49.62587357 5.765723705 0.8168867826 
5.407573223 48.40847397 5.59075737 0.8219156861 
3.222924709 48.2134285 5.546167374 0.8232024312 
1.072954059 48.21538925 5.535409927 0.8235130906 
-5.386132717 48.21673203 5.568624973 0.8225544095 
-10.07375431 49.63306046 5.812912941 0.815535605 
-12.38539505 49.59130859 5.866766453 0.8139954805 
-18.93252945 47.64458847 5.884462357 0.8134914041 
-18.87408829 37.41220474 4.809588432 0.8447500467 
-24.3492775 32.3491478 4.647227287 0.8495749831 
-31.98455048 32.41444778 5.226746082 0.8324785233 
-24.28923225 14.07145214 3.221907377 0.8931322694 
-24.70419312 12.87957954 3.197712898 0.8938907385 
-38.236763 -12.68777847 4.623949528 0.8502665758 
-34.03875732 -14.76942825 4.258811474 0.8612297177 
-28.27092743 -15.38521004 3.69425416 0.8784555197 
-25.52528191 -15.40079021 3.421691895 0.8868948817 
-21.1318264 -15.46842289 3.005826235 0.8999276757 
-14.59407234 -16.76013184 2.550772429 0.9144083261 
-14.59543896 -20.12657166 2.853571177 0.9047470689 
-14.59626389 -22.13687897 3.043429613 0.8987414241 
-7.425263405 -15.39369106 1.96165967 0.9335016012 
-5.802148342 -15.39435005 1.888260245 0.9359081388 
-5.032324314 -15.39466286 1.858970761 0.9368702173 
-4.28456068 -15.3949604 1.834152937 0.9376862049 
-1.44291985 -15.3961134 1.774873495 0.9396381378 
-0.7542382479 -15.39639091 1.769279599 0.939822495 
-0.06851562113 -15.39666939 1.767210484 0.9398907423 
1.304921865 -15.3972311 1.773591399 0.9396803379 
2.699355364 -15.39779282 1.794271946 0.938998878 
3.411694288 -15.39808083 1.810214996 0.9384738803 
7.259926796 -15.39963818 1.95410192 0.9337489605 
9.418593407 -16.09220123 2.140128613 0.9276756048 
10.84898949 -15.24395943 2.147532463 0.9274346828 
46.43980408 -45.41773987 7.455614567 0.7698694468 
52.84432602 6.141313553 6.106164932 0.8071892858 
37.11776352 9.445746422 4.396073341 0.8570928574 
30.85404778 9.331337929 3.699764252 0.8782855868 
68.53159332 34.95698547 8.830090523 0.733630836 
59.04541016 33.508461 7.792351723 0.7608290315 
15.95120525 13.27750969 2.382103682 0.9198345542 
18.87761688 32.92225647 4.355863094 0.8583025932 
16.67413521 32.33271408 4.175490856 0.8637504578 
5.253076077 11.4048214 1.441199422 0.9507010579 
4.910234451 12.04341793 1.492788553 0.9489821196 
4.75772953 13.33786106 1.625367284 0.9445790052 
4.270683289 13.89742851 1.668730617 0.9431432486 
11.91248512 45.954216 5.448855877 0.8260175586 
2.715488195 12.79396439 1.501172662 0.9487031102 
8.245287895 49.62569046 5.774002552 0.8166496158 
3.654145479 48.21302795 5.549641609 0.8231021166 
1.502324224 48.21500015 5.536685467 0.8234763741 
-0.6625976562 49.62928009 5.696831703 0.8188631535 
-4.952065468 48.21632767 5.563264847 0.8227089643 
-9.614536285 49.63287354 5.802642822 0.8158295751 
-14.29105473 49.63476562 5.928402424 0.812238574 
-11.01764393 32.71569061 3.962249041 0.8702359796 
-19.67737007 44.80279541 5.616472721 0.8211749196 
-19.71370506 32.34729385 4.347901344 0.8585423827 
-28.68021965 32.3508873 4.962239742 0.8402386308 
-31.35963058 32.35195541 5.17146349 0.8340944052 
-26.66490936 12.71604252 3.390734673 0.8878585696 
-36.74465561 4.934570312 4.255329609 0.8613350391 
-79.2543335 -17.93042374 9.326516151 0.7209661007 
-68.28729248 -18.67809105 8.125760078 0.7519828081 
-56.55896378 -18.21037483 6.819890499 0.7872309685 
-33.51229477 -15.98145962 4.26144886 0.8611499667 
-26.15744591 -15.4663763 3.487842321 0.8848391771 
-17.92612267 -15.46971607 2.71772933 0.9090685844 
-14.99634266 -15.47091293 2.473021984 0.9169056416 
-14.59394455 -16.46179199 2.52504015 0.9152341485 
-14.5945797 -18.01733398 2.661323786 0.9108691812 
-14.59608364 -21.71364784 3.002984047 0.9000174999 
-14.59700203 -23.95154762 3.219401836 0.8932106495 
-14.59805584 -26.54260635 3.476862669 0.8851801753 
-5.959150314 -15.39428711 1.894682765 0.9356972575 
-5.184423923 -15.39459896 1.864462376 0.9366897941 
-4.432528973 -15.39490223 1.838773251 0.9375342727 
-3.699667931 -15.39519501 1.817331672 0.9382396936 
-2.277177572 -15.39578056 1.786312938 0.9392610788 
-1.581259727 -15.39605904 1.776417375 0.9395871758 
-0.8916406035 -15.39633751 1.770115495 0.9397949576 
0.4797460735 -15.39689922 1.768075347 0.9398621917 
1.167001963 -15.39717293 1.772319198 0.9397222996 
1.858915925 -15.39745045 1.780116081 0.939465344 
2.558330059 -15.39773369 1.791541576 0.9390888214 
4.731997013 -15.39861298 1.848984838 0.9371984601 
5.49292469 -15.39892101 1.876531482 0.936293304 
9.594179153 -16.73200226 2.213775635 0.9252821207 
45.5701828 -45.36782455 7.380543709 0.771899581 
29.72476006 -10.45415974 3.616588593 0.8808520436 
67.12810516 10.23435974 7.793828487 0.7607896328 
17.02344704 12.6952877 2.437416792 0.9180515409 
16.17308617 13.22028255 2.397571802 0.9193356037 
15.55742645 16.63214302 2.61396122 0.9123836756 
25.24809074 32.32927704 4.708181858 0.8477600813 
20.90752411 32.33100891 4.419187069 0.8563981652 
17.04011154 32.33256912 4.194890499 0.863162756 
4.839706898 11.57467747 1.439969659 0.9507420659 
4.837656021 13.18981457 1.612509012 0.9450051188 
4.370961666 13.78562927 1.659911036 0.9434350729 
12.03707027 44.79005432 5.323304176 0.8296633959 
4.086035252 48.21263123 5.553566933 0.8229889274 
1.93204093 48.21460342 5.538393974 0.8234269619 
-8.896459579 48.21994019 5.627977371 0.8208435178 
-11.49662304 49.7856369 5.864659786 0.8140568137 
-10.72952652 32.82302856 3.963522196 0.8701969385 
-18.87502861 35.05430222 4.569630623 0.8518904448 
-19.39019012 32.46308136 4.340096951 0.8587774634 
-24.3429966 13.24753666 3.180977821 0.8944155574 
-23.59282494 11.50982666 3.012989521 0.8997016549 
-26.03861237 11.29815674 3.257861853 0.8920065165 
-50.37232971 -18.22132683 6.148255348 0.8059984446 
-33.79042816 -15.74655724 4.278832912 0.8606251478 
-29.55341721 -15.40773869 3.825388193 0.8744238019 
-26.69664955 -15.4661665 3.541244507 0.8831831813 
-19.99012566 -15.46888161 2.901154757 0.9032381773 
-18.25194359 -15.46957493 2.746138811 0.9081630707 
-14.59445286 -17.69298744 2.632492065 0.9117909074 
-14.59514141 -19.39041519 2.785592079 0.9069072008 
-14.5959177 -21.30149841 2.963830471 0.9012544751 
-14.59681129 -23.47848129 3.173148632 0.8946610093 
-7.765888691 -15.39354992 1.97894299 0.9329357743 
-6.925038815 -15.39389133 1.937425971 0.9342954755 
-6.1171875 -15.39421844 1.901300192 0.9354801178 
-4.581288815 -15.3948431 1.843563676 0.9373767376 
-3.844921827 -15.3951416 1.821293116 0.9381093383 
-2.417402267 -15.39572239 1.788732409 0.9391813278 
-0.3425683379 -15.39655685 1.767617941 0.9398773313 
0.3426660001 -15.39683056 1.767649055 0.9398762584 
1.72001946 -15.39739704 1.778267384 0.9395262003 
3.125248909 -15.39796829 1.80337441 0.9386990666 
3.845707893 -15.3982563 1.821658731 0.9380972385 
5.338911057 -15.39885712 1.870660186 0.9364861846 
9.428720474 -16.7879734 2.209986925 0.9254050255 
10.69093704 -15.60248947 2.170886278 0.9266752601 
41.45701981 -55.07780457 7.912362576 0.7576326728 
66.14456177 -34.48461914 8.561740875 0.7405695915 
48.94528198 -22.80880737 6.197860718 0.8045970201 
29.62704468 -10.71707726 3.616165161 0.8808651567 
68.29941559 -18.02967644 8.107785225 0.7524570227 
101.1856918 -21.94748497 11.88389301 0.6591043472 
97.7108078 23.02188873 11.5220747 0.6675229669 
33.26635742 9.418061256 3.968303204 0.8700510859 
26.03734398 8.639740944 3.148729801 0.8954277039 
76.0398407 29.04660606 9.342736244 0.7205555439 
59.849823 25.96883202 7.488195419 0.768990159 
67.99365234 33.17092133 8.683311462 0.7374178171 
68.17251587 37.09970093 8.908296585 0.7316207886 
58.14453888 35.08155823 7.794312477 0.7607765794 
17.49600601 12.80706024 2.488663197 0.916402638 
15.51272869 16.29128838 2.581984758 0.9134075642 
23.44517517 32.3299942 4.583784103 0.8514676094 
21.31783104 32.33084488 4.444921017 0.855625391 
19.46754265 32.59256363 4.35740757 0.8582561016 
5.425834656 11.24853516 1.433429122 0.9509602189 
4.942773342 11.53167915 1.44003737 0.9507398009 
2.934824228 12.70912075 1.497108579 0.9488383532 
9.102841377 49.33972931 5.758665562 0.8170890212 
0.8086913824 8.628935814 0.994748354 0.9657071829 
0.2145117074 48.21617889 5.534185886 0.8235484958 
-1.988725543 49.62981033 5.700960636 0.8187446594 
-13.37981701 49.7864151 5.917125702 0.8125599027 
-10.30014896 32.48578262 3.911571503 0.8717842102 
-17.68674278 48.22277069 5.895427227 0.8131784201 
-18.87472534 35.81384277 4.646560669 0.8495947123 
-19.11208725 32.65426636 4.342746258 0.8586978316 
-20.9184494 32.34777832 4.421485901 0.856329143 
-23.02229881 32.34862137 4.557202816 0.8522619605 
-27.66736603 32.35048294 4.885854244 0.842492938 
-23.91631508 16.23176384 3.317571878 0.8901401162 
-24.31826591 13.5160265 3.193343401 0.8940277696 
-60.23560715 -18.21737671 7.222978592 0.7761781812 
-51.80783463 -18.22076225 6.303420067 0.8016232848 
-45.27216721 -18.22338867 5.601408958 0.8216089606 
-33.75019073 -15.363657 4.256252766 0.8613070846 
-27.25242615 -15.46594238 3.596572876 0.8814707994 
-24.63282585 -15.46699715 3.338439226 0.8894886971 
-18.58452034 -15.46944809 2.775363207 0.9072327018 
-15.53965759 -15.47067833 2.516807079 0.9154984951 
-14.59371567 -15.88284588 2.475692511 0.9168198705 
-14.59499931 -19.03519058 2.753114462 0.9079409242 
-14.59661579 -23.01865578 3.128441095 0.8960652947 
-6.276396275 -15.39415455 1.908117771 0.9352564812 
-5.491289139 -15.39447689 1.875988245 0.9363111854 
-4.730771542 -15.39478016 1.848523617 0.9372136593 
-2.557939291 -15.39565849 1.791301727 0.9390968084 
-1.16690433 -15.39622498 1.772209883 0.9397259355 
0.8916894197 -15.39705086 1.770197511 0.9397922754 
2.277451038 -15.39761639 1.786528707 0.9392540455 
2.982773304 -15.39790535 1.800186634 0.93880409 
4.433569431 -15.39849091 1.839201212 0.937520206 
5.185815334 -15.39879322 1.864971995 0.9366731048 
5.960990906 -15.39910603 1.895275712 0.9356778264 
6.76346159 -15.3994379 1.930471301 0.934523344 
7.597914696 -15.39977551 1.970973015 0.9331965446 
10.61079121 -15.78488255 2.183039427 0.9262801409 
29.6243248 -11.01511478 3.627650738 0.8805102706 
66.22751617 11.91414547 7.723457336 0.7626700401 
59.17568207 16.18571663 7.041521072 0.7811341286 
69.15956116 32.9812355 8.794379234 0.7345501781 
57.98974609 34.28815842 7.732365608 0.7624316812 
16.5430603 13.03851509 2.417631626 0.9186890125 
15.85911083 13.68593693 2.404353619 0.9191169739 
57.08543777 53.87507248 9.009308815 0.7290328741 
15.24393559 15.7263031 2.51384902 0.9155934453 
23.88704109 32.32981491 4.613726139 0.8505737782 
17.78220177 32.33227158 4.235249996 0.8619417548 
4.994218826 12.90163994 1.587893128 0.9458214641 
4.498320103 13.35736084 1.617726803 0.9448321462 
2.483686447 12.82142258 1.498968005 0.9487764835 
7.340175629 49.62605286 5.757928848 0.8171102405 
0.8838964701 8.606093407 0.992982626 0.9657670259 
2.792211771 48.2138176 5.543133259 0.82329005 
-3.664008617 48.34324265 5.56463623 0.8226694465 
-12.85581017 49.59282303 5.880304337 0.8136104941 
-11.57150841 32.43952942 3.953123808 0.8705145121 
-12.82021236 31.44416428 3.89752984 0.8722138405 
-18.94543457 33.04034424 4.371498108 0.8578321338 
-20.51232147 32.34761429 4.396334648 0.8570850492 
-22.59111977 32.34844589 4.528673649 0.8531154394 
-27.17234993 32.35028458 4.849106312 0.8435798287 
-32.83044052 32.68467712 5.317222595 0.8298404813 
-68.28782654 -19.99129868 8.166882515 0.7508988976 
-46.46007156 -18.22291374 5.728095531 0.8179657459 
-30.95450592 -15.44388103 3.970533371 0.8699830174 
-25.12641144 -15.46679688 3.386541605 0.8879891634 
-22.79059029 -15.46774864 3.161416054 0.8950294256 
-20.74221611 -15.46857834 2.969872952 0.9010634422 
-17.29432106 -15.46996593 2.663270712 0.9108069539 
-14.59419441 -17.06448746 2.577228308 0.9135600924 
-14.59485817 -18.68828583 2.721612453 0.908944726 
-7.257094383 -15.39375973 1.953356385 0.933773458 
-5.646230221 -15.39441395 1.882029891 0.9361127019 
-4.881142616 -15.39472103 1.853658915 0.9370447993 
-3.411054611 -15.39531231 1.809890866 0.9384846687 
-1.997880816 -15.3958931 1.781921148 0.9394059181 
-1.304824233 -15.39617157 1.773470521 0.939684391 
-0.6169531345 -15.39644527 1.768584728 0.9398454428 
0.06850586087 -15.39672375 1.767214775 0.9398905635 
2.137636662 -15.39756298 1.784243226 0.9393292665 
2.840859413 -15.39784622 1.797154307 0.9389039874 
4.285571098 -15.39843273 1.834566474 0.9376725554 
5.033705711 -15.39873505 1.859464884 0.9368540049 
7.428168774 -15.39970684 1.962422609 0.9334765077 
10.53761673 -15.98146439 2.197168112 0.9258212447 
60.63562393 25.03710365 7.529565334 0.7678751349 
69.71263885 32.48652649 8.827589989 0.7336950302 
19.61351013 12.56001949 2.673217773 0.9104890823 
18.56656265 13.08953094 2.607377768 0.912594378 
16.71585846 12.93516064 2.425961971 0.9184206128 
15.7398243 13.34041023 2.3681705 0.9202842712 
24.33450127 32.32963943 4.644412518 0.849658668 
22.15309525 32.33051682 4.498376369 0.8540225029 
16.31161118 32.33285141 4.156600475 0.8643230796 
5.149423599 11.44676971 1.440651417 0.9507192969 
4.305224419 14.46714783 1.732468963 0.9410368204 
3.133320332 12.54583931 1.484211206 0.949267745 
-10.07375431 49.63306046 5.812912941 0.815535605 
-14.77068043 49.63494873 5.943886757 0.8117974401 
-18.93252945 47.64458847 5.884462357 0.8134914041 
-18.87408829 37.41220474 4.809588432 0.8447500467 
-18.87560654 33.60832977 4.424242973 0.8562464714 
-22.16525078 32.34827423 4.500850677 0.8539485335 
-24.34916496 32.3491478 4.647219658 0.8495752215 
-31.9846859 32.41444778 5.226756573 0.8324782252 
-23.53608513 15.0719614 3.207849026 0.8935728073 
-24.70419312 12.87957954 3.197712898 0.8938907385 
-47.70357895 -18.22241592 5.861177444 0.8141561151 
-33.17773438 -16.18588257 4.23705864 0.8618870974 
-25.52528191 -15.4007225 3.42168808 0.8868950009 
-23.23272896 -15.46756268 3.203517914 0.8937084675 
-21.13173866 -15.46842289 3.005818367 0.8999279141 
-19.17166519 -15.38889122 2.821692467 0.9057595134 
-17.51557159 -15.38956547 2.676157236 0.910395503 
-16.10272026 -15.47045422 2.562996864 0.9140164256 
-14.65517998 -15.39072704 2.439258814 0.9179923534 
-14.59472179 -18.34905815 2.691021681 0.9099206328 
-14.59543896 -20.12657166 2.853571177 0.9047470689 
-14.59719181 -24.43865585 3.267284393 0.8917116523 
-14.59829044 -27.11165428 3.534239531 0.8834002018 
-7.425263405 -15.39369106 1.96165967 0.9335016012 
-5.032362938 -15.39465809 1.858971953 0.9368701577 
-2.137324095 -15.39583492 1.784043431 0.9393358827 
-1.442890644 -15.3961134 1.774873137 0.9396381378 
-0.754208982 -15.39639091 1.769279599 0.939822495 
0.6169824004 -15.39694309 1.768642426 0.9398435354 
1.304921865 -15.3972311 1.773591399 0.9396803379 
1.998085856 -15.39750957 1.782106996 0.9393997192 
3.411694288 -15.39808083 1.810214996 0.9384738803 
4.882416725 -15.39867687 1.854133725 0.9370291233 
5.647914886 -15.39897919 1.882589221 0.9360944033 
6.438881874 -15.39929676 1.915780425 0.9350050688 
7.259887695 -15.39963818 1.95410049 0.9337490201 
9.418652534 -16.09220695 2.140133381 0.927675426 
10.44094181 -16.14559937 2.206876516 0.9255060554 
46.43980408 -45.41773987 7.455614567 0.7698694468 
49.47532272 -14.48366642 5.916984558 0.812563777 
37.11776352 9.445746422 4.396073341 0.8570928574 
77.30924988 35.19239807 9.749474525 0.710347712 
68.5315094 34.95714188 8.830088615 0.733630836 
63.79670715 44.13264084 8.903738022 0.7317379713 
15.95120525 13.27750969 2.382103682 0.9198345542 
15.91550732 14.49367619 2.470704794 0.9169801474 
20.50190926 32.33117676 4.394097805 0.8571522236 
18.87771988 32.92225647 4.35586834 0.8583024144 
16.67422867 32.33271408 4.175494671 0.8637503386 
5.253095627 11.404809 1.44119978 0.9507010579 
4.910204887 12.04323673 1.492767811 0.9489828348 
4.757704735 13.33789062 1.625368476 0.944578886 
4.270654202 13.89746094 1.668732762 0.943143189 
2.715463877 12.79396915 1.501172304 0.9487031102 
3.654145479 48.21302795 5.549641609 0.8231021166 
1.502324224 48.21500015 5.536685467 0.8234763741 
-4.952065468 48.21632767 5.563264847 0.8227089643 
-7.131928444 48.21832275 5.594590187 0.8218053579 
-9.614536285 49.63287354 5.802642822 0.8158295751 
-14.29093742 49.63476562 5.928394794 0.8122386932 
-19.71379662 32.34729767 4.347903252 0.8585422039 
-28.68021965 32.3508873 4.962239742 0.8402386308 
-31.35963058 32.35195541 5.17146349 0.8340944052 
-23.85316849 15.57611561 3.269833326 0.8916320205 
-24.5827198 13.09585667 3.196949482 0.8939145803 
-26.33251381 11.14822006 3.282086134 0.8912487626 
-36.74465561 4.934570312 4.255329609 0.8613350391 
-48.89784241 -18.1817627 5.987795353 0.8105478287 
-33.63578415 -14.24033642 4.19237709 0.8632391691 
-29.03032112 -15.4652195 3.775354624 0.875960052 
-26.15744591 -15.4663763 3.487842321 0.8848391771 
-23.68662071 -15.46738243 3.247003078 0.8923463225 
-21.49716187 -15.44392586 3.038124323 0.8989087343 
-16.3921814 -15.47033691 2.5870471 0.9132455587 
-14.99634266 -15.47091293 2.473021984 0.9169056416 
-14.5945797 -18.01733398 2.661323786 0.9108691812 
-14.59528255 -19.75398827 2.819052696 0.9058432579 
-14.59607887 -21.71354866 3.002974749 0.9000177979 
-14.59700203 -23.95144081 3.219392061 0.8932110071 
-14.59805584 -26.54273796 3.476876259 0.8851797581 
-6.760966778 -15.39395428 1.929783106 0.9345459938 
-5.18439436 -15.39459896 1.864460826 0.9366897941 
-2.982304573 -15.39548302 1.799905539 0.9388133883 
-2.277177572 -15.39578056 1.786312938 0.9392610788 
-0.8916406035 -15.39633751 1.770115495 0.9397949576 
1.858876944 -15.39745045 1.780115485 0.9394654036 
2.558290958 -15.39773369 1.79154098 0.939088881 
3.268159151 -15.3980217 1.806716681 0.9385890961 
3.991674662 -15.39831543 1.82579875 0.9379610419 
4.7320261 -15.39861298 1.848986268 0.9371984601 
5.492963791 -15.39892101 1.876532674 0.9362932444 
7.941860199 -15.39991188 1.988766909 0.9326142073 
9.594179153 -16.73200226 2.213775635 0.9252821207 
21.72517586 -13.64114189 2.94426012 0.9018701911 
61.51284027 24.12703514 7.583952427 0.7664112449 
16.17308617 13.22028255 2.397571802 0.9193356037 
15.55741215 16.63204956 2.613951921 0.9123839736 
25.24797249 32.32927704 4.708173275 0.8477603197 
23.00899887 32.33016968 4.554585934 0.852339983 
5.353105545 11.35496044 1.440860152 0.9507123232 
4.839706898 11.57467747 1.439969659 0.9507420659 
4.837656021 13.18981457 1.612509012 0.9450051188 
4.370961666 13.78562927 1.659911036 0.9434350729 
2.831801653 12.78085899 1.502530336 0.9486578703 
2.563920736 19.75776291 2.286761045 0.9229161143 
4.086035252 48.21263123 5.553566933 0.8229889274 
1.93204093 48.21460342 5.538393974 0.8234269619 
-0.2207763642 49.6291008 5.696361065 0.8188767433 
-2.438632727 49.78199768 5.720702171 0.8181777 
-4.518901348 48.21593475 5.558358192 0.8228505254 
-8.896459579 48.21994019 5.627977371 0.8208435178 
-11.49662304 49.7856369 5.864659786 0.8140568137 
-18.87340355 39.12735748 4.986104488 0.8395355344 
-18.87502861 35.05430222 4.569630623 0.8518904448 
-23.4587841 32.34878922 4.586456299 0.8513880372 
-28.16975212 32.35068512 4.923552513 0.8413797617 
-23.89425087 15.90798569 3.29473877 0.890853405 
-24.3429966 13.24753666 3.180977821 0.8944155574 
-23.59282494 11.50982666 3.012989521 0.8997016549 
-26.03861237 11.29815674 3.257861853 0.8920065165 
-36.71889496 5.264247894 4.257605076 0.861266315 
-63.09691238 -16.65632248 7.490197659 0.7689362168 
-58.35828018 -18.21813393 7.017026901 0.7818058729 
-44.03791809 -18.18372536 5.468512535 0.8254482746 
-33.79042816 -15.74655724 4.278832912 0.8606251478 
-26.69664955 -15.4661665 3.541244507 0.8831831813 
-19.99012566 -15.46888161 2.901154757 0.9032381773 
-16.68700218 -15.47021484 2.611751556 0.9124545455 
-14.59383297 -16.16952515 2.500030279 0.9160374999 
-14.59514141 -19.39041519 2.785592079 0.9069072008 
-14.59782696 -25.99170303 3.421578884 0.8868983984 
-6.925038815 -15.39389133 1.937425971 0.9342954755 
-5.337402344 -15.39454079 1.870135903 0.9365034103 
-3.844921827 -15.3951416 1.821293116 0.9381093383 
-1.719872952 -15.39600563 1.778107166 0.9395315051 
-1.029160142 -15.39627934 1.771089911 0.9397627711 
-0.3425683379 -15.39655685 1.767617941 0.9398773313 
1.72001946 -15.39739704 1.778267384 0.9395262003 
2.417714834 -15.39767551 1.788961291 0.9391738772 
3.845707893 -15.3982563 1.821658731 0.9380972385 
6.11917448 -15.39916992 1.901911736 0.935460031 
9.428720474 -16.7879734 2.209986925 0.9254050255 
10.07584476 -16.20664024 2.190351248 0.926042676 
10.69093704 -15.60248947 2.170886278 0.9266752601 
41.45701981 -55.07780457 7.912362576 0.7576326728 
66.14714813 -34.485569 8.562048912 0.7405614257 
48.94528198 -22.80880737 6.197860718 0.8045970201 
26.03734398 8.639740944 3.148729801 0.8954277039 
76.03981018 29.04698753 9.342763901 0.7205551863 
59.849823 25.96883202 7.488195419 0.768990159 
67.99386597 33.17140961 8.683358192 0.737416625 
17.49600601 12.80706024 2.488663197 0.916402638 
16.37172318 13.14128876 2.4095819 0.9189484119 
15.91430187 13.98264122 2.431493044 0.9182422757 
57.25624084 55.00758362 9.113155365 0.7263822556 
23.4453907 32.3299942 4.583797455 0.8514671922 
21.31783104 32.33084488 4.444921017 0.855625391 
19.46742058 32.59265137 4.357412815 0.858256042 
17.40942764 32.33241653 4.214809418 0.8625599742 
5.425795555 11.2485857 1.43343246 0.9509600997 
4.942773342 11.53167915 1.44003737 0.9507398009 
4.916454792 13.04447269 1.600022674 0.9454190731 
11.86496067 42.63258743 5.079226017 0.8367971778 
2.605082989 18.7646389 2.174417734 0.9265605211 
2.362040997 48.21421432 5.540550232 0.8233648539 
0.2145117074 48.21617889 5.534185886 0.8235484958 
-1.98850584 49.6298027 5.700958252 0.818744719 
-4.086279392 48.21553421 5.553897381 0.8229792714 
-8.453266144 48.21953583 5.61892271 0.8211042285 
-10.99726582 49.63343811 5.834965706 0.8149049878 
-10.30020523 32.48550797 3.911542892 0.8717850447 
-13.31953049 31.85481453 3.962966204 0.8702139258 
-19.11208725 32.65426636 4.342746258 0.8586978316 
-20.9184494 32.34777832 4.421485901 0.856329143 
-30.2612133 32.35152054 5.084481716 0.836643219 
-24.31826401 13.51588058 3.193327665 0.894028008 
-25.24225616 12.59389973 3.237827063 0.8926336765 
-25.48273659 11.3274231 3.200795889 0.8937939405 
-63.82234573 -16.24184608 7.558857441 0.7670863867 
-60.23560715 -18.21737671 7.222978592 0.7761781812 
-51.80718231 -18.22075653 6.303347111 0.8016253114 
-45.27216721 -18.22338867 5.601408958 0.8216089606 
-30.31794357 -15.46469212 3.906379223 0.8719431758 
-18.58452034 -15.46944809 2.775363207 0.9072327018 
-15.53965759 -15.47067833 2.516807079 0.9154984951 
-14.59371567 -15.88298321 2.475704193 0.9168195128 
-14.59575653 -20.89981461 2.925901413 0.9024543762 
-14.59662056 -23.01887703 3.128462553 0.8960645795 
-14.59760666 -25.45786476 3.368275642 0.8885582685 
-7.938451767 -15.39348125 1.987933755 0.9326415062 
-5.491366863 -15.39447689 1.875990152 0.9363110662 
-3.990820169 -15.39508247 1.825416923 0.9379736781 
-3.2675879 -15.39537048 1.806406379 0.9385993481 
-1.85870111 -15.3959465 1.779940248 0.9394711256 
-1.166962862 -15.39622498 1.772210479 0.9397258759 
-0.4797167778 -15.39650345 1.768030167 0.9398636818 
0.2056347579 -15.39677715 1.767363071 0.9398857355 
0.8916894197 -15.39705086 1.770197511 0.9397922754 
1.581454992 -15.39733887 1.776566267 0.9395822883 
2.277451038 -15.39761639 1.786528707 0.9392540455 
2.982851505 -15.39790535 1.800188065 0.9388040304 
4.433637619 -15.39849091 1.839203238 0.9375200868 
5.185815334 -15.39879322 1.864971995 0.9366731048 
7.597914696 -15.39977551 1.970973015 0.9331965446 
9.227421761 -16.77763557 2.197726011 0.9258031845 
9.447348595 -15.50163555 2.083618879 0.9295161366 
45.74026108 -47.18727493 7.542910576 0.7675155997 
48.72362137 -23.23534584 6.195723057 0.8046572804 
61.62331009 22.91317749 7.546077251 0.7674301267 
60.47890472 25.60484886 7.538104534 0.767645061 
68.21303558 36.338871 8.870999336 0.7325788736 
57.98989105 34.2878952 7.732366085 0.7624316812 
16.5430603 13.03851509 2.417631626 0.9186890125 
15.85917473 13.68611336 2.404371738 0.9191163778 
57.08543777 53.87507248 9.009308815 0.7290328741 
21.73285675 32.33067703 4.471302986 0.8548339009 
19.7465229 32.40096664 4.355118275 0.858324945 
17.78220177 32.33227158 4.235249996 0.8619417548 
5.498027325 11.14362049 1.426240325 0.951200068 
5.045971394 11.48907185 1.440267205 0.9507321715 
4.994252682 12.901577 1.587887645 0.9458216429 
4.498320103 13.35736084 1.617726803 0.9448321462 
12.10298824 42.03495407 5.020674229 0.8385179043 
2.483735323 12.82142067 1.498969197 0.9487764239 
-3.664208889 48.34315491 5.564627647 0.8226696849 
-12.85581017 49.59282303 5.880304337 0.8136104941 
-15.25275803 49.63515091 5.95991993 0.8113408089 
-11.57150841 32.43952942 3.953123808 0.8705145121 
-12.81996536 31.44394875 3.897496939 0.8722148538 
-18.94543457 33.04034424 4.371498108 0.8578321338 
-22.59111977 32.34844589 4.528673649 0.8531154394 
-24.80368423 32.34933472 4.678796768 0.8486346602 
-27.17234993 32.35028458 4.849106312 0.8435798287 
-29.72579575 32.3513031 5.042681217 0.8378708363 
-32.83044052 32.68467712 5.317222595 0.8298404813 
-63.85281754 -15.64547348 7.545670033 0.7674414515 
-53.31776428 -18.2201519 6.467139244 0.7970325947 
-46.46007156 -18.22291374 5.728095531 0.8179657459 
-34.24069595 -15.22045422 4.300851822 0.8599606156 
-30.95450592 -15.44388103 3.970533371 0.8699830174 
-20.74221611 -15.46857834 2.969872952 0.9010634422 
-18.8260746 -15.3890276 2.790875673 0.9067390561 
-17.29432106 -15.46996593 2.663270712 0.9108069539 
-14.59360313 -15.60166454 2.452015162 0.9175816178 
-14.59419441 -17.06463814 2.577242374 0.9135596752 
-14.59643555 -22.57157707 3.085216522 0.8974249959 
-14.59740162 -24.94062996 3.316891432 0.8901612759 
-8.112758636 -15.39341259 1.997176647 0.9323391914 
-7.257094383 -15.39375973 1.953356385 0.933773458 
-6.436757565 -15.39408684 1.915135264 0.935026288 
-3.41099596 -15.39531708 1.809889317 0.9384846687 
-1.99781251 -15.3958931 1.781920314 0.9394059181 
0.06850586087 -15.39672375 1.767214775 0.9398905635 
2.840800762 -15.39784622 1.797153115 0.9389039874 
5.033705711 -15.39873505 1.859464884 0.9368540049 
8.292181969 -15.40005302 2.007529974 0.9320005774 
10.53761673 -15.98146439 2.197168112 0.9258212447 
50.26903152 -21.8117485 6.28947258 0.802015245 
59.51791763 15.71154785 7.065332413 0.7804819345 
60.63557434 25.03737831 7.529571533 0.7678749561 
69.71263885 32.48652649 8.827589989 0.7336950302 
58.0632782 33.63772964 7.701935768 0.763245821 
19.61315346 12.55990696 2.673174381 0.9104904532 
18.56656265 13.08953094 2.607377768 0.912594378 
16.71578979 12.93520451 2.425958395 0.918420732 
15.88810062 14.72955513 2.486705303 0.9164655805 
20.10074234 32.33133316 4.369624138 0.8578882813 
5.039648533 12.68249226 1.566381335 0.9465354681 
4.666235447 13.45886707 1.634983897 0.9442603588 
4.305224419 14.46714783 1.732468963 0.9410368204 
2.599472523 12.80747795 1.499983668 0.9487426877 
3.222822189 48.21342087 5.546165466 0.8232024908 
-1.104501963 49.62945557 5.697756767 0.818836689 
-5.386244774 48.21672821 5.568627357 0.8225543499 
-7.570971489 48.21873093 5.602238655 0.8215851188 
-10.07375431 49.63306046 5.812912941 0.815535605 
-14.77068043 49.63494873 5.943886757 0.8117974401 
-20.15517616 44.80299759 5.63877058 0.8205328584 
-18.87408829 37.41220474 4.809588432 0.8447500467 
-18.87560463 33.60798645 4.424209118 0.8562474847 
-20.11074829 32.34745407 4.371809006 0.8578227758 
-26.75550652 32.4356575 4.82602787 0.8442630172 
-23.5362587 15.07221889 3.207885742 0.893571794 
-24.28923225 14.07145214 3.221907377 0.8931322694 
-24.70432472 12.87952328 3.197723389 0.8938903809 
-68.28755951 -19.33325577 8.145952225 0.7514503002 
-34.03875732 -14.76942825 4.258811474 0.8612297177 
-28.27106476 -15.38521004 3.694269419 0.8784551024 
-21.13173866 -15.46842289 3.005818367 0.8999279141 
-19.17182541 -15.38889122 2.821704149 0.9057590961 
-17.51557159 -15.38956547 2.676157236 0.910395503 
-16.1028614 -15.47045422 2.563004732 0.9140160084 
-14.59406662 -16.75999069 2.550760269 0.9144086838 
-14.59472179 -18.34905815 2.691021681 0.9099206328 
-14.59626389 -22.13687897 3.043429613 0.8987414241 
-14.59719658 -24.43888664 3.267307758 0.891710937 
-5.802099705 -15.39434052 1.888259649 0.935908258 
-2.840371132 -15.39554119 1.79688549 0.9389128685 
-1.442890644 -15.3961134 1.774873137 0.9396381378 
-0.06848632544 -15.39666462 1.767210841 0.9398907423 
0.6169042587 -15.39694309 1.768642068 0.9398435354 
2.699355364 -15.39779282 1.794271946 0.938998878 
4.138217449 -15.3983736 1.830096602 0.9378196001 
6.438959599 -15.39930153 1.915784121 0.9350049496 
7.259887695 -15.39963818 1.95410049 0.9337490201 
9.418544769 -16.0921917 2.140125036 0.927675724 
10.44094181 -16.14559937 2.206876516 0.9255060554 
46.43955994 -45.41786575 7.455602169 0.7698697448 
50.08414841 -24.98805046 6.424285889 0.7982316017 
37.11713791 9.445756912 4.396002769 0.8570949435 
30.85404778 9.331337929 3.699764252 0.8782855868 
60.70150375 24.43416405 7.510435581 0.7683904767 
68.53166199 34.95684814 8.830087662 0.733630836 
16.80864143 12.76937962 2.42283082 0.9185213447 
15.95120525 13.27750969 2.382103682 0.9198345542 
20.50170898 32.33117676 4.394085407 0.8571525812 
4.910268307 12.04354477 1.49280405 0.9489816427 
11.91248512 45.9538269 5.448812008 0.8260188699 
3.654345512 48.21302795 5.549642086 0.823102057 
-0.6627978086 49.62927628 5.696838856 0.8188631535 
-2.88303709 49.78217316 5.723452091 0.8180990219 
-4.952290058 48.21633148 5.563272476 0.8227089047 
-7.131928444 48.21832275 5.594590187 0.8218053579 
-14.29116917 49.63476944 5.928406239 0.8122384548 
-18.66718674 48.22264862 5.935108662 0.8120473623 
-18.87532234 34.31981659 4.495603561 0.8541056514 
-19.71379662 32.34729767 4.347903252 0.8585422039 
-23.90115166 32.34897232 4.616458416 0.8504922986 
-26.44568825 32.64807129 4.822395325 0.8443704844 
-28.68021965 32.3508873 4.962239742 0.8402386308 
-31.35986328 32.35195923 5.17148304 0.8340938687 
-23.85316849 15.57611561 3.269833326 0.8916320205 
-24.25187874 14.33952522 3.23374629 0.8927613497 
-26.665205 12.71613503 3.390769005 0.8878574967 
-26.33238792 11.14830017 3.282076359 0.8912491202 
-59.94180679 -8.04983902 6.382113934 0.7840653658 
-63.90783691 -14.4583931 6.914269924 0.7683215141 
-64.11112976 -17.5357914 7.013798237 0.7654123902 
-33.52067947 -14.19151783 3.841197968 0.8638012409 
-33.46912003 -15.96090317 3.912854433 0.8614451885 
-21.4193306 -15.38798332 2.783082724 0.8993518353 
-19.62687874 -15.46901798 2.637065887 0.904371202 
-17.92612839 -15.46971607 2.498632193 0.9091558456 
-16.3921814 -15.47033691 2.378480911 0.9133290052 
-14.59395027 -16.46180534 2.321477413 0.9153156877 
-14.59458447 -18.01735878 2.44677186 0.9109547138 
-14.59528732 -19.7540226 2.5917871 0.9059333205 
-14.59608364 -21.71361732 2.760886669 0.9001130462 
-14.59805107 -26.54256821 3.196558714 0.8852889538 
-7.594829082 -15.3936224 1.811350822 0.9332873225 
-5.18441391 -15.39460373 1.714152694 0.9367514253 
-4.432548523 -15.39490223 1.690535069 0.937595129 
-3.699687481 -15.39519501 1.670820475 0.9382998943 
-2.982304573 -15.39548302 1.654800892 0.9388730526 
-0.8916406035 -15.39633751 1.627411962 0.9398537278 
1.858896494 -15.39745045 1.636604428 0.9395244122 
3.991625786 -15.39831543 1.678605199 0.9380215406 
5.49292469 -15.39892101 1.725247264 0.9363553524 
7.093070984 -15.39957523 1.789123654 0.9340783358 
7.941840649 -15.39991188 1.828436971 0.9326797128 
9.534711838 -16.62832451 2.022689819 0.9257994294 
41.75588608 -54.45915222 7.241575718 0.7587954402 
45.73750687 -45.53440475 6.810446739 0.7713677883 
21.72469139 -13.64090824 2.707123995 0.9019657969 
49.32656097 -22.4543457 5.719094753 0.8041323423 
60.06758499 23.56006241 6.808725357 0.7714185119 
15.47223091 13.84011173 2.190585852 0.9198935628 
23.00910187 32.33016968 4.187410831 0.8524768949 
6.120195389 12.9821043 1.514529586 0.9439062476 
4.563696384 12.44282722 1.39855051 0.9480881691 
4.274795055 13.48229694 1.492512584 0.944698751 
8.4409132 48.14908981 5.158389091 0.8215034604 
4.080761433 48.15084457 5.099299908 0.8233556151 
1.929453135 48.1517067 5.085252762 0.8237965703 
-4.513007641 48.15430069 5.103719234 0.8232170343 
-9.110548973 32.7352562 3.585656166 0.8722561002 
-10.6058588 32.44486618 3.602006197 0.871712625 
-18.87144089 44.02802658 5.054833412 0.8247526884 
-18.87339783 39.12745285 4.584139347 0.8396830559 
-26.20058823 32.94031525 4.441478729 0.8442612886 
-28.16981316 32.3506813 4.526625156 0.8415259123 
-23.55622101 14.21272755 2.903165102 0.8952447772 
-25.26301384 12.32468128 2.966193676 0.8930966854 
-59.95323944 -7.508852482 6.375962257 0.7842491865 
-81.96394348 -17.77812958 8.85032177 0.7136647105 
-58.35840607 -18.21813393 6.451333523 0.7819991708 
-50.26151657 -18.18121147 5.640158176 0.8065556884 
-33.67557144 -15.6930418 3.92050457 0.8611939549 
-21.82642937 -15.38781738 2.818071127 0.8981531262 
-15.26560974 -15.47079086 2.293514013 0.9162918925 
-14.5938282 -16.16945839 2.298475981 0.9161185622 
-14.59445286 -17.69291496 2.420256853 0.9118759036 
-14.59513664 -19.39034653 2.561013699 0.9069966078 
-14.5959177 -21.30143929 2.724885225 0.9013490081 
-7.765888691 -15.39355469 1.819402933 0.9330009222 
-6.925048828 -15.39389133 1.781232357 0.9343593717 
-5.337402344 -15.39453602 1.719367504 0.93656528 
-4.581288815 -15.3948431 1.694936991 0.9374377728 
-3.844902277 -15.3951416 1.674462438 0.9381696582 
-2.417382717 -15.39572239 1.644530177 0.939240694 
-1.029189467 -15.3962841 1.628310084 0.9398215413 
2.417685509 -15.39767551 1.644737959 0.9392331839 
3.845698118 -15.3982563 1.674800515 0.9381575584 
4.582397461 -15.3985548 1.695345879 0.9374231696 
6.119164944 -15.39917946 1.74858284 0.9355228543 
10.14371109 -16.31575203 2.027328014 0.9256358147 
10.6150341 -15.49166012 1.981698155 0.927247107 
45.67613983 -46.29004288 6.862383366 0.7698422074 
65.9849472 -34.40142059 7.852498055 0.7413300276 
49.1908989 -22.92325592 5.726788044 0.8038964272 
29.59755707 -12.22114468 3.379042864 0.8791525364 
40.11487198 -14.51082039 4.501533508 0.8423309326 
67.83032227 -17.90578079 7.402941704 0.7541427016 
66.5145874 12.57793427 7.143295288 0.7616432309 
40.40380859 9.519667625 4.380332947 0.8462313414 
26.03679657 8.639555931 2.894821167 0.8955293298 
60.30738068 26.16746521 6.937147141 0.7676517367 
67.96581268 33.15743637 7.980018139 0.7377356887 
67.89798737 36.95036697 8.157149315 0.7327715158 
17.12522888 12.53560066 2.2395432 0.9181786776 
15.95672798 12.80824184 2.159173965 0.9209956527 
15.63319302 15.01932049 2.287656069 0.9164962769 
23.44517517 32.3299942 4.214247227 0.8516054153 
19.46754265 32.59256363 4.006121159 0.8583881259 
17.40943718 32.33240509 3.87501955 0.8626883626 
6.293998718 13.04839325 1.52873826 0.9433951974 
5.858388424 13.66790485 1.569201469 0.9419412613 
5.214911938 13.83622551 1.560322046 0.9422602057 
4.007377625 14.39890385 1.577183604 0.9416548014 
2.600478411 18.73167038 1.995604396 0.9267557263 
0.8086376786 8.628090858 0.9144636393 0.9657444358 
2.358808517 48.15153885 5.087248325 0.8237338662 
-1.929501891 48.15326691 5.085416317 0.8237913847 
-4.081020355 48.15412521 5.099650383 0.8233447671 
-8.44210434 48.15587616 5.159116268 0.8214806914 
-10.99706078 49.63343811 5.364556313 0.8150730133 
-15.73774147 49.63534164 5.494720459 0.8110393286 
-11.7131958 31.93585777 3.589531898 0.8721271753 
-18.87099648 45.13201904 5.162087917 0.821387589 
-18.87472534 35.81375885 4.271956921 0.8497343659 
-20.91834259 32.34777451 4.065027237 0.8564630151 
-25.41606331 32.54439545 4.357426167 0.8469706774 
-25.00136185 12.47368908 2.948386669 0.8937029839 
-45.27198029 -18.22338867 5.149817467 0.8217720389 
-30.31783104 -15.46469212 3.591444016 0.872063756 
-27.25256348 -15.46593761 3.306633234 0.8815823197 
-24.63295364 -15.46699715 3.069313288 0.889593184 
-22.35995483 -15.46791458 2.869071007 0.8964089751 
-18.58456993 -15.46944809 2.551620007 0.9073214531 
-15.53969669 -15.4706831 2.313910007 0.9155797362 
-14.59371567 -15.88284588 2.276104212 0.9168999791 
-14.59499454 -19.03518105 2.531162739 0.9080292583 
-14.59661579 -23.0187149 2.876236439 0.8961640596 
-7.938510418 -15.39348125 1.827674031 0.9327068925 
-7.090419769 -15.39382267 1.788455367 0.934102118 
-6.276357174 -15.39414978 1.754287243 0.9353195429 
-3.267597675 -15.39537048 1.660778284 0.9386591911 
-2.557958841 -15.39566326 1.646891236 0.9391561747 
-1.166923761 -15.39622498 1.629338503 0.9397847056 
-0.479726553 -15.39650345 1.625495434 0.9399223328 
0.2055566311 -15.39677715 1.624881744 0.9399443865 
0.8916796446 -15.39706516 1.627487659 0.9398509264 
2.982792854 -15.39790535 1.655059338 0.9388637543 
3.700405121 -15.39819813 1.671146393 0.9382882714 
4.433588982 -15.39849091 1.690926671 0.9375810623 
5.185834885 -15.39879322 1.714618087 0.936734736 
5.96102047 -15.39910603 1.742483616 0.9357404113 
6.763422489 -15.3994379 1.774838686 0.9345870614 
9.179418564 -16.6902771 2.010030508 0.9262462854 
10.08631325 -16.55011749 2.045213699 0.9250049591 
10.53497028 -15.67213345 1.992712855 0.9268579483 
40.67172623 -55.0471344 7.222355366 0.7593518496 
70.42092896 -50.59144974 9.149998665 0.7055587173 
49.34803772 -23.53326607 5.769235611 0.8025968075 
96.34963989 21.79801178 10.4241991 0.672110498 
58.73350525 16.06491661 6.425467491 0.7827702165 
76.26037598 28.35581398 8.585623741 0.7209012508 
60.23269272 25.50048256 6.902170181 0.7686757445 
68.95944977 32.88562775 8.061991692 0.7354340553 
69.03942871 36.77898788 8.254631996 0.7300538421 
57.68861389 34.10999298 7.072069168 0.7637138367 
17.38365746 12.4886713 2.258707762 0.9175080657 
14.85548306 12.81983852 2.070628405 0.9241093397 
23.88697243 32.32981873 4.24176693 0.8507124782 
19.74645996 32.40101624 4.004016399 0.8584569097 
17.78228951 32.33226013 3.89380908 0.8620705605 
6.567304611 13.31096649 1.566285491 0.9420459867 
4.464648247 13.25730419 1.476169229 0.9452874064 
11.5857029 48.21053696 5.232222557 0.8191945553 
0.883857429 8.605666161 0.9128849506 0.9658025503 
-1.500424743 48.15309143 5.083792686 0.8238425851 
-10.53452396 49.63324738 5.354189873 0.8153951168 
-15.2528801 49.63514709 5.479453087 0.811511457 
-18.87440872 36.59918213 4.345431328 0.8473578691 
-18.94540787 33.04039383 4.019073009 0.8579643965 
-20.51231956 32.34761047 4.04190731 0.8572181463 
-24.80344582 32.3493309 4.30158186 0.8487753868 
-27.17235565 32.35028076 4.458176136 0.8437242508 
-29.72553444 32.35130692 4.636130333 0.8380206227 
-32.59321213 32.44850922 4.85323 0.8311145306 
-24.68857574 12.59331131 2.924603701 0.8945135474 
-17.15809059 -0.3054541051 1.810886621 0.9333039522 
-89.62155151 -17.77505875 9.64149189 0.6924645305 
-62.2262764 -18.21658134 6.841980934 0.7704414725 
-46.46029663 -18.22291374 5.266331196 0.8181305528 
-30.87809563 -15.40576649 3.641425133 0.8704038858 
-25.12641525 -15.46680164 3.113525867 0.8880953193 
-22.79059029 -15.46774387 2.906545877 0.8951293826 
-20.7422123 -15.4685688 2.730446815 0.9011579752 
-17.29431534 -15.4699707 2.448563099 0.9108926058 
-15.81863689 -15.47057056 2.334851503 0.9148491025 
-14.59560013 -20.50835419 2.656251192 0.9037101269 
-14.59739685 -24.94050217 3.049477577 0.8902659416 
-7.257148266 -15.39375973 1.795882344 0.9338377714 
-5.646230221 -15.39441395 1.730302811 0.9361749291 
-3.411054611 -15.39531231 1.66397965 0.938544631 
-2.698964834 -15.39560032 1.649387956 0.9390667677 
0.06853515655 -15.39672375 1.624745011 0.9399492145 
0.7542675734 -15.39700603 1.6267097 0.939878881 
1.443027258 -15.39728451 1.631909251 0.9396926165 
2.137597561 -15.39756298 1.640402317 0.939388454 
3.555747032 -15.398139 1.667638302 0.9384136796 
4.285531998 -15.39843273 1.686664581 0.9377333522 
5.033696175 -15.39873028 1.709557652 0.9369155169 
6.600551605 -15.3993597 1.767989278 0.9348310828 
7.428168774 -15.39970684 1.804213405 0.9335411787 
8.292181969 -15.40005302 1.845684052 0.932066679 
9.589096069 -16.05404663 1.973287463 0.927544415 
10.45425797 -15.85504818 2.004056692 0.9264571667 
47.07196045 -45.2234993 6.888195515 0.7690855265 
73.91396332 -49.20960999 9.370207787 0.6996611953 
51.08283997 -14.46209431 5.602343559 0.8077187538 
58.97727585 15.5688324 6.43672657 0.7824344635 
76.12176514 27.53573608 8.542098999 0.7220984697 
57.83946228 33.50807953 7.053719997 0.7642480731 
17.64697266 12.44127369 2.278447628 0.9168180227 
15.27260685 12.94445801 2.112629414 0.9226311445 
15.63644981 14.49619102 2.250015736 0.9178121686 
22.15320206 32.33051682 4.135727882 0.8541579843 
20.10074234 32.33133698 4.017352104 0.8580206633 
18.19582558 32.39797211 3.921072245 0.8611752987 
6.781386375 13.44205093 1.588747621 0.9412397146 
4.990214825 11.09288597 1.283560038 0.9522528052 
4.545688152 13.11098862 1.464323878 0.9457142949 
4.155424595 13.96376228 1.537376165 0.943084538 
9.772334099 48.14855957 5.18443346 0.8206880689 
7.560229301 48.14944839 5.143190384 0.8219794035 
5.400000095 48.34063721 5.132843494 0.8223036528 
-7.561269283 48.15552521 5.143843174 0.8219590187 
-9.77405262 48.15641403 5.185287476 0.8206615448 
-11.12554932 32.08911514 3.583927631 0.8723133802 
-19.00859642 42.25473022 4.88931179 0.8299723864 
-20.11083412 32.34745407 4.019366264 0.8579550385 
-22.16535568 32.34827805 4.138007164 0.8540840149 
-24.3492775 32.3491478 4.272572517 0.8497143984 
-23.62261963 13.68526554 2.880867958 0.8960060477 
-36.72673416 6.270141602 3.931653261 0.8608285189 
-17.16125679 -0.1527270526 1.811006308 0.9332997203 
-62.99268341 -14.84189892 6.829284668 0.7708144784 
-38.23676682 -12.68777847 4.251206398 0.850405395 
-47.70362854 -18.22241592 5.388663769 0.8143244386 
-33.28251266 -16.23707008 3.907777548 0.8616118431 
-28.27092171 -15.38520432 3.396431208 0.8785701394 
-25.52528191 -15.40078545 3.145840883 0.8870020509 
-23.23262596 -15.46756268 2.945246458 0.893809855 
-19.27175331 -15.46916485 2.607749462 0.9053823948 
-17.5156498 -15.389575 2.460397959 0.9104812741 
-14.65524864 -15.39072704 2.242610693 0.9180712104 
-14.59407234 -16.76013184 2.345133543 0.9144906402 
-14.59471607 -18.34904671 2.47407937 0.9100071192 
-14.59719181 -24.43863678 3.003885508 0.8918145895 
-14.59828091 -27.11162567 3.249315023 0.88351053 
-7.425263405 -15.39368629 1.803512096 0.9335662723 
-6.59825182 -15.39402294 1.767377138 0.9348529577 
-5.032324314 -15.39466286 1.709103823 0.9369317293 
-2.840400219 -15.39554691 1.652024031 0.9389724135 
-0.7542382479 -15.39639091 1.626641631 0.9398812056 
-0.06851562113 -15.39666939 1.624741316 0.9399493933 
0.6169726253 -15.39695263 1.626057506 0.9399021864 
1.30491209 -15.39722633 1.630607724 0.9397392273 
2.699355364 -15.39779282 1.649621129 0.9390583634 
7.259926796 -15.39963818 1.796566248 0.9338133931 
8.116195679 -15.39998055 1.836949587 0.9323771596 
9.699672699 -16.57243156 2.026311636 0.9256715775 
42.18379974 -54.01487732 7.232134342 0.7590686083 
46.23981476 -45.22214127 6.825037003 0.7709391117 
29.64021873 -11.62563705 3.359753847 0.8797991872 
52.80910873 8.532855988 5.644923687 0.8064090014 
59.46743011 15.13329601 6.475264549 0.7812860012 
59.34745026 23.88926125 6.750929356 0.7731197476 
69.54470825 35.47377396 8.238239288 0.7305101752 
58.27979279 33.07397079 7.07124567 0.7637378573 
15.51245594 12.91231441 2.129824638 0.922026515 
22.57848167 32.33034515 4.161248207 0.853327632 
20.501894 32.33117676 4.039853573 0.8572852612 
16.67414474 32.33270264 3.838870764 0.8638778329 
4.625556469 12.96731949 1.452818751 0.9461291432 
11.84900856 45.70933151 4.982872963 0.8270176053 
10.21937466 48.14838409 5.194008827 0.8203887343 
7.999985218 48.14927292 5.150577068 0.8217480779 
-4.94572258 48.15447617 5.108202934 0.823076427 
-11.96432877 49.78582764 5.403194904 0.813873589 
-10.77713394 32.00152969 3.563295841 0.8729997873 
-18.87185478 42.96879196 4.952307701 0.8279818892 
-18.87531471 34.31962967 4.133161545 0.8542417884 
-19.71369171 32.34729385 3.997380972 0.8586742282 
-23.90115738 32.34897232 4.24428463 0.850630939 
-28.68023109 32.3508873 4.56219101 0.8403857946 
-24.28295898 12.93610954 2.903372049 0.8952377439 
-36.72528839 6.606772423 3.937632322 0.8606321812 
-17.16443634 -2.441406195e-06 1.811269045 0.9332903028 
-63.90787125 -14.45846176 6.9142766 0.7683213353 
-64.1111145 -17.53581429 7.013798237 0.7654123902 
-56.55895233 -18.21035576 6.270082474 0.7874205709 
-33.52066803 -14.19150829 3.841196775 0.8638013005 
-33.46915436 -15.96088314 3.912857533 0.8614451289 
-19.62684059 -15.46901798 2.637063026 0.9043713212 
-16.3921814 -15.47033691 2.378480911 0.9133290052 
-14.99634743 -15.4709034 2.273653984 0.9169856906 
-14.59394455 -16.46179199 2.321475983 0.9153157473 
-14.59529305 -19.75405312 2.591790199 0.9059332013 
-14.59607887 -21.71364784 2.760888577 0.900112927 
-14.59699154 -23.95152855 2.959860086 0.8933122754 
-6.761005878 -15.39396 1.774206638 0.934609592 
-5.18443346 -15.39459896 1.714152932 0.9367514253 
-4.432538986 -15.39490223 1.690535069 0.937595129 
-3.699667931 -15.39519501 1.670820117 0.9382998943 
-2.982304573 -15.39548302 1.654800534 0.9388730526 
-1.581259727 -15.39605904 1.63320601 0.9396461248 
-0.8916406035 -15.39633751 1.627411962 0.9398537278 
0.4797460735 -15.39689445 1.625534773 0.9399208426 
2.558320284 -15.39773369 1.647111058 0.9391482472 
3.991635561 -15.39831543 1.678605199 0.9380215406 
4.731997013 -15.39861298 1.699921727 0.9372596741 
6.27845192 -15.39923286 1.754865527 0.9352988601 
7.093051434 -15.39956951 1.789123654 0.9340783954 
10.22889614 -16.13079643 2.015578747 0.9260504246 
10.6942873 -15.31325626 1.970973015 0.9276262522 
21.72470093 -13.64089775 2.707028866 0.9019657969 
49.32653046 -22.45438957 5.719090939 0.8041324019 
29.61319351 -11.92018509 3.368581533 0.8795031905 
68.40990448 -17.40899467 7.448990822 0.7528201938 
59.97660065 14.69583416 6.516211987 0.7800676823 
32.07032013 9.388510704 3.52623105 0.8742338419 
77.06468201 34.25668335 8.899451256 0.7123290896 
67.8061676 33.8299942 7.99630785 0.7372776866 
18.18932533 12.34490204 2.319732666 0.9153764844 
15.73284149 12.86040974 2.144282103 0.9215186238 
15.47222614 13.84006786 2.190583944 0.919893682 
15.63213348 15.28816414 2.307322264 0.9158095717 
25.24808502 32.32927322 4.328622818 0.8479009867 
20.90752411 32.33102036 4.062917233 0.8565317392 
17.04010773 32.33255768 3.856710196 0.8632906079 
