# .PCD v0.7 - Point Cloud Data file format
VERSION 0.7
FIELDS x y z intensities
SIZE 4 4 4 4
TYPE F F F F
COUNT 1 1 1 1
WIDTH 928
HEIGHT 1
VIEWPOINT 0 0 0 1 0 0 0
POINTS 928
DATA ascii
9.464818954 -16.17126465 0.4283279181 0.9277718663 
39.28726578 -55.2029953 1.548856735 0.7625445724 
42.9943924 -45.96422577 1.438735962 0.7773854733 
44.73739243 -43.75314713 1.430456519 0.7785127163 
53.28366089 -43.55496979 1.573179007 0.7593050599 
54.09009552 -40.33787155 1.54244864 0.763401866 
53.65126038 -36.41221237 1.482225299 0.7714909911 
53.87014389 -33.16026688 1.446047902 0.7763912082 
55.27354431 -30.72058105 1.445559025 0.7764568925 
47.93740082 -23.91701126 1.224636793 0.807068944 
54.22290039 -24.10281754 1.356445909 0.7886628509 
51.02812576 -20.01463318 1.252995014 0.803073585 
54.28142548 -18.54944229 1.311291218 0.7949203253 
62.72942352 -15.37020016 1.476382732 0.7722804546 
79.29096222 -15.72631836 1.847858787 0.7236652374 
118.0274277 -12.65336895 2.713508606 0.6219229698 
95.46990967 11.09503841 2.197079659 0.6807567477 
64.69340515 10.45338821 1.498042583 0.7693582177 
59.25410843 17.92051697 1.415108919 0.7806069255 
66.68572235 34.0152626 1.711258173 0.7411751747 
19.79197311 12.42728996 0.5342314243 0.9107337594 
17.03780746 12.94345188 0.4891174138 0.9179528356 
15.60741711 12.99135685 0.4642036259 0.9219645858 
15.51741695 14.13103485 0.4797627032 0.9194569588 
20.87586784 32.92121887 0.8911086917 0.8555853963 
18.87758827 32.92201996 0.8675231934 0.8591251373 
16.97835922 32.9227829 0.8467803597 0.8622498512 
15.16467762 32.92351151 0.8286120296 0.8649960756 
14.0669775 34.50253677 0.8517413139 0.8615012169 
12.85006809 36.02382278 0.874309659 0.8581054211 
-0.6704491973 50.2016983 1.147684574 0.8180128932 
-2.910029173 50.2481575 1.150565505 0.8176000118 
-5.27407217 51.34917831 1.179982543 0.8134008646 
-7.354994774 49.7262764 1.149081111 0.8178129792 
-10.44393253 31.0123291 0.7480431795 0.8772800565 
-11.6336937 30.05316734 0.7366760373 0.8790276051 
-13.18733406 30.0260067 0.7496572733 0.8770322204 
-21.51302719 43.60346603 1.111466646 0.823215127 
-21.50574684 39.10251999 1.020127535 0.8364807963 
-22.73648834 33.82373428 0.9316384792 0.8495370746 
-29.20364189 32.94129181 1.006322861 0.8385038972 
-15.80485058 0.7036840916 0.3616479337 0.9386631846 
-15.74246025 2.441406195e-06 0.2158930898 0.9389662147 
-15.71141815 -0.6995971799 0.2156802267 0.9390243292 
-98.0358963 -13.16565418 1.356530786 0.6732078791 
-73.23925018 -13.17561531 1.020528793 0.7425331473 
-63.14723587 -17.27214813 0.8978188634 0.7695943117 
-60.39395523 -19.44508743 0.8701147437 0.7758372426 
-89.22297668 -42.54903412 1.355615258 0.6733877659 
-30.13374519 -16.05297852 0.4682433903 0.8723325133 
-27.1516304 -16.05418015 0.4325822294 0.8814534545 
-24.58688927 -16.05522346 0.4027114809 0.8891673088 
-15.1595459 -18.7148037 0.3302947879 0.9081493616 
-15.16111279 -22.55414963 0.3726942241 0.8969857693 
-6.768256664 -15.4104681 0.2308245748 0.9348852634 
-5.184487343 -15.39481926 0.2227770984 0.9370828867 
-4.432617188 -15.39512634 0.2197065651 0.9379222393 
-3.741240263 -15.56810474 0.2195812911 0.93795681 
-3.01581049 -15.56839275 0.2174745202 0.9385330677 
-0.9016552567 -15.56923771 0.2138770968 0.9395190477 
0.4851416051 -15.56979942 0.2136311233 0.9395865798 
2.587031126 -15.57063961 0.2164654434 0.9388098717 
4.036445141 -15.5712204 0.2206048518 0.937677145 
4.785117149 -15.57151794 0.2234063745 0.9369111657 
5.554594517 -15.57182598 0.2267347723 0.9360020161 
7.093159199 -15.39979458 0.232522577 0.9344232678 
40.02581787 -57.31342697 0.9587066174 0.75604707 
45.03349686 -44.83348083 0.87147367 0.7755314708 
53.85640335 -40.91447067 0.9275930524 0.7629476786 
54.72962952 -31.05927658 0.8629601598 0.7774482965 
54.2157135 -24.67999458 0.8169436455 0.7879680395 
53.39297867 -21.4923439 0.7893404961 0.7943373919 
62.36799622 -15.87147427 0.8825826645 0.7730222344 
72.99114227 -15.15302658 1.02235043 0.7421396971 
117.1696777 -13.61686516 1.61770165 0.6238299608 
63.44934464 9.673496246 0.8802151084 0.7735583186 
65.08300018 25.52724648 0.9587673545 0.7560353279 
69.10860443 30.71998024 1.037179232 0.7389361858 
57.61117935 32.02009583 0.903921783 0.7682262063 
16.93295288 12.62780762 0.2896870375 0.9189712405 
15.21064949 13.60610771 0.2798814476 0.9216036797 
55.54752731 54.32510757 1.065536141 0.7328492999 
68.71717834 96.55490112 1.625283718 0.622451663 
21.2890625 32.92104721 0.5376605392 0.8548458815 
17.35105515 32.92263031 0.5103730559 0.861677587 
5.230805397 11.09553242 0.1682285964 0.9521130919 
13.01390553 35.48226547 0.5183010697 0.8596856594 
13.03233814 41.10287476 0.5913513303 0.8415632844 
11.01599598 49.71889114 0.698387146 0.815692544 
0.3462841809 8.641933441 0.1186199933 0.9659929872 
-0.2233691365 50.19242096 0.6883535385 0.8180837631 
-2.461083889 50.23884583 0.6898126006 0.8177363276 
-6.91517067 49.81124878 0.689670682 0.8177694678 
-9.261432648 50.1986618 0.7000466585 0.8152971268 
-11.60312748 50.24724579 0.7072268724 0.8135908842 
-9.391916275 33.74617767 0.4803880155 0.8692468405 
-11.60702324 30.79580688 0.4513372779 0.8766437173 
-14.88094425 30.85045052 0.4697357118 0.8719523549 
-22.50819206 34.13614273 0.5607534647 0.8491064906 
-23.88694763 32.93915939 0.5580108762 0.8497863412 
-15.7800045 0.8434203863 0.2167163044 0.9387406111 
-15.71761227 -0.5597705245 0.2156892419 0.9390221238 
-16.13522148 -1.295158625 0.2219898999 0.9372974634 
-105.0963821 -13.1628027 1.452551246 0.6546138525 
-77.16520691 -13.17403316 1.073555589 0.7311356664 
-66.24507904 -14.36867619 0.9296163917 0.762488842 
-65.42662811 -17.27122498 0.9279928207 0.762847662 
-60.39371872 -18.85350609 0.8676589727 0.7763931155 
-60.39617157 -24.93819237 0.8961068392 0.7699777484 
-34.21953964 -15.9465332 0.5177415609 0.859826088 
-27.71123886 -16.05395508 0.439201504 0.8797525167 
-25.07119179 -16.05502892 0.4082865715 0.8877223134 
-22.77412987 -16.05595589 0.3821395934 0.8945180178 
-16.61836815 -15.40650368 0.31077528 0.9133342505 
-15.18661594 -15.39073181 0.2965240479 0.9171393514 
-15.15875435 -16.79537964 0.3102752566 0.9134680033 
-15.15940857 -18.3778019 0.3267147839 0.9090980887 
-15.16011715 -20.14094734 0.3457153141 0.9040731788 
-15.16093254 -22.12602425 0.3678382933 0.8982582092 
-8.645498276 -15.39342213 0.2421230972 0.9318094254 
-7.774233341 -15.41006279 0.23670578 0.9332831502 
-6.932475567 -15.41040516 0.2317404151 0.9346360564 
-4.581352234 -15.3950634 0.2202796936 0.9377657175 
-1.040756822 -15.56917953 0.2139932215 0.939486742 
-0.3464697301 -15.56946278 0.2135743648 0.939601779 
0.3464697301 -15.56974125 0.2135792524 0.9396007657 
1.739311457 -15.57030201 0.2148620486 0.9392491579 
3.888876915 -15.57116222 0.2201054394 0.9378138781 
4.633847713 -15.57145977 0.2228040993 0.9370754957 
34.71615219 -61.81261444 0.9722601175 0.753064692 
40.49089813 -65.12808228 1.051728845 0.7358093262 
40.00651169 -58.3858757 0.9706542492 0.7534173131 
42.8773613 -47.50659943 0.877636373 0.7741391659 
48.16191483 -44.64977264 0.900680244 0.7689543366 
51.9114151 -43.99806595 0.933231771 0.7616863847 
55.32846451 -28.84562874 0.8557150364 0.7791053057 
54.17595673 -19.59713745 0.7900970578 0.7941621542 
63.49516296 9.10299778 0.8796850443 0.7736763358 
62.88881683 11.89230442 0.8777496219 0.7741129398 
56.80469513 16.08202171 0.8096472025 0.7896452546 
69.63159943 30.21324158 1.040954828 0.7381235361 
65.26730347 31.84095573 0.9959207177 0.7478839755 
57.80675507 31.45866203 0.9025637507 0.7685310841 
19.24527359 11.61168957 0.3082533181 0.9140078425 
18.56748962 12.36166 0.305909574 0.9146326184 
17.18020439 12.57582474 0.2919897437 0.9183539748 
56.49206924 45.34535217 0.9934524298 0.7484227419 
15.09512615 13.26283169 0.2755725086 0.9227626324 
16.76465225 17.60601616 0.3334057629 0.9073262215 
57.45131683 65.9779892 1.199945092 0.7047051787 
21.70685005 32.92088699 0.5407957435 0.8540654778 
19.66413498 32.92170334 0.5259010196 0.8577833772 
15.88078594 32.92322159 0.5012927055 0.8639618754 
13.24076653 35.13048172 0.5148558021 0.8605481386 
4.736786842 14.49050713 0.2090716511 0.9408364296 
4.776513577 50.9657402 0.7020101547 0.814830184 
2.473759651 50.49793243 0.6933657527 0.8168882728 
0.2233007699 50.18315506 0.688221097 0.8181141019 
-2.012714863 50.22954559 0.6894057989 0.8178319931 
-0.9104492068 10.74296856 0.1478590369 0.9577869177 
-6.503134727 50.11361694 0.6930294633 0.8169689178 
-8.798559189 50.18906021 0.698792398 0.8155953288 
-11.13089085 50.23744202 0.70567137 0.8139612675 
-9.112814903 33.90882111 0.4815280139 0.8689574003 
-9.815320015 30.95653534 0.4453693926 0.8781713247 
-11.34923267 30.94345474 0.4520042241 0.8764734864 
-14.45298767 30.65750885 0.4648158252 0.8732032776 
-21.01182556 35.89988327 0.5704613924 0.8467049003 
-22.27832413 34.45079803 0.5626422167 0.8486386538 
-25.72496033 32.93989563 0.5731762648 0.8460344672 
-28.17227554 32.94087982 0.5944350958 0.8408046961 
-15.78631592 0.9847216606 0.2169154286 0.9386863112 
-15.75493145 0.2804638743 0.2160983235 0.9389100075 
-64.06295776 -16.30284691 0.9065628052 0.767632544 
-60.39347839 -18.26516533 0.8652865291 0.7769307494 
-25.56913948 -16.05481339 0.4140486121 0.886230588 
-21.13557625 -16.05662155 0.3640104532 0.8992611766 
-16.91777229 -15.40638638 0.3138006628 0.9125293493 
-15.45928192 -15.390625 0.2991593778 0.9164340496 
-15.15863705 -16.49767494 0.3072561622 0.914272964 
-15.15996075 -19.7720356 0.3416868448 0.9051365852 
-15.16076183 -21.70883751 0.363132149 0.8994922638 
-15.16166019 -23.90975571 0.388269335 0.8929207325 
-8.826572418 -15.39334965 0.2433470041 0.9314765334 
-7.098022461 -15.41033649 0.2326802015 0.9343798757 
-6.28309536 -15.41065884 0.2282353193 0.9355923533 
-4.035614967 -15.56798267 0.2205589265 0.937689662 
0.2078662068 -15.56968689 0.2135426253 0.9396101832 
0.9016942978 -15.56996536 0.2138860971 0.9395163059 
2.303027391 -15.57052231 0.2158601284 0.9389757514 
3.016288996 -15.57081032 0.2175097615 0.938523829 
5.244047642 -15.57169914 0.2253385931 0.9363834858 
6.027954102 -15.57201672 0.2289999276 0.9353837967 
40.0417366 -65.70252991 1.055197477 0.735062778 
43.07150269 -64.0745163 1.058804631 0.7342899442 
40.08781052 -54.25691223 0.9251477122 0.7634823918 
44.64455032 -46.05731201 0.8796709776 0.7736784816 
53.63924789 -42.27601624 0.9366403222 0.7609312534 
53.83282089 -38.67430496 0.909034431 0.767080009 
53.88064194 -31.85848618 0.8584368825 0.7784877419 
71.18998718 -16.10590744 1.000982285 0.7467804551 
92.14488983 12.37454033 1.275042057 0.6894070506 
64.83818054 11.664258 0.9034765363 0.7683262229 
93.12300873 34.62582779 1.362535954 0.6720343232 
50.68125916 24.16905212 0.7700359821 0.7988213301 
57.43819046 30.59873962 0.8925176859 0.7707855105 
19.346138 11.43896008 0.3082263172 0.9140150547 
18.75252914 12.24537086 0.3071513176 0.9143016338 
17.69017982 12.70886707 0.2987251282 0.9165520668 
14.91641521 12.87242126 0.2702075243 0.9242076874 
64.90615845 96.55640411 1.595543146 0.6278712153 
20.06368637 32.92153549 0.5287266374 0.85707587 
18.10682487 32.92233276 0.5152844191 0.8604441881 
16.24344254 32.92307663 0.5034748912 0.8634129167 
14.60172367 33.24625778 0.4979783595 0.864797771 
13.60248947 35.13948822 0.5167520046 0.8600749969 
9.719589233 50.17514038 0.7008959651 0.8150948882 
1.619208932 10.947258 0.1517665088 0.9566959739 
5.101054668 49.66672134 0.684715569 0.8189512491 
2.944345713 50.84115219 0.6984109282 0.8156870604 
0.1453222632 10.88499451 0.1492909193 0.9573866129 
-6.124384403 50.72897339 0.7007564902 0.8151292801 
-10.66071224 50.22768784 0.7041729689 0.8143169284 
-8.811423302 33.99137497 0.4815705717 0.8689473271 
-9.462072372 30.79101944 0.4417570531 0.8790966868 
-11.90376472 29.19645691 0.4324035645 0.881499052 
-22.04688454 34.7675972 0.5645843148 0.8481568098 
-25.25613785 32.93971252 0.5692413449 0.8470065594 
-27.66829109 32.94067383 0.5899636745 0.8419020176 
-59.21310806 9.567597389 0.822580874 0.7866696119 
-16.28698921 1.892795324 0.2248637378 0.936512351 
-15.76117897 0.4209155142 0.2162271142 0.9388748407 
-15.73001957 -0.2800292969 0.2157554626 0.9390035868 
-15.78240204 -0.9844995141 0.21686019 0.9387010336 
-60.45042419 -11.98941898 0.8451766968 0.7815040946 
-64.13819885 -15.71555138 0.905619204 0.7678453922 
-60.3932457 -17.67999077 0.8630059361 0.7774503827 
-60.39566422 -23.6887207 0.8897018433 0.771417737 
-30.83526802 -15.38439465 0.4725866616 0.8712266684 
-28.88371086 -16.05347633 0.4531869292 0.8761718273 
-21.53052711 -16.05645561 0.3683366179 0.898127079 
-15.75349045 -15.40684509 0.3021531701 0.9156249166 
-15.15851974 -16.20567322 0.3043192923 0.9150568247 
-15.15914059 -17.72513199 0.3198576272 0.9109181166 
-15.16146946 -23.44543839 0.3829049468 0.8943189383 
-8.121439934 -15.40992641 0.238887623 0.9326896071 
-7.264936447 -15.41026783 0.233644411 0.9341166615 
-6.443593502 -15.41059494 0.2290725708 0.9353633523 
-5.652294636 -15.41091251 0.225113675 0.9364442825 
-4.881215572 -15.39494133 0.2214858979 0.9374357462 
-3.449384689 -15.56821728 0.2186816335 0.938202858 
-2.020322323 -15.5687933 0.2153025717 0.9391282201 
-1.319477558 -15.56907177 0.2142822146 0.9394079447 
-0.623852551 -15.56935024 0.2136909366 0.9395697117 
0.06929199398 -15.56962872 0.2135249227 0.9396150708 
3.595664024 -15.57104492 0.2191613764 0.9380713701 
5.090219498 -15.57164001 0.2246705592 0.9365651608 
5.869125843 -15.57195282 0.2282209694 0.9355961084 
39.34434509 -54.25439453 0.9191091657 0.7648310661 
47.89362335 -55.00173569 1.000188231 0.746952951 
53.81093597 -32.46707916 0.8618908525 0.77770257 
55.2676239 -30.07680511 0.8628900051 0.7774701715 
54.28172684 -18.01182556 0.7843396068 0.7954957485 
50.68528366 -14.34955502 0.7224252224 0.8099932075 
71.13990784 -16.76148796 1.002344608 0.7464855909 
116.6645584 -11.45755863 1.607649207 0.6256604791 
52.13145447 8.900097847 0.7252883911 0.8093184233 
61.03660202 25.20266533 0.9056158066 0.7678464651 
66.28350067 30.88854408 1.002881765 0.7463677526 
58.69612122 30.60133743 0.9078002572 0.767358005 
18.93917847 12.12821293 0.3084287941 0.9139611721 
17.91101074 12.62741661 0.3005441129 0.9160656929 
55.23728561 42.74417877 0.9578573108 0.7562347651 
14.62232399 12.39331055 0.2628704906 0.9261874557 
15.17505836 14.06843185 0.2837876976 0.920553565 
16.52541924 16.74754333 0.3226678371 0.9101725221 
16.58280182 18.37315369 0.3394248784 0.9057343006 
14.83657646 32.98066711 0.4959628284 0.8653075099 
13.33309555 44.80414963 0.6410787702 0.8294426203 
7.88426733 50.21321106 0.6970711946 0.8160066605 
5.56469202 49.81502151 0.6874251962 0.8183065057 
3.421835899 51.18939209 0.7035793662 0.8144568205 
-1.117343783 50.21097183 0.6887704134 0.8179839849 
-3.359555483 50.25748825 0.6907727122 0.8175055981 
-7.807953835 49.7264595 0.6903122067 0.8176165223 
-10.19248962 50.21797562 0.7027364969 0.8146579862 
-8.509983063 34.07404327 0.4816483855 0.8689273 
-12.00412083 30.20891762 0.4457997084 0.8780615926 
-20.88615417 41.40051651 0.6359313726 0.8306888938 
-21.81382751 35.08660507 0.5665951371 0.84766078 
-22.77988243 33.24509048 0.5526913404 0.851105988 
-24.79366875 32.93952179 0.5653994679 0.8479555845 
-27.17183685 32.94047928 0.5856063962 0.8429728746 
-26.13007355 13.62296677 0.4041299224 0.8887997866 
-15.79896736 1.268166423 0.217364952 0.938563168 
-15.76744556 0.5615478158 0.2163719088 0.938834846 
-15.73623276 -0.1400488317 0.2158164978 0.9389872551 
-91.84938049 -13.16813946 1.272508264 0.6899135709 
-69.68239594 -13.17705536 0.9725667834 0.7529954314 
-66.24558258 -15.60831547 0.9333739877 0.7616534233 
-61.01145935 -17.27300835 0.8695952892 0.7759543657 
-38.77807617 -12.86740208 0.560321629 0.8492139578 
-60.39668274 -26.2061367 0.9028945565 0.7684551477 
-29.49844742 -16.05323219 0.4605668485 0.8742862344 
-19.1720314 -15.38912582 0.3371492028 0.9063345194 
-17.53451157 -15.4061327 0.3201037645 0.9108534455 
-16.03646851 -15.40673828 0.3049763441 0.9148812294 
-15.1584034 -15.91913509 0.301461339 0.915820241 
-15.15901375 -17.40891647 0.3165734708 0.9117912054 
-15.16043949 -20.90566826 0.3541535735 0.90185076 
-15.16128826 -22.99378777 0.3777174354 0.8956732154 
-15.16227055 -25.38467789 0.4054991007 0.8884438872 
-7.433237076 -15.41020012 0.2346372902 0.9338461757 
-5.80836916 -15.41084957 0.2258598208 0.9362407327 
-5.03239727 -15.3948822 0.2221214175 0.9372622371 
-4.2846241 -15.39518547 0.219153896 0.9380732775 
-3.595009804 -15.56816387 0.2191218585 0.9380824566 
-2.872314453 -15.56845188 0.2171095163 0.9386329651 
-2.161367178 -15.56873989 0.2155595422 0.9390578866 
-1.459130883 -15.56901836 0.2144514471 0.9393615127 
0.6239013672 -15.56985283 0.2136996388 0.9395678639 
1.319565415 -15.5701313 0.2142967135 0.9394039512 
2.020527363 -15.57040977 0.2153242379 0.9391221404 
6.511215687 -15.57221127 0.2314756662 0.9347080588 
7.260024071 -15.39986324 0.2334873974 0.9341596365 
9.467494965 -16.17576599 0.2570404112 0.9277640581 
47.18581772 -55.17297745 0.9956249595 0.7479480505 
43.53090668 -46.53779984 0.8739181161 0.7749795318 
45.47973633 -44.47880173 0.8724145293 0.775318861 
54.09381866 -40.34063721 0.9255132675 0.7634221315 
53.87029266 -33.16036606 0.8675363064 0.7764234543 
55.27363205 -30.72092628 0.86723876 0.7764890194 
55.48070145 -27.6805172 0.850343287 0.7803336978 
54.22292709 -24.10296249 0.8137856722 0.7886938453 
54.28151321 -18.54960442 0.7866894603 0.794950366 
54.47891617 -15.94858837 0.7784917951 0.7968546748 
62.72928619 -15.37031746 0.885725379 0.7723141313 
109.1386871 -11.70019531 1.505315185 0.6446179152 
67.87687683 7.888319969 0.9371404648 0.7608184218 
64.81968689 10.47349548 0.9004738927 0.7689985037 
97.63394928 34.33796692 1.419370413 0.660984993 
65.9712677 30.03139496 0.9940792918 0.7482876778 
16.63518524 12.63765621 0.2865096927 0.919824481 
55.21028137 45.95605469 0.9851455688 0.7502390742 
15.21591759 13.85658646 0.2822346389 0.9209707379 
16.6440773 18.11431694 0.3373664916 0.9062783718 
67.43112183 96.55539703 1.615114093 0.6242985725 
20.87605476 32.92121887 0.5346124172 0.8556073904 
14.06706047 34.50250244 0.5109884739 0.8615226746 
12.85013199 36.02423859 0.5245289207 0.8581259251 
13.30891037 51.34113693 0.7273333669 0.808825314 
5.884179592 35.4149437 0.4923416078 0.8662209511 
6.06661129 50.25092697 0.6941552758 0.8167009354 
-0.6702440977 50.20168686 0.6885348558 0.8180404305 
-0.6438817978 11.11815357 0.1527307034 0.9564265013 
-5.27384758 51.3492775 0.7079104185 0.8134287 
-7.355000019 49.72627258 0.6893737912 0.817840457 
-14.42541027 32.84480286 0.4919656217 0.8663159609 
-21.43061447 35.16446304 0.564781189 0.8481172323 
-24.33737183 32.9393425 0.5616586208 0.8488819003 
-29.20363235 32.94129181 0.6037246585 0.8385286331 
-15.80532169 1.410346627 0.2176162601 0.9384943247 
-15.77371788 0.7023656964 0.2165359408 0.9387901425 
-15.74246025 2.441406195e-06 0.2158930898 0.9389662147 
-15.71141529 -0.6995898485 0.2156803906 0.9390243888 
-98.03649902 -13.16565418 1.356548786 0.6732062101 
-73.23884583 -13.17561531 1.020523906 0.7425343394 
-66.24533081 -14.98730946 0.9314541221 0.7620800138 
-60.39395905 -19.44512177 0.8701150417 0.7758372426 
-60.39516449 -22.45668411 0.883669734 0.7727771401 
-60.39642334 -25.56978416 0.8994525075 0.7692269087 
-89.22297668 -42.54899216 1.355614543 0.6733878255 
-30.13378334 -16.05297852 0.4682397246 0.8723323941 
-24.58684921 -16.05522346 0.4027110338 0.889167428 
-17.85230827 -15.40600586 0.323387444 0.9099808335 
-15.15829086 -15.63796806 0.2986782789 0.9165636897 
-15.1595459 -18.71477509 0.3302946389 0.9081494212 
-15.16027355 -20.51873398 0.3498745561 0.9029782414 
-15.16206551 -24.87870026 0.399559021 0.8899853826 
-3.015800714 -15.56839275 0.2174745202 0.9385330677 
-2.3027637 -15.56868172 0.2158337384 0.9389827251 
-0.9016650319 -15.56923771 0.2138770968 0.9395190477 
-0.2078662068 -15.56951618 0.2135415673 0.9396108389 
1.180112243 -15.5700779 0.2141429037 0.9394460917 
1.879785061 -15.5703516 0.2150852978 0.9391880631 
2.587050676 -15.57063484 0.2164657563 0.9388098717 
3.304882765 -15.57092762 0.2183000147 0.9383078814 
4.036445141 -15.5712204 0.2206048518 0.937677145 
6.348930359 -15.57214355 0.2306277454 0.9349399209 
7.093149185 -15.39979458 0.232522428 0.9344233274 
16.62120056 -32.22990799 0.4973184168 0.8649642467 
40.02582932 -57.31337738 0.9587063193 0.7560471892 
46.81941223 -55.74123764 0.9983215332 0.7473600507 
43.20468521 -47.02110672 0.875733614 0.7745684385 
49.24829865 -44.84847641 0.9134942293 0.7660853267 
52.51558304 -43.71291733 0.9370562434 0.7608360052 
53.40832901 -36.94610596 0.8906195164 0.7712116241 
58.60404968 -36.79738617 0.9489980936 0.7581897974 
54.72962952 -31.05927658 0.8629601598 0.7774482965 
55.36176682 -28.23925209 0.8517339826 0.7798797488 
54.28129578 -19.09065437 0.7891228795 0.7943876386 
62.36801529 -15.87145519 0.8825826645 0.7730221748 
72.99114227 -15.15300274 1.022350192 0.7421396971 
117.1696548 -13.61688423 1.61770165 0.6238300204 
62.76353455 12.44817352 0.8775177002 0.7741664648 
78.98651886 26.99204063 1.144735336 0.7161138058 
65.08290863 25.52732277 0.9587664604 0.7560355067 
69.10851288 30.7200489 1.03717804 0.7389363647 
67.71820831 33.78612137 1.037868619 0.7387889028 
19.14442253 11.7845211 0.3083065748 0.9139938354 
18.361269 12.46158218 0.3043286204 0.9150549769 
50.80260468 41.52729416 0.8998599052 0.769135952 
55.54748917 54.32515335 1.065537095 0.7328492403 
21.2890625 32.92105484 0.5376605392 0.8548458219 
17.35109901 32.92263031 0.5103730559 0.8616775274 
13.01388645 35.48228455 0.5183015466 0.8596856594 
11.01599598 49.71889114 0.698387146 0.815692544 
8.79946804 50.19423676 0.698865056 0.8155781627 
6.519726276 50.24152756 0.6947939992 0.816547513 
0.3462939262 8.641952515 0.1186064109 0.9659928679 
-2.461005688 50.23884583 0.6898123026 0.8177363873 
-9.26154232 50.1986618 0.7000466585 0.8152970672 
-11.60322952 50.24724579 0.7072271705 0.8135908246 
-9.941264153 30.41162109 0.4387835562 0.8798595071 
-13.94571781 32.53598404 0.4854617119 0.8679610491 
-14.88096619 30.85045624 0.4697355628 0.8719522953 
-21.52301979 39.97206879 0.6225927472 0.8339262605 
-22.50818253 34.13616562 0.5607534647 0.8491064906 
-23.8869133 32.93915939 0.5580105186 0.8497864008 
-26.20033836 32.94008636 0.5772174001 0.8450386524 
-28.68383408 32.941082 0.5990160704 0.8396807909 
-15.85630322 1.557270527 0.2185006738 0.9382523298 
-15.78000736 0.8434497118 0.2167159915 0.9387406111 
-15.74869061 0.1401855499 0.2159872353 0.9389404655 
-16.13523102 -1.29518795 0.2219901979 0.9372974634 
-66.24507904 -14.36876392 0.9296163917 0.7624887824 
-60.3937149 -18.85354424 0.8676592708 0.7763930559 
-60.39492035 -21.84682655 0.8807821274 0.7734273672 
-60.39616394 -24.93820763 0.8961068392 0.7699777484 
-30.62300301 -15.96537113 0.4736105204 0.8709656596 
-27.71127892 -16.05395508 0.4392022491 0.8797523975 
-25.07123566 -16.05502319 0.4082871974 0.8877221942 
-22.77417374 -16.05595589 0.3821401894 0.8945178986 
-20.7498436 -16.05677605 0.3598171771 0.90036273 
-18.17679214 -15.40587902 0.3267690837 0.9090839028 
-16.61841774 -15.40650368 0.3107756078 0.9133341312 
-15.15940857 -18.3778801 0.326715678 0.9090978503 
-15.16011715 -20.14100456 0.345716089 0.9040730596 
-15.16092777 -22.1260643 0.3678385913 0.89825809 
-7.774233341 -15.41006279 0.23670578 0.9332831502 
-6.932475567 -15.41040516 0.2317404151 0.9346360564 
-6.123759747 -15.41072273 0.227418825 0.9358148575 
-5.34313488 -15.41103458 0.223690033 0.936833024 
-3.888105392 -15.5680418 0.2200584412 0.9378259182 
-3.159824133 -15.56833458 0.2178599536 0.9384281039 
-1.739189386 -15.56890583 0.2148419172 0.9392544031 
-1.040786147 -15.56917953 0.2139932215 0.939486742 
-0.3464306593 -15.56946278 0.2135743648 0.939601779 
1.739340782 -15.57030201 0.2148620486 0.9392491579 
3.88888669 -15.57116222 0.2201054394 0.9378138781 
6.92766571 -15.39972591 0.2315794379 0.9346798658 
34.71607208 -61.81257629 0.9722585678 0.7530649304 
40.49081039 -65.12812042 1.051728845 0.7358093858 
40.00651169 -58.38605499 0.9706573486 0.7534168959 
44.02028275 -53.36611557 0.9487362504 0.7582502365 
48.16210938 -44.64981842 0.9006832838 0.7689538002 
53.70569229 -41.55881882 0.9312976003 0.7621165514 
55.32846451 -28.84562874 0.8557150364 0.7791053057 
29.1189537 -12.02352715 0.4320507646 0.8815916181 
54.17594528 -19.59720612 0.7900939584 0.7941621542 
49.67721558 -15.50807095 0.7137042284 0.8120560646 
62.04802704 -16.37944794 0.8800930381 0.7735860944 
71.72583771 -15.55754375 1.006535888 0.745572865 
96.53896332 9.481249809 1.33032167 0.678378284 
63.49517441 9.103066444 0.8796856403 0.7736763358 
62.88880539 11.89236259 0.8777496219 0.7741129398 
57.99568176 13.66454029 0.8171374202 0.7879211307 
76.19380951 29.10547829 1.118583083 0.7215993404 
65.26741791 31.84095573 0.9959225059 0.7478836775 
57.80675507 31.45858383 0.9025634527 0.7685312033 
17.18014526 12.57584 0.2919895947 0.918354094 
56.4920311 45.34550858 0.9934530258 0.7484225631 
16.7646389 17.60605431 0.33340469 0.9073261619 
57.45149231 65.97844696 1.199181199 0.704703927 
70.02710724 96.56479645 1.635883808 0.6205314994 
17.72715378 32.92248535 0.5127949119 0.861068666 
13.24081039 35.13051605 0.5148742795 0.8605480194 
12.98047829 46.64004898 0.663926363 0.8239306211 
11.54624939 50.00056458 0.7037646174 0.8144152761 
9.258749962 50.1846962 0.6998577714 0.8153435588 
1.543466806 11.1179781 0.1539352387 0.9560905695 
2.473681688 50.49788284 0.6933651567 0.8168884516 
0.2232519537 50.18315506 0.688221395 0.8181141019 
-6.503134727 50.11361694 0.6930294633 0.8169689178 
-8.798559189 50.18906021 0.698792398 0.8155953288 
-21.54098511 40.87290955 0.6336202621 0.8312500119 
-21.01182747 35.90005875 0.5704613924 0.8467043638 
-23.44248009 32.93898392 0.5544506907 0.8506689072 
-28.17233086 32.94087982 0.5944356918 0.8408046365 
-16.24286842 1.741279244 0.2240330428 0.9367396235 
-15.75493336 0.2804467678 0.2160984725 0.9389100075 
-15.72381115 -0.4199194312 0.21571365 0.9390152097 
-16.08222771 -1.146967769 0.2211115956 0.9375376105 
-64.06302643 -16.30278778 0.9065639973 0.7676324248 
-60.39347839 -18.2651062 0.865286231 0.776930809 
-60.39467621 -21.24072647 0.877990067 0.774058342 
-90.56278992 -41.22569275 1.364613891 0.6716243625 
-30.62285614 -15.62037563 0.4714494348 0.871517241 
-28.28815842 -16.05372047 0.4460615516 0.8779932857 
-18.50799751 -15.40574169 0.3302474916 0.9081623554 
-16.91773415 -15.40638638 0.3138000369 0.9125294685 
-15.45923805 -15.390625 0.2991679311 0.9164341688 
-15.15863705 -16.49767494 0.3072561622 0.914272964 
-7.94705534 -15.40999508 0.2377822846 0.932990253 
-6.28313446 -15.41065884 0.2282356173 0.9355922937 
-5.497177601 -15.41097641 0.2243914753 0.9366417527 
-2.586669922 -15.56856918 0.2164361477 0.9388177395 
-1.180004835 -15.56912518 0.2141282558 0.9394497275 
-0.4851220548 -15.56940365 0.2136241049 0.9395880699 
1.599145532 -15.57024384 0.2146563679 0.9393055439 
6.027915001 -15.57201672 0.2289994806 0.9353838563 
6.763554573 -15.3996582 0.2306643575 0.9349293709 
7.598022461 -15.39999962 0.2355021685 0.9336105585 
17.4474411 -31.72327995 0.4965164065 0.8651672602 
40.04182434 -65.70243835 1.055197477 0.7350628972 
40.0879097 -54.25691223 0.9251486063 0.763482213 
43.41547775 -53.5973587 0.9459414482 0.7588684559 
44.64455032 -46.05731201 0.8796709776 0.7736784816 
53.83369827 -38.67501831 0.9090517759 0.7670765519 
55.10420609 -35.98307419 0.9025604129 0.7685314417 
53.88061523 -31.85854912 0.8584368825 0.7784876823 
50.58781052 -26.94946289 0.7860735655 0.7950937748 
55.48077011 -26.45800781 0.8429580331 0.7820086479 
50.05098343 -21.18974495 0.7453924417 0.8045861721 
54.17573166 -20.14397812 0.7926840186 0.7935648561 
54.17682648 -17.44324112 0.7805489898 0.7963757515 
55.80924606 -15.26493645 0.7934896946 0.7933754921 
71.19004822 -16.10583496 1.000981688 0.7467803359 
64.83815002 11.66418934 0.9034746885 0.7683263421 
56.39151382 15.42418957 0.8017709255 0.791461885 
56.47456741 18.18330956 0.8136587143 0.7887222767 
93.12301636 34.6260643 1.362536907 0.6720340848 
60.85403061 25.76367188 0.9062734842 0.7676991224 
50.68125916 24.16919899 0.7700372338 0.7988211513 
57.43803406 30.59872055 0.8925158381 0.7707859278 
19.34613228 11.43897438 0.3082260191 0.9140150547 
18.75249481 12.24538994 0.3071513176 0.914301753 
17.69015121 12.70888138 0.2987248302 0.9165521264 
64.90631866 96.55640411 1.5955441 0.6278710365 
18.10672379 32.92233276 0.5152836442 0.8604443669 
13.30505371 46.21054077 0.659478724 0.8250020742 
9.719589233 50.17514038 0.7008959651 0.8150948882 
1.619208932 10.947258 0.1517665088 0.9566959739 
5.101054668 49.66672134 0.684715569 0.8189512491 
0.1453222632 10.88499451 0.1492909193 0.9573866129 
-1.564794898 50.22025299 0.6890606284 0.8179145455 
-3.759560347 49.60400391 0.6822298765 0.8195467591 
-8.337197304 50.17948532 0.6976034641 0.8158794641 
-10.66060066 50.22768402 0.7041723728 0.814316988 
-11.08289242 31.06971359 0.4523910284 0.8763748407 
-11.90382099 29.19652557 0.4324052334 0.881498754 
-21.4726696 37.44775009 0.5920062065 0.8414024711 
-23.02445984 32.96894836 0.5514813066 0.851405561 
-25.25613785 32.93971252 0.5692413449 0.8470065594 
-27.66829109 32.94067383 0.5899636745 0.8419020176 
-59.21310806 9.567597389 0.822580874 0.7866696119 
-16.28698921 1.892795324 0.2248637378 0.936512351 
-15.79263401 1.126306176 0.2171313465 0.9386271834 
-15.73001957 -0.280002445 0.2157552987 0.9390035868 
-15.782341 -0.9844579697 0.2168595791 0.938701272 
-60.3932457 -17.68015671 0.8629965186 0.7774502039 
-30.83526802 -15.38439465 0.4725866616 0.8712266684 
-28.88371086 -16.05347633 0.4531869292 0.8761718273 
-26.08135223 -16.0546093 0.4200160205 0.8846901059 
-23.65674782 -16.0555954 0.3920947313 0.8919249773 
-21.53052711 -16.05645561 0.3683366179 0.898127079 
-18.82651329 -15.38925743 0.3334628344 0.9073082209 
-15.75355911 -15.40684986 0.3021909893 0.9156247377 
-15.15851974 -16.20560455 0.3043185472 0.9150570035 
-15.15914059 -17.72504807 0.3198567033 0.910918355 
-15.15982342 -19.41171837 0.3377764821 0.9061692953 
-15.16248035 -25.9060936 0.411657244 0.886849761 
-7.264897346 -15.41026783 0.233644411 0.9341167212 
-6.443593502 -15.41059494 0.2290725708 0.9353633523 
-5.652294636 -15.41091251 0.225113675 0.9364442825 
-4.18379879 -15.5679245 0.2210757434 0.9375479817 
-2.729287148 -15.56851006 0.2167645246 0.9387278557 
-2.020322323 -15.5687933 0.2153025717 0.9391282201 
-1.319477558 -15.56907177 0.2142822146 0.9394079447 
2.161640644 -15.57046318 0.2155844122 0.9390513301 
4.333681583 -15.5713377 0.2216628939 0.9373873472 
5.090219498 -15.57164001 0.2246705592 0.9365651608 
5.869125843 -15.57195282 0.2282209694 0.9355961084 
6.634408951 -15.47836399 0.2309496999 0.9348515868 
7.428276062 -15.39993095 0.2344833314 0.933888793 
37.46036911 -62.71619034 1.001842976 0.7465925813 
39.34434509 -54.25439453 0.9191091657 0.7648310661 
50.01988983 -52.53038788 0.9947616458 0.7481362224 
54.18870163 -39.66573715 0.920971036 0.7644145489 
54.23555374 -36.108181 0.8935650587 0.7705519199 
53.81094742 -32.46691895 0.8618899584 0.7777028084 
55.2676239 -30.07680511 0.8628900051 0.7774701715 
55.45189285 -27.05242157 0.846146822 0.7812824249 
49.86743164 -19.04897499 0.7320944071 0.807713747 
54.28172684 -18.01182556 0.7843396068 0.7954957485 
50.68528366 -14.34955502 0.7224252224 0.8099932075 
71.13990784 -16.76148796 1.002344608 0.7464855909 
80.77664948 -15.27497005 1.127414823 0.7197410464 
116.6645584 -11.45783138 1.607649803 0.6256604195 
52.13142395 8.900204659 0.7252877355 0.8093184829 
58.04295731 12.58969688 0.8145239353 0.7885236144 
57.00989151 15.04949188 0.8086245656 0.7898805737 
30.19114113 9.424975395 0.4337508976 0.8811528087 
61.03660202 25.20266533 0.9056158066 0.7678464651 
58.69612122 30.60133743 0.9078002572 0.767358005 
55.21384811 31.98695183 0.87510252 0.7747114897 
18.93917847 12.12821293 0.3084287941 0.9139611721 
17.91105843 12.62740231 0.3005444407 0.9160655737 
55.23736191 42.74404144 0.9578573108 0.7562348843 
15.17505836 14.06839371 0.2837876976 0.9205536842 
66.16072845 96.5559082 1.605211139 0.6261051893 
20.46756744 32.92137527 0.5316336155 0.8563507199 
18.492939 32.92699051 0.5179110765 0.8597847819 
16.60928726 32.92293549 0.5057119727 0.8628494143 
14.83657646 32.98066711 0.4959628284 0.8653075099 
5.029096603 14.50527763 0.2105447352 0.9404326677 
7.884374619 50.21321106 0.6970714927 0.8160066009 
5.564775467 49.81502151 0.6874246001 0.8183064461 
3.421728373 51.18931961 0.7035784721 0.8144571185 
-1.117436528 50.21097183 0.6887704134 0.8179839849 
-3.35966301 50.25748825 0.6907727122 0.8175055385 
-10.19248962 50.21797562 0.7027364969 0.8146579862 
-12.00412083 30.20891762 0.4457997084 0.8780615926 
-20.88615417 41.40051651 0.6359313726 0.8306888938 
-21.48889923 38.26135635 0.6018151641 0.8389971852 
-15.73623466 -0.1400756836 0.2158164978 0.9389872551 
-61.01145935 -17.27300835 0.8695952892 0.7759543657 
-38.77807617 -12.86740208 0.560321629 0.8492139578 
-60.39668274 -26.2061367 0.9028945565 0.7684551477 
-31.53429222 -15.38411617 0.4811869562 0.8690450191 
-15.1584034 -15.91920853 0.3014622331 0.9158200622 
-15.15901375 -17.40891647 0.3165734708 0.9117912054 
-15.16128826 -22.99378777 0.3777174354 0.8956732154 
-8.28868103 -15.39356899 0.2397666872 0.9324501157 
-5.80840826 -15.41084957 0.2258601338 0.9362407327 
-5.032436371 -15.3948822 0.2221217304 0.9372621775 
-3.594970703 -15.56816387 0.2191218585 0.9380824566 
-2.872275352 -15.56845188 0.2171093673 0.9386329651 
-1.459101558 -15.56902313 0.2144514471 0.9393615127 
-0.7626806498 -15.56929684 0.2137765437 0.9395467043 
-0.06926269084 -15.56956959 0.2135256976 0.9396153092 
0.6239013672 -15.56985283 0.2136996388 0.9395678639 
1.319565415 -15.5701313 0.2142967135 0.9394039512 
4.184687614 -15.57127857 0.2211241126 0.9375349879 
7.25998497 -15.39986324 0.2334873974 0.9341596961 
17.03376389 -32.3207283 0.5010411143 0.8640261292 
38.61089706 -54.25214767 0.913218081 0.7661470771 
43.53090668 -46.53779984 0.8739181161 0.7749795318 
45.47973633 -44.47880173 0.8724145293 0.775318861 
53.65112305 -36.41247177 0.8892492652 0.7715243697 
53.87029266 -33.16036606 0.8675363064 0.7764234543 
54.22288132 -24.10305595 0.8137853742 0.7886938453 
54.17528152 -21.24904251 0.7980777025 0.7923153043 
54.28151321 -18.54972076 0.7866900563 0.7949502468 
54.47900391 -15.94847584 0.7784896493 0.796854496 
62.7294426 -15.37023449 0.8857275248 0.772313714 
79.4225769 -15.75207043 1.110435486 0.7233161926 
57.44416809 14.61842728 0.8129082918 0.7888946533 
57.02788925 17.24723625 0.817076385 0.7879362702 
97.63432312 34.33782959 1.419374704 0.6609841585 
63.95614243 25.74424744 0.9454964995 0.7589659095 
65.97097778 30.03108406 0.9940737486 0.7482888699 
59.43785095 30.31855392 0.915060401 0.7657338977 
55.39459991 31.43677711 0.873503089 0.7750737667 
19.04358292 11.9574852 0.3083840907 0.913973093 
16.63512611 12.63765621 0.2865078747 0.9198246598 
55.21028137 45.95605469 0.9851455688 0.7502390742 
67.43112183 96.55539703 1.615114093 0.6242985725 
20.87605476 32.92121887 0.5346124172 0.8556073904 
18.87758827 32.92201996 0.5204568505 0.859146893 
14.06711864 34.50242996 0.5109881759 0.8615228534 
12.85013199 36.02449799 0.524533987 0.8581250906 
12.72709942 41.41625214 0.5941900611 0.8408626914 
13.3088274 51.34124756 0.7273638844 0.808825016 
5.884101391 35.41495132 0.4923417568 0.8662209511 
6.06661129 50.25092697 0.6941552758 0.8167009354 
3.903505802 51.50311279 0.7083477378 0.8133264184 
-0.6702440977 50.20168686 0.6885348558 0.8180404305 
-7.355000019 49.72627258 0.6893737912 0.817840457 
-9.726003647 50.20830154 0.7013668418 0.8149847984 
-12.07746792 50.25708008 0.7088519335 0.8132057786 
-14.42551517 32.84484863 0.4919666946 0.8663156629 
-21.5129509 43.60336685 0.6667996049 0.8232423067 
-24.33737183 32.9393425 0.5616586208 0.8488819003 
-26.68265724 32.94028473 0.5813586116 0.8440181017 
-29.20363235 32.94129181 0.6037246585 0.8385286331 
-15.80532169 1.410346627 0.2176162601 0.9384943247 
-15.77371788 0.7023656964 0.2165359408 0.9387901425 
-15.74246025 2.441406195e-06 0.2158930898 0.9389662147 
-15.71141529 -0.6995898485 0.2156803906 0.9390243888 
-73.23976135 -13.17561531 1.020535827 0.7425316572 
-66.24533081 -14.98713303 0.931453824 0.762080133 
-60.39395523 -19.44523811 0.8701156378 0.7758371234 
-60.39516449 -22.45684052 0.88367033 0.7727770209 
-60.39642334 -25.56993103 0.8994534016 0.7692267299 
-24.58684921 -16.05522346 0.4027110338 0.889167428 
-22.34931564 -16.05612755 0.377396524 0.8957570791 
-17.85230827 -15.40600586 0.323387444 0.9099808335 
-16.3246727 -15.40662098 0.3078373671 0.9141179919 
-15.15829086 -15.63796806 0.2986782789 0.9165636897 
-15.1595459 -18.71477509 0.3302946389 0.9081494212 
-15.16110802 -22.55407143 0.37269333 0.8969860077 
-8.466161728 -15.39349556 0.240928039 0.9321339726 
-7.602944374 -15.41013145 0.2356594801 0.9335684776 
-5.965497971 -15.41079044 0.2266277969 0.9360309839 
-4.432597637 -15.39512634 0.2197065651 0.9379222393 
-3.741220713 -15.56809998 0.2195812911 0.9379568696 
-3.015800714 -15.56839275 0.2174745202 0.9385330677 
-1.599013686 -15.56896496 0.2146379054 0.9393103719 
0.48513183 -15.56979465 0.2136311233 0.9395866394 
1.879746079 -15.5703516 0.2150851339 0.9391880631 
2.587011576 -15.57063484 0.2164654434 0.9388098717 
5.554633617 -15.57182598 0.2267350703 0.9360019565 
16.62120056 -32.22990799 0.4973184168 0.8649642467 
40.02582932 -57.31337738 0.9587063193 0.7560471892 
40.51720428 -52.843647 0.913218677 0.7661471367 
43.20468521 -47.02110672 0.875733614 0.7745684385 
49.24801636 -44.848423 0.9134914875 0.7660861015 
53.85637665 -40.91456985 0.9275820851 0.7629475594 
53.40835953 -36.945961 0.8906185627 0.771211803 
58.60446167 -36.79748917 0.9490130544 0.7581886053 
54.7297554 -31.05921364 0.8629797101 0.7774480581 
55.36204147 -28.23925781 0.8517272472 0.779878974 
54.2157135 -24.67990112 0.8169430494 0.7879681587 
72.99114227 -15.15300274 1.022350192 0.7421396971 
57.23575211 16.75578117 0.8178848028 0.7877501249 
69.10851288 30.7200489 1.03717804 0.7389363647 
19.14442253 11.7845211 0.3083065748 0.9139938354 
50.80260468 41.52729416 0.8998599052 0.769135952 
16.70470238 17.85857964 0.3353610039 0.906809032 
19.26871109 32.92185974 0.5231411457 0.8584737778 
5.230781078 11.09551525 0.1682282984 0.9521132112 
13.01388645 35.48228455 0.5183015466 0.8596856594 
13.89691353 51.71045685 0.7343255281 0.8071859479 
6.519726276 50.24152756 0.6947939992 0.816547513 
0.3462939262 8.641952515 0.1186064109 0.9659928679 
-2.461005688 50.23884583 0.6898123026 0.8177363873 
-11.60322952 50.24724579 0.7072271705 0.8135908246 
-9.391958237 33.74613953 0.4803875685 0.8692469597 
-13.94571781 32.53598404 0.4854617119 0.8679610491 
-37.37287903 8.805530548 0.5265707374 0.8576155901 
-77.16454315 -13.17403316 1.07354486 0.7311375737 
-60.3937149 -18.85354424 0.8676592708 0.7763930559 
-60.39492035 -21.84682655 0.8807821274 0.7734273672 
-60.39616394 -24.93820763 0.8961068392 0.7699777484 
-30.62300301 -15.96537113 0.4736105204 0.8709656596 
-25.07123566 -16.05502319 0.4082871974 0.8877221942 
-20.7498436 -16.05677605 0.3598171771 0.90036273 
-16.6182766 -15.40650368 0.3107740581 0.9133344889 
-15.18654728 -15.39073181 0.2965309024 0.9171395302 
-15.15875912 -16.79545403 0.3102763295 0.9134678245 
-15.15940857 -18.3778801 0.326715678 0.9090978503 
-15.16011715 -20.14100456 0.345716089 0.9040730596 
-15.16092777 -22.1260643 0.3678385913 0.89825809 
-5.34313488 -15.41103458 0.223690033 0.936833024 
-4.581362247 -15.3950634 0.2202796936 0.9377656579 
-3.159824133 -15.56833458 0.2178599536 0.9384281039 
-1.739189386 -15.56890583 0.2148419172 0.9392544031 
-1.040707946 -15.5691843 0.2139932215 0.939486742 
-0.3464306593 -15.56946278 0.2135743648 0.939601779 
0.3464990258 -15.56974125 0.2135792524 0.9396007657 
1.739340782 -15.57030201 0.2148620486 0.9392491579 
3.160331964 -15.57086372 0.2178945839 0.9384183884 
3.88888669 -15.57116222 0.2201054394 0.9378138781 
6.187875748 -15.57207966 0.2297996432 0.9351651073 
34.71607208 -61.81257629 0.9722585678 0.7530649304 
40.49081039 -65.12812042 1.051728845 0.7358093858 
43.35592651 -43.9384613 0.8465411067 0.7811918259 
48.16157913 -44.64971924 0.9006768465 0.7689552307 
51.91149139 -43.9979744 0.933232069 0.7616863847 
53.70559311 -41.55914307 0.931299746 0.7621161938 
56.91828918 -36.44946671 0.9269250035 0.7630887628 
55.32849503 -28.84535027 0.8557153344 0.7791056633 
29.11916924 -12.02347374 0.4320527613 0.8815909624 
49.67733383 -15.50789547 0.7137048244 0.8120558858 
71.72545624 -15.55714798 1.006528854 0.7455742955 
56.80487061 16.08231354 0.8096490502 0.7896444798 
80.11036682 26.582304 1.157552123 0.713442266 
69.6316452 30.21318245 1.040955186 0.7381234765 
65.2668457 31.84101486 0.9959148765 0.747885108 
18.56752968 12.36163044 0.3059098721 0.9146325588 
15.09514618 13.26290035 0.2755732536 0.9227624536 
53.67709732 51.56897354 1.020813227 0.7424731851 
57.45100403 65.97729492 1.198395967 0.7047072649 
70.02804565 96.56518555 1.635875225 0.6205293536 
19.66394043 32.92170334 0.5258994699 0.8577837348 
17.72715378 32.92248535 0.5127949119 0.861068666 
15.88059998 32.9232254 0.5012912154 0.8639621139 
14.52153301 33.87937546 0.5055091977 0.8629009724 
13.24058533 35.13035583 0.5148789883 0.8605487943 
4.736806393 14.49048996 0.2090713382 0.9408364892 
9.258749962 50.1846962 0.6998577714 0.8153435588 
1.543510675 11.11798286 0.1539352387 0.9560905099 
2.473906279 50.49805069 0.6933676004 0.8168878555 
-11.13111782 50.23744583 0.7056722641 0.8139610887 
-9.112814903 33.90882111 0.4815280139 0.8689574003 
-9.815436363 30.9565773 0.4453706145 0.8781710863 
-11.3491888 30.94348145 0.4520042241 0.8764734864 
-12.21408653 29.21102905 0.4342131019 0.8810340166 
-14.45291519 30.65746307 0.4648150504 0.873203516 
-22.27838135 34.45071411 0.562641561 0.848638773 
-23.44225502 32.93898392 0.554449141 0.8506693244 
-25.72507286 32.93989563 0.5731771588 0.8460342288 
-15.75492859 0.280507803 0.2160987854 0.9389100075 
-16.08225632 -1.147028804 0.2211120576 0.9375374913 
-81.5199585 -13.17226982 1.132469416 0.7186791301 
-66.24482727 -13.75245571 0.9278521538 0.7628799677 
-64.0627594 -16.3030262 0.9065597057 0.7676330209 
-60.39347839 -18.2651062 0.865286231 0.776930809 
-60.39467621 -21.24099159 0.8779916167 0.7740581036 
-60.39591599 -24.3111515 0.892855525 0.7707080245 
-30.62285614 -15.62021446 0.4714419544 0.8715174794 
-28.28815842 -16.05372047 0.4460615516 0.8779932857 
-25.56923294 -16.05482292 0.414049685 0.8862302899 
-23.20970726 -16.0557766 0.3870367408 0.8932414055 
-18.50799751 -15.40574169 0.3302474916 0.9081623554 
-16.91788101 -15.40638638 0.3138015568 0.9125290513 
-15.15927696 -18.04799843 0.3232397437 0.910020709 
-15.16166496 -23.90993118 0.3882714808 0.8929201961 
-8.826591492 -15.39334965 0.243347168 0.9314765334 
-7.946967602 -15.40999508 0.2377819717 0.9329903722 
-4.730844498 -15.39500427 0.2208714187 0.9376035929 
-4.035644531 -15.56798267 0.2205590755 0.9376896024 
-2.586747885 -15.56856441 0.2164363116 0.9388177395 
-1.180073261 -15.56912518 0.2141282558 0.9394496679 
0.2079247981 -15.56968212 0.2135426253 0.9396102428 
1.599213839 -15.57024384 0.2146563679 0.9393054843 
2.303027391 -15.57052231 0.2158601284 0.9389757514 
4.483417988 -15.57140064 0.2222245783 0.9372342229 
6.027993202 -15.57201672 0.2289999276 0.9353837371 
6.763466835 -15.3996582 0.2306639105 0.9349294901 
7.598022461 -15.39999962 0.2355021685 0.9336105585 
17.44726562 -31.72327995 0.4965151846 0.8651675582 
40.04182434 -65.70243835 1.055197477 0.7350628972 
44.64469528 -46.05702591 0.8796691895 0.7736787796 
50.86244965 -48.00208282 0.9591265917 0.755954206 
53.83295822 -38.67414474 0.909034729 0.767080009 
53.88074112 -31.85829926 0.8584365845 0.7784877419 
50.58781052 -26.94946289 0.7860735655 0.7950937748 
50.0500679 -21.18962288 0.7453802228 0.8045890331 
54.17573166 -20.14397812 0.7926840186 0.7935648561 
55.80924606 -15.26493645 0.7934896946 0.7933754921 
107.6138763 -14.45230484 1.489083886 0.6476784945 
64.83815002 11.66418934 0.9034746885 0.7683263421 
56.39151382 15.42418957 0.8017709255 0.791461885 
56.47456741 18.18330956 0.8136587143 0.7887222767 
60.85403061 25.76367188 0.9062734842 0.7676991224 
50.68125916 24.16892433 0.7700353861 0.7988215089 
17.69024467 12.70885181 0.2987255752 0.916551888 
14.91657162 12.87266541 0.27021119 0.9242066741 
15.10170841 14.25243664 0.2847767472 0.9202880263 
16.73776817 17.2675724 0.3298046887 0.9082801938 
20.06376457 32.92154312 0.5287272334 0.8570756912 
18.10672379 32.92233276 0.5152836442 0.8604443669 
16.24352074 32.92308044 0.5034754872 0.8634127975 
14.60165977 33.24633408 0.4979826212 0.8647975922 
13.6025877 35.13935852 0.5167506337 0.8600752354 
4.856601238 14.42126179 0.2086886615 0.940941751 
13.30505848 46.20988846 0.6594702005 0.8250041604 
9.719814301 50.17513657 0.7008969188 0.815094769 
1.619208932 10.947258 0.1517665088 0.9566959739 
5.100849628 49.66688538 0.6847174168 0.8189507723 
2.944345713 50.84115219 0.6984109282 0.8156870604 
0.1452783197 10.88497066 0.1492903084 0.9573867321 
-9.461972237 30.79091644 0.4417552054 0.8790971041 
-11.90355206 29.19621086 0.4323992729 0.8815001249 
-15.16374016 32.92152023 0.4970803857 0.8650246859 
-21.20379639 41.11631775 0.6344390512 0.8310506344 
-22.04699898 34.76743698 0.5645834208 0.8481570482 
-27.66829109 32.94067383 0.5899636745 0.8419020176 
-16.28698921 1.892795324 0.2248637378 0.936512351 
-15.76117897 0.4209155142 0.2162271142 0.9388748407 
-15.73002148 -0.2800610363 0.2157554626 0.9390035868 
-15.782341 -0.9844579697 0.2168595791 0.938701272 
-89.20993042 -13.60079098 1.237568021 0.696981132 
-60.45012665 -11.98949718 0.8451730013 0.7815049887 
-64.13787079 -15.71532154 0.9056155086 0.7678465247 
-60.3932457 -17.68015671 0.8629965186 0.7774502039 
-60.39443207 -20.63844681 0.8752785921 0.7746702433 
-60.39566422 -23.68885231 0.8897027373 0.7714176178 
-28.88341331 -16.05347633 0.4531834424 0.8761727214 
-26.08135223 -16.0546093 0.4200160205 0.8846901059 
-21.53052711 -16.05645561 0.3683366179 0.898127079 
-17.22309494 -15.40626431 0.3169080913 0.9117026329 
-15.75342751 -15.40684509 0.302192539 0.9156250954 
-15.15851974 -16.20560455 0.3043185472 0.9150570035 
-15.15914059 -17.72520447 0.319858551 0.9109178782 
-15.15982342 -19.41153717 0.3377744853 0.9061698318 
-15.16146946 -23.44532204 0.3829039037 0.8943192959 
-15.16248035 -25.9060936 0.411657244 0.886849761 
-8.121479034 -15.40992165 0.2388879359 0.9326895475 
-7.264897346 -15.41026783 0.233644411 0.9341167212 
-5.652294636 -15.41091251 0.225113675 0.9364442825 
-4.881147385 -15.3949461 0.221485585 0.9374358058 
-2.729287148 -15.56851006 0.2167645246 0.9387278557 
-2.020253897 -15.5687933 0.2153024226 0.9391282797 
-0.6238134503 -15.56935024 0.2136909366 0.9395697117 
0.06926269084 -15.56962872 0.2135249227 0.9396150708 
0.7627685666 -15.56990719 0.2137837112 0.9395444393 
2.161640644 -15.57046318 0.2155844122 0.9390513301 
3.595703125 -15.57104492 0.2191616744 0.9380713105 
4.333613396 -15.5713377 0.2216627449 0.9373874068 
5.869047642 -15.57194805 0.2282206714 0.9355962276 
7.428364277 -15.39993095 0.2344837934 0.9338886738 
17.32022476 -32.16675186 0.5010224581 0.8640303612 
42.78718567 -53.7937355 0.9426382184 0.7595978379 
47.89380646 -55.00170898 1.000189781 0.7469526529 
50.01988983 -52.53038788 0.9947616458 0.7481362224 
44.81747055 -43.05736542 0.8523263335 0.7798756361 
53.43768311 -42.89348602 0.9397521615 0.7602417469 
53.81094742 -32.46723938 0.8618920445 0.7777023315 
55.2676239 -30.07680511 0.8628900051 0.7774701715 
55.45188522 -27.05266953 0.8461480737 0.7812821269 
54.17438507 -23.50627327 0.8098849058 0.78959167 
49.86750793 -19.048769 0.7320879698 0.807713747 
71.13990784 -16.76148796 1.002344608 0.7464855909 
116.6645355 -11.45731449 1.607650161 0.6256605983 
52.13142395 8.900204659 0.7252877355 0.8093184829 
