# .PCD v0.7 - Point Cloud Data file format
VERSION 0.7
FIELDS x y z intensities
SIZE 4 4 4 4
TYPE F F F F
COUNT 1 1 1 1
WIDTH 942
HEIGHT 1
VIEWPOINT 0 0 0 1 0 0 0
POINTS 942
DATA ascii
-31.92284393 32.35175323 12.56372547 0.8281026483 
-26.46568871 -17.61995888 8.788964272 0.8763865829 
-24.07232285 -17.620924 8.246564865 0.883552134 
-18.14163971 -15.93962574 6.675592899 0.9046382904 
-9.556410789 -15.99935246 5.151570797 0.9255750179 
-7.819560528 -16.21109581 4.97531271 0.9280275106 
-6.948617935 -16.21144295 4.875629425 0.9294173717 
-5.260653973 -16.09304428 4.680254936 0.9321476221 
-4.28472662 -15.39540291 4.417491436 0.9358319044 
-2.855273485 -15.47629642 4.350308418 0.9367762804 
-2.148530245 -15.4765892 4.319214821 0.9372136593 
-1.450463891 -15.47686768 4.297012329 0.9375261068 
-0.7581591606 -15.4771452 4.283472061 0.9377167225 
-0.06885253638 -15.47742367 4.278463364 0.9377872348 
0.6202148199 -15.47770691 4.281928539 0.9377384186 
2.008569241 -15.47826862 4.314526558 0.9372796416 
3.429223537 -15.47727776 4.382136822 0.9363287687 
4.138334751 -15.39881516 4.407725334 0.9359691143 
5.947822094 -16.21668243 4.774777889 0.9308256507 
8.443764687 -16.02161407 5.006268978 0.927596271 
9.340688705 -15.95902538 5.111622334 0.9261302948 
10.2487011 -15.84834194 5.217172623 0.9246639013 
16.24356842 13.52087593 5.842205524 0.916027844 
22.62201691 32.39268875 10.92174339 0.8487699032 
20.5398922 32.39112854 10.60234642 0.8528496623 
14.89266109 32.33298874 9.840325356 0.8626623154 
13.18285656 32.3336792 9.652323723 0.8651006222 
3.552221537 13.70337105 3.913219929 0.942943573 
10.23251438 48.21076202 13.62374878 0.8150284886 
7.999809265 48.14886475 13.49222946 0.8166393638 
5.976054668 49.50064468 13.78280354 0.8130847216 
3.654067278 48.21202087 13.36545467 0.8181951642 
-4.957509518 48.26921844 13.41323662 0.8176084757 
-14.24724293 49.48293686 14.23423576 0.8075928092 
-16.21821785 48.15857697 14.04709339 0.8098650575 
-20.01933861 45.58123016 13.76170254 0.8133422732 
-20.05000877 40.63817978 12.52646828 0.8285661936 
-19.99374008 36.35296249 11.46862507 0.8418297768 
-20.13281441 33.03484726 10.69404888 0.8516762853 
-23.94590187 32.40953064 11.13907337 0.8460052013 
-26.20406151 32.34945679 11.50804424 0.8413317204 
-28.6798439 32.35045624 11.95085526 0.8357571363 
-31.35920906 32.35152817 12.45474434 0.8294586539 
-33.87010193 -16.15218544 10.37284374 0.8557931185 
-24.82075691 -17.83165741 8.448254585 0.8808808923 
-18.47049713 -15.9394989 6.744132042 0.9037079811 
-16.94955444 -15.99636459 6.442475319 0.9078098536 
-15.50625896 -15.99695015 6.158530235 0.9116879702 
-14.36935043 -16.2084446 5.987697601 0.914029181 
-13.12974548 -16.20894241 5.766191483 0.9170737863 
-10.89644051 -16.20985031 5.399169922 0.9221408367 
-9.750649452 -15.99928474 5.179286957 0.9251899123 
-8.915590286 -16.2106514 5.11411953 0.9260956049 
-7.082963943 -16.12709618 4.869021893 0.9295095801 
-5.459682465 -16.2120533 4.728796005 0.9314684272 
-3.702734232 -15.40791702 4.380465508 0.936352253 
-1.589555621 -15.47680855 4.300755024 0.9374734759 
-0.2066357434 -15.47737026 4.278785229 0.9377827048 
0.4822607338 -15.47764874 4.280555725 0.9377577305 
1.173090816 -15.47793198 4.290831566 0.9376131296 
2.571708918 -15.47849846 4.337370872 0.9369582534 
3.991772413 -15.39875698 4.397368908 0.9361146688 
4.732158184 -15.39904976 4.453213215 0.9353301525 
7.434082031 -16.13990021 4.912070274 0.9289090633 
9.223437309 -16.08545113 5.12561512 0.9259357452 
10.15369129 -16.01222801 5.241158485 0.9243310094 
23.05371475 32.39300919 10.99057865 0.8478932381 
18.957407 32.38994217 10.37437344 0.8557735085 
13.51954079 32.33353043 9.687805176 0.8646398783 
4.224291801 13.32306385 3.863581657 0.9436465502 
3.641069174 13.54845428 3.878082514 0.9434411526 
4.095707893 48.32662964 13.4068079 0.8176873922 
1.931982398 48.21359253 13.33836651 0.8185279965 
-8.896298409 48.21892548 13.55410099 0.8158811927 
-13.8213892 49.66148376 14.24965763 0.8074058294 
-15.77808094 48.26719666 14.03726578 0.8099844456 
-12.34549522 32.75503159 9.676235199 0.864790082 
-21.46750641 44.50528336 13.65902042 0.8145970702 
-19.99347115 37.13145065 11.65761566 0.8394446969 
-21.37096214 32.41145325 10.73181725 0.8511935472 
-23.503088 32.40986252 11.06683731 0.8469230533 
-30.8052063 32.35130692 12.3486042 0.8307814598 
-26.91485786 13.13048172 8.278219223 0.8831323385 
-35.32956314 -16.46379662 10.77449894 0.8506482244 
-18.80622101 -15.93936253 6.814637184 0.9027519226 
-17.26670456 -16.00765419 6.508637428 0.9069086313 
-15.99275398 -16.20778084 6.294227123 0.9098325968 
-12.04194355 -15.99835205 5.535192966 0.9202597141 
-11.10703564 -16.20976257 5.431843281 0.9216886759 
-9.946879387 -15.99921608 5.207713604 0.9247952104 
-9.094540596 -16.19299507 5.133887768 0.9258208275 
-5.620820045 -16.21198845 4.743184566 0.9312672615 
-4.581430435 -15.39528084 4.440154076 0.935513556 
-3.845038891 -15.39557838 4.386516094 0.9362671971 
-3.141113281 -15.47618389 4.365303993 0.9365653992 
-1.029194355 -15.39672089 4.265608311 0.9379682541 
-0.3443798721 -15.47731686 4.279446602 0.9377733469 
0.3444482386 -15.47758961 4.279521465 0.937772274 
1.034682631 -15.47787762 4.28809309 0.9376516342 
5.622402191 -16.21656036 4.744522095 0.9312485456 
6.360234261 -16.00582314 4.761003494 0.9310181141 
7.476078987 -16.61880112 5.03736639 0.9271633029 
8.4551754 -16.75985527 5.189101219 0.9250537157 
10.05659676 -16.17568016 5.265156269 0.9239981174 
10.62968254 -15.51311779 5.198400974 0.9249245524 
15.32281685 13.4629364 5.638348103 0.91883564 
15.00236797 14.41317558 5.750874043 0.9172847867 
23.49129295 32.39334106 11.0612278 0.8469944 
21.3579483 32.39174652 10.72528648 0.8512769938 
19.34649849 32.39024734 10.42918777 0.8550695777 
17.72701073 32.92227554 10.33612061 0.8562651873 
15.5957756 32.33270645 9.923141479 0.8615905046 
13.85888195 32.33340073 9.724341393 0.8641657233 
3.831298828 13.76645756 3.950085163 0.9424218535 
3.26407218 14.1349287 4.01014185 0.941572547 
4.569506645 48.75794983 13.53721523 0.8160881996 
2.36197257 48.21320343 13.3435421 0.8184643984 
-1.988500953 49.62938309 13.73004532 0.8137289882 
-6.257148266 48.21651077 13.440238 0.8172770739 
-8.453120232 48.21852493 13.53230286 0.8161482811 
-10.96938229 49.50746536 14.01723576 0.8102280498 
-13.18933105 49.07758713 14.04787159 0.8098554611 
-15.3481369 48.40601349 14.03736496 0.8099831939 
-19.98982811 47.80735397 14.32411575 0.8065037727 
-21.12159157 44.80296326 13.69214344 0.8141921759 
-20.05634499 34.26756668 10.97576714 0.8480818272 
-25.26363945 32.34908295 11.34613419 0.8433793187 
-27.78982544 32.49394226 11.81920624 0.8374106884 
-30.26080322 32.35108948 12.24526787 0.8320713043 
-34.93813705 -15.90458202 10.61155128 0.8527317643 
-19.15551758 -15.94473362 6.889527321 0.9017375112 
-13.61439896 -16.20874786 5.851404667 0.9159013629 
-9.238265991 -16.1112957 5.133852482 0.9258212447 
-4.73089838 -15.39522171 4.4520998 0.9353458285 
-3.990937471 -15.39551926 4.396445751 0.9361276627 
-3.284731388 -15.47612 4.373359203 0.9364522099 
-1.17308104 -15.47698498 4.290570736 0.9376168251 
-0.4822509587 -15.47725773 4.28044939 0.9377592802 
0.206704095 -15.4775362 4.278831005 0.9377820492 
1.581503868 -15.39778042 4.278794765 0.9377825856 
2.982914925 -15.3983469 4.335688114 0.9369819164 
5.461176872 -16.2164917 4.730089188 0.9314503074 
6.277587891 -16.21682358 4.80696249 0.9303759336 
9.01750946 -16.39595413 5.172577858 0.925283134 
9.496684074 -15.58259487 5.044400215 0.9270654321 
10.50291443 -15.62458706 5.204221249 0.9248437881 
15.10990238 14.26016808 5.743233681 0.9173899889 
23.93201637 32.39075851 11.13261795 0.8460871577 
21.77409554 32.39205551 10.78911018 0.8504617214 
18.10661507 32.92211533 10.38623714 0.8556210995 
14.20066357 32.3332634 9.761915207 0.8636784554 
4.48200655 13.30893803 3.882003307 0.943385601 
3.948286057 13.7128191 3.944628 0.9424991012 
5.08381319 49.50100327 13.75552559 0.8134177923 
2.792153358 48.21280289 13.34978962 0.8183877468 
0.6435106993 48.21477509 13.32918072 0.8186408877 
-5.820961952 48.21611404 13.42515087 0.8174623251 
-8.011537552 48.21812439 13.51164532 0.8164013624 
-10.50769234 49.50727463 13.99012947 0.8105578423 
-14.91655445 48.54110718 14.03746796 0.8099820614 
-19.63523865 48.15993118 14.37678432 0.8058662415 
-20.59473038 32.47726822 10.63056469 0.8524883389 
-27.51093483 32.75336838 11.82406139 0.8373495936 
-32.49624634 32.35198212 12.67560768 0.8267129064 
-28.96551132 -17.82998276 9.402300835 0.8683539033 
-26.27257347 -17.83107185 8.777217865 0.8765411377 
-12.65883255 -16.20913696 5.685198784 0.9181895852 
-11.53615189 -16.2095871 5.499725342 0.9207498431 
-10.48258305 -16.21001625 5.336232662 0.9230126143 
-8.432368279 -15.9998312 4.999479771 0.9276908636 
-7.642465591 -16.21116447 4.954257965 0.9283208847 
-6.690336704 -16.00051498 4.794095516 0.9305556417 
-5.140258789 -16.21217918 4.701395035 0.931851685 
-4.137441158 -15.39547062 4.406765938 0.935982585 
-2.008295774 -15.47664261 4.314071178 0.9372860193 
-1.311674833 -15.47692585 4.293617725 0.9375739098 
-0.6201220751 -15.47720432 4.28178978 0.9377403855 
2.148842812 -15.47832775 4.319704056 0.9372068048 
2.855698109 -15.47861004 4.350957394 0.9367671609 
4.285620213 -15.39886951 4.418482304 0.9358180165 
6.112080097 -16.21674919 4.790617943 0.930604279 
8.755908012 -16.26128197 5.105313778 0.9262180328 
10.37595654 -15.73631096 5.210475922 0.9247568846 
24.48521423 32.52988815 11.25483894 0.844535768 
22.19569206 32.39237595 10.85462475 0.8496255875 
18.34635162 32.66568375 10.3564682 0.8560035229 
14.54511166 32.33312607 9.800559998 0.8631775379 
12.84845161 32.3338089 9.617837906 0.8655486107 
4.06342268 13.65460205 3.938125134 0.9425910711 
9.785161018 48.2111702 13.59872055 0.8153347969 
7.772162914 49.49991989 13.85089207 0.8122540116 
5.537690163 49.57234192 13.78849792 0.8130151629 
3.222743988 48.21240997 13.35708141 0.8182980418 
1.073022485 48.21438217 13.33118153 0.8186162114 
-1.073071241 48.21634674 13.3317318 0.8186095357 
-3.309096575 49.50438309 13.71502018 0.8139125705 
-5.386147499 48.21572113 13.41115952 0.8176339269 
-12.31377125 49.30533981 14.04807663 0.8098529577 
-19.13722801 48.15973663 14.32534313 0.8064890504 
-19.99261665 39.62934875 12.26983452 0.8317645192 
-19.99399948 35.59927368 11.28655529 0.8441340327 
-20.3125515 32.6720314 10.63467503 0.852435708 
-22.20832062 32.41082764 10.86081028 0.8495467305 
-24.39438248 32.40919495 11.21310425 0.8450652957 
-27.18796349 32.95987701 11.81082344 0.8375160694 
-31.92284393 32.35175323 12.56372547 0.8281026483 
-26.12328529 13.61929321 8.143716812 0.8849175572 
-29.46757698 -17.77946091 9.513547897 0.8669048548 
-26.46568871 -17.61995888 8.788964272 0.8763865829 
-24.07232285 -17.620924 8.246564865 0.883552134 
-16.86997032 -16.20742798 6.466782093 0.9074786901 
-15.40731907 -16.18061256 6.176195145 0.9114462733 
-12.8925581 -16.20903969 5.725174427 0.9176387191 
-11.75474072 -16.20949936 5.534959793 0.9202629328 
-9.556323051 -15.99935246 5.151558876 0.9255751967 
-6.110209942 -16.21179008 4.789150715 0.930624783 
-5.260653973 -16.09304428 4.680254936 0.9321476221 
-4.284648418 -15.39540291 4.417485714 0.935831964 
-3.565522432 -15.44036865 4.380498409 0.9363517761 
-2.855273485 -15.47629642 4.350308418 0.9367762804 
-0.7582373023 -15.4771452 4.283473015 0.9377167225 
0.6201415658 -15.47770214 4.281929016 0.9377384186 
1.311752915 -15.47798538 4.293913364 0.9375697374 
3.429286957 -15.47726727 4.382136822 0.9363287687 
4.138334751 -15.39881516 4.407725334 0.9359691143 
9.48314476 -22.67974281 6.795341492 0.9030134678 
7.646996975 -16.2207737 4.957197666 0.9282799363 
10.2487011 -15.84834194 5.217172623 0.9246639013 
22.62201691 32.39268875 10.92174339 0.8487699032 
16.67381287 32.33227539 10.05608749 0.8598725796 
14.89266109 32.33298874 9.840325356 0.8626623154 
13.18270493 32.33367538 9.652305603 0.8651008606 
3.552270412 13.70330811 3.913206339 0.9429438114 
8.000019073 48.14885712 13.49223137 0.8166393042 
5.976054668 49.50064468 13.78280354 0.8130847216 
3.654272318 48.21202087 13.36546612 0.8181951046 
1.502299786 48.21399307 13.33424568 0.8185786009 
-0.6439306736 48.21595764 13.32950783 0.8186368346 
-2.874194384 49.62973404 13.74211597 0.8135814667 
-4.957700253 48.26913834 13.41322136 0.8176087141 
-11.87469482 49.41326904 14.04818058 0.8098518252 
-16.21821785 48.15857697 14.04709339 0.8098650575 
-19.99374008 36.35332108 11.46871471 0.8418287039 
-21.78694344 32.41114426 10.79546165 0.8503805399 
-23.94590187 32.40953064 11.13907337 0.8460052013 
-16.94956017 -15.99636459 6.213691235 0.9080275297 
-14.36934566 -16.2084446 5.775065899 0.9142329097 
-11.97441387 -16.20679474 5.372419357 0.9199665785 
-10.75458431 -15.99886417 5.139660358 0.9232974052 
-7.94611311 -16.10559845 4.788150787 0.9283505082 
-5.959311485 -15.39472389 4.401227474 0.9339445829 
-5.211611271 -15.4753437 4.353618145 0.934635222 
-4.455805779 -15.47565174 4.293635368 0.935506165 
-3.711952925 -15.44617367 4.235402584 0.9363523722 
-2.997963905 -15.4762373 4.202876091 0.9368253946 
-2.289140463 -15.47653008 4.171142578 0.9372870922 
-1.589555621 -15.47680855 4.148029327 0.9376235008 
-0.2066357434 -15.47737026 4.126841545 0.9379320741 
1.173100591 -15.47793198 4.138459206 0.9377628565 
2.571723461 -15.47849846 4.183346272 0.93710953 
3.285317421 -15.47878647 4.218783379 0.936594069 
4.756801605 -15.47938156 4.31747818 0.935159862 
5.521728516 -15.4796896 4.381800652 0.9342263341 
8.550410271 -16.58000755 4.973653316 0.9256803989 
9.169965744 -15.99220467 4.914942265 0.9265245795 
23.05379868 32.393013 10.6003046 0.8482399583 
18.92318344 32.33137512 9.987879753 0.8563444614 
15.24277306 32.33284378 9.530282021 0.8624505997 
13.51957989 32.33354187 9.343792915 0.8649516106 
4.542153358 12.38410854 3.516845942 0.9468578696 
4.206650257 13.26743603 3.710823536 0.9440103173 
3.67457509 13.67309761 3.774780512 0.9430732727 
3.049604416 13.76390076 3.758636713 0.9433097243 
6.439819336 49.62598419 13.34189034 0.8128892183 
1.931918859 48.21359253 12.86471081 0.8189345002 
-0.2145654261 48.2155571 12.85504341 0.8190573454 
-2.431240082 49.62955856 13.24777794 0.8140779734 
-20.05302048 46.78463364 13.57092953 0.8100035191 
-21.37099075 32.41145325 10.35072136 0.8515335917 
-23.50310898 32.40986252 10.67385006 0.8472719193 
-28.16947174 32.35025024 11.43661118 0.8372963667 
-25.55340958 13.90626431 7.756392479 0.8865355253 
-34.90890884 -16.2677803 10.26815414 0.8526259065 
-27.74476051 -17.76712608 8.783859253 0.8725043535 
-17.34542847 -16.08054924 6.306114197 0.9067255259 
-15.79226017 -16.00452805 5.994600773 0.9111219645 
-12.04197693 -15.99835205 5.338642597 0.9204491973 
-9.104428291 -16.2105732 4.956954479 0.9259204268 
-8.178271294 -16.21094894 4.84091711 0.9275901914 
-7.292753696 -16.21130562 4.739357948 0.929054141 
-5.365385532 -15.47528553 4.366862774 0.9344430566 
-4.605317116 -15.47559261 4.304816723 0.9353436828 
-3.865077972 -15.47588634 4.252813816 0.9360992908 
-1.728867173 -15.47675514 4.151976109 0.9375661016 
0.3444189429 -15.47758961 4.127556324 0.9379217029 
4.606420994 -15.47931385 4.305857182 0.9353286624 
7.425927639 -16.50730133 4.825889587 0.9278066158 
9.105507851 -16.21246338 4.957534313 0.9259120822 
10.04705524 -16.16032028 5.073362827 0.9242483974 
10.61821747 -15.49633026 5.008380413 0.9251813889 
16.5614109 13.29361534 5.662011623 0.9158392549 
15.90805626 13.97708702 5.645819187 0.9160695076 
15.10689926 14.51369381 5.585319519 0.9169304967 
23.49109268 32.39334106 10.66840935 0.847343564 
17.72701073 32.92227554 9.969072342 0.8565946221 
15.5959425 32.33270264 9.570775986 0.8619084954 
12.18679142 32.33407211 9.212680817 0.8667142391 
4.29366684 13.13493347 3.684303284 0.9443990588 
3.148491144 13.63453102 3.730812073 0.9437173605 
6.889428616 49.62580872 13.35780144 0.8126884699 
0.2145458907 48.21516418 12.85494137 0.8190587163 
-4.195483208 49.50473404 13.24594212 0.8141011596 
-6.256947994 48.21651077 12.9629612 0.8176861405 
-10.99695778 49.63299561 13.55373955 0.8102196455 
-13.33011723 49.60142136 13.69357491 0.8084616661 
-15.69781208 49.5093689 13.84748173 0.8065327406 
-19.98970604 47.80751801 13.81548214 0.8069335222 
-20.04629898 42.52194214 12.53357506 0.8231558204 
-19.9930954 37.93575668 11.43285847 0.8373453617 
-20.05625153 34.26721191 10.58591652 0.8484295607 
-23.06603432 32.41018677 10.60593319 0.8481659293 
-27.78991318 32.49381638 11.39948082 0.8377792835 
-28.0607605 -17.61931419 8.833908081 0.8718266487 
-25.47146034 -17.62036896 8.257582664 0.8796632886 
-23.47281265 -17.83220482 7.859267235 0.8851205707 
-14.69886208 -15.99727249 5.792138577 0.9139906764 
-12.42822742 -16.20922661 5.445701599 0.9189203382 
-9.288896561 -16.19964027 4.978696346 0.9256079197 
-8.360053062 -16.21087074 4.862921715 0.9272733331 
-7.466928482 -16.21123695 4.75857687 0.9287768602 
-6.276542664 -15.39460182 4.432432652 0.9334921837 
-5.519506931 -15.47346878 4.380040646 0.9342519045 
-4.755615234 -15.47553444 4.316403389 0.9351754189 
-2.571386576 -15.47641277 4.182784081 0.9371176958 
-1.868461847 -15.47670174 4.156257629 0.9375037551 
-0.4822412133 -15.4772625 4.128448486 0.9379086494 
0.8963623047 -15.47781944 4.133507729 0.9378349781 
2.982875824 -15.3983469 4.181724548 0.9371331334 
3.719814301 -15.47895718 4.244390965 0.9362217188 
4.456830978 -15.47925472 4.294632912 0.9354916215 
5.213027 -15.47956276 4.354804516 0.9346179962 
5.961191177 -15.3995533 4.402609348 0.9339245558 
7.63279295 -15.47054386 4.599347591 0.9310759306 
8.923114777 -16.22426414 4.936662197 0.9262122512 
9.920034409 -16.27728653 5.082165718 0.9241220355 
10.49160099 -15.60764408 5.013978004 0.9251009822 
16.77208519 13.21901608 5.693590164 0.9153903127 
14.60530758 13.78392315 5.354298115 0.9202255011 
23.93198586 32.3907547 10.73727894 0.8464378715 
21.77426147 32.3920517 10.40600681 0.850802958 
19.70382309 32.33106232 10.0945406 0.8549274206 
15.95209885 32.33256149 9.612376213 0.8613519073 
14.20074177 32.33326721 9.415269852 0.8639921546 
12.51647949 32.3339386 9.24401474 0.8662927151 
4.377036095 12.99717522 3.656445503 0.9448077083 
9.339213371 48.21158218 13.09280205 0.8160392046 
7.340107441 49.62562561 13.37480068 0.8124738932 
2.792153358 48.21281052 12.87571335 0.8187944293 
0.6437157989 48.21477509 12.85584927 0.8190470934 
-3.773119926 49.78209686 13.3106451 0.8132836819 
-8.011357307 48.21812439 13.03182983 0.816812098 
-10.53443336 49.6328125 13.5275526 0.8105491996 
-12.90573502 49.78577042 13.712286 0.8082275987 
-15.2141695 49.50917435 13.80900383 0.8070147038 
-19.99280739 38.76779938 11.62952328 0.8347921968 
-29.72515488 32.35087204 11.71329308 0.8337070942 
-32.49625397 32.35198212 12.22548962 0.8271030188 
-26.33039474 13.43076611 7.880562782 0.8848280311 
-26.27279663 -17.83107185 8.465578079 0.8768268824 
-18.11817741 -16.20692062 6.481137753 0.9042648077 
-16.57219696 -16.20754623 6.1801548 0.9085006118 
-13.86218739 -16.20864868 5.686309814 0.9154937267 
-11.53621101 -16.20959282 5.304434776 0.9209381938 
-10.45571709 -16.16856194 5.13356781 0.9233847857 
-8.432324409 -15.99982643 4.821933746 0.9278635979 
-6.436874866 -15.39453316 4.448729515 0.9332559705 
-3.428950071 -15.47607136 4.226191998 0.9364863038 
-2.71312499 -15.47635937 4.189129353 0.9370253682 
-2.008364201 -15.47664261 4.160876274 0.9374365211 
-1.311679602 -15.47692585 4.14114666 0.9377237558 
-0.620151341 -15.47720432 4.129740715 0.9378898144 
0.06888183206 -15.4774828 4.126545429 0.9379363656 
0.758217752 -15.47776604 4.13152647 0.9378638268 
1.450600505 -15.47804451 4.144736767 0.9376714826 
2.148803711 -15.47832203 4.166305542 0.9373575449 
2.855727434 -15.47861004 4.196451187 0.9369188547 
4.285654068 -15.39887905 4.261581421 0.9359718561 
5.060102463 -15.47949886 4.341948509 0.9348046184 
5.804121017 -15.3994894 4.387652397 0.9341414571 
8.859780312 -16.45418739 4.982431889 0.9255542159 
8.948344231 -14.98132992 4.65248251 0.9303081036 
22.19556999 32.3923645 10.46914768 0.8499692082 
14.54527283 32.33312607 9.452551842 0.8634922504 
4.014829159 13.49131107 3.752857924 0.9433943629 
3.545336723 14.19557381 3.900981665 0.941227138 
2.843305588 14.00902081 3.811146498 0.9425409436 
7.791977406 49.62544632 13.39291096 0.8122454882 
5.560590744 49.77834702 13.35412216 0.8127348423 
1.072924733 48.21438217 12.8577795 0.8190225363 
-7.571054459 48.21772385 13.01299667 0.8170509934 
-12.43392277 49.7855835 13.68120861 0.8086176515 
-14.73523903 49.51580048 13.77373123 0.807456851 
-20.05649185 35.71092606 10.91986942 0.8440414667 
-22.20822144 32.41082764 10.47511196 0.8498904109 
-31.92270851 32.35175323 12.11755848 0.8284902573 
-26.19235229 13.65542984 7.875305176 0.8849002123 
-26.72357941 -17.79172516 8.559477806 0.8755494952 
-24.07243538 -17.62092972 7.953749657 0.8838230371 
-19.85699654 -15.93893242 6.788702011 0.8999567032 
-16.8698864 -16.20742798 6.23712492 0.9076973796 
-15.40727043 -16.18048477 5.956837177 0.9116562605 
-12.89257336 -16.20903587 5.521867752 0.9178342819 
-11.75484371 -16.20949936 5.338427544 0.9204522967 
-10.59913063 -16.07477188 5.133533955 0.9233852029 
-9.682431221 -16.21033859 5.034157276 0.9248111844 
-6.948622704 -16.21144295 4.702492237 0.9295860529 
-5.80231905 -15.39478683 4.386306286 0.9341609478 
-0.7581982017 -15.47715092 4.131363869 0.9378662109 
-0.06888183206 -15.47742367 4.12653017 0.937936604 
1.311752915 -15.47799015 4.141431332 0.9377195835 
2.008569241 -15.47826862 4.161313057 0.9374301434 
2.713510752 -15.47855186 4.189723015 0.9370167255 
3.429575205 -15.47883987 4.226949692 0.9364752769 
8.619785309 -16.35551453 4.929132462 0.9263205528 
9.248837471 -15.80216503 4.881638527 0.9270038009 
16.06883812 13.37542248 5.574133396 0.9170897603 
14.63334465 13.32606697 5.276785851 0.9213337302 
20.50161552 32.33073807 10.20678043 0.8534388542 
18.59254265 32.42508316 9.965310097 0.85664469 
16.67391586 32.33227158 9.698996544 0.8601942658 
14.89258289 32.33298874 9.490880013 0.8629784584 
13.18278313 32.33367538 9.309546471 0.8654115796 
4.518476486 12.66715336 3.585662365 0.9458466768 
4.118588924 13.40254116 3.738210678 0.9436089396 
3.636982441 14.03020954 3.864278078 0.9417636395 
2.94705081 13.88496304 3.784383059 0.9429326653 
3.654057503 48.21202087 12.89083099 0.8186022639 
1.502285123 48.21399307 12.8607378 0.8189849854 
-0.643725574 48.21595764 12.85617065 0.8190430403 
-4.957514763 48.26916885 12.93690491 0.8180169463 
-7.131811142 48.21731186 12.99524498 0.817276299 
-11.92767525 49.63336945 13.60966969 0.8095163703 
-14.25479698 49.50879669 13.73594475 0.8079306483 
-16.67336845 49.50975418 13.92838955 0.8055201173 
-12.69752693 32.80152893 9.377700806 0.8644963503 
-20.05397987 45.66028595 13.29603577 0.8134682178 
-20.05661774 36.46748352 11.09619713 0.8417338133 
-20.13272095 33.03485107 10.3142786 0.8520154953 
-28.67983246 32.35045624 11.52647209 0.8361290097 
-31.35918427 32.35152817 12.01245975 0.8298432827 
-27.30574608 -17.83065224 8.694766998 0.873712182 
-18.48119164 -15.94872761 6.508403301 0.9038819671 
-16.94956017 -15.99636459 6.213691235 0.9080275297 
-14.3693552 -16.2084446 5.775068283 0.9142329097 
-13.12974072 -16.20894241 5.56142664 0.9172706604 
-11.9744091 -16.20682335 5.37242651 0.9199664593 
-10.75457478 -15.99886894 5.139659405 0.9232974648 
-9.826782227 -16.12431335 5.034402847 0.9248076677 
-8.915624619 -16.2106514 4.932518005 0.9262717962 
-7.082924843 -16.12691116 4.696068764 0.9296787381 
-5.211630821 -15.4753437 4.353619576 0.934635222 
-4.455786228 -15.47565174 4.293634892 0.935506165 
-2.997944355 -15.4762373 4.202875614 0.9368253946 
-1.589550734 -15.47680855 4.148029804 0.9376235008 
0.4822509587 -15.47764874 4.128551006 0.9379071593 
1.173120141 -15.47793198 4.138457298 0.9377628565 
1.868667006 -15.47821522 4.156664848 0.9374978542 
4.012553692 -15.47907448 4.263334751 0.9359464049 
4.756801605 -15.47938156 4.31747818 0.935159862 
5.521728516 -15.4796896 4.381800175 0.9342263341 
6.278617859 -15.39968491 4.433896065 0.9334709644 
7.664106369 -16.63938141 4.884251118 0.9269663095 
10.11006832 -15.94343948 5.033324242 0.9248231053 
23.05379868 32.393013 10.6003046 0.8482399583 
20.94657707 32.39143753 10.28438187 0.8524110913 
17.07321167 32.39539719 9.763131142 0.8593380451 
15.24274826 32.3328476 9.53027916 0.8624506593 
4.206650257 13.26743603 3.710823536 0.9440103173 
3.674565315 13.67310715 3.774780512 0.9430732727 
3.049604416 13.76390076 3.758636713 0.9433097243 
8.452031136 48.21240234 13.05009747 0.8165804744 
6.439848423 49.62599564 13.3418932 0.8128891587 
1.931997061 48.21359253 12.86471272 0.8189344406 
-0.2144970596 48.2155571 12.85504532 0.819057405 
-13.82135677 49.66140366 13.74362659 0.8078344464 
-16.1842041 49.50956345 13.88726902 0.806034565 
-12.34545422 32.75491714 9.332594872 0.8651020527 
-20.0077877 37.15810776 11.25169086 0.8397038579 
-20.05613518 33.57799149 10.42772484 0.8505160809 
-21.37097168 32.41145325 10.35072041 0.8515335917 
-23.50308609 32.4098587 10.67384529 0.8472719789 
-25.77724075 32.40816498 11.04035664 0.8424639702 
-33.93005371 32.59780121 12.54462242 0.8230146766 
-25.55341721 13.9062376 7.756392479 0.8865355849 
-34.90890884 -16.2677803 10.26815414 0.8526259065 
-27.74476433 -17.76709747 8.783859253 0.8725044131 
-22.7718544 -17.62145233 7.67676878 0.8876323104 
-18.8103466 -15.94286823 6.574081898 0.9029606581 
-17.34542847 -16.08049583 6.30610323 0.9067256451 
-15.7922163 -16.00456238 5.994599342 0.9111219645 
-12.04193783 -15.99835205 5.338644981 0.9204493165 
-9.104409218 -16.2105732 4.956952572 0.9259204865 
-8.178271294 -16.21094894 4.84091568 0.9275901914 
-7.292753696 -16.21130562 4.739357948 0.929054141 
-5.365400314 -15.47528076 4.366863728 0.9344430566 
-4.605327129 -15.47559261 4.3048172 0.9353436828 
-3.865087748 -15.47588634 4.25281477 0.9360992908 
-3.141108274 -15.47618389 4.210286617 0.9367176294 
-2.417480469 -15.39615917 4.155116081 0.9375203848 
-0.3443700969 -15.47731686 4.127481937 0.9379227161 
0.3444580138 -15.47759533 4.127555847 0.9379216433 
1.729047775 -15.47815609 4.152350903 0.9375606179 
3.86587882 -15.47901535 4.253674507 0.9360867739 
4.606430531 -15.47931385 4.305857182 0.9353286624 
5.366904259 -15.4796257 4.368085384 0.9344252944 
6.119340897 -15.39961624 4.418021679 0.9337010384 
7.425912857 -16.50729752 4.82588768 0.9278066754 
8.38988781 -16.63042641 4.966182232 0.9257878065 
10.04704094 -16.16033363 5.073362827 0.9242483377 
10.61819839 -15.49634933 5.008380413 0.9251813889 
15.90800285 13.97711182 5.645815372 0.9160695672 
15.10690403 14.51372242 5.585325718 0.9169303775 
23.49109268 32.39334106 10.66840935 0.847343564 
19.3114357 32.33121109 10.04053593 0.8556447029 
17.72701073 32.92227554 9.969072342 0.8565946221 
12.18681145 32.3340683 9.212677956 0.8667142391 
4.293671608 13.13490963 3.684299469 0.944399178 
4.569487095 48.75774384 13.05643654 0.8165001869 
-1.988715768 49.62937546 13.24247646 0.8141449094 
-6.256947994 48.21651077 12.9629612 0.8176861405 
-8.453120232 48.21852493 13.05176258 0.8165594339 
-13.33011723 49.60142136 13.69357491 0.8084616661 
-15.69775581 49.50936508 13.84747124 0.8065328598 
-19.98970604 47.80764008 13.8155098 0.8069331646 
-19.9930954 37.93588638 11.43288803 0.8373449445 
-20.05625153 34.26737595 10.58595467 0.8484290838 
-20.9573822 32.4079628 10.28964901 0.8523414731 
-23.06612206 32.41018677 10.60594559 0.8481657505 
-25.31007004 32.4085083 10.96332455 0.8434721828 
-27.78995323 32.49378967 11.39948368 0.8377792835 
-30.26081276 32.35108566 11.81043148 0.8324505687 
-33.08025742 32.35221481 12.33636284 0.8256803155 
-25.51637077 14.18192387 7.78316164 0.8861671686 
-26.60889626 13.27573776 7.928236008 0.8841732144 
-14.69886208 -15.99727249 5.792138577 0.9139906764 
-13.61440372 -16.20874214 5.643618107 0.9161008596 
-12.42822742 -16.20922661 5.445701599 0.9189203382 
-11.3203125 -16.20967484 5.271284103 0.9214123487 
-10.27917004 -16.21010017 5.117510796 0.9236150384 
-7.466938496 -16.21124268 4.758578777 0.9287768602 
-6.276581764 -15.39459705 4.432436943 0.9334921241 
-4.75558567 -15.47553444 4.316400528 0.9351754785 
-4.011694431 -15.47583199 4.262439251 0.9359593987 
-3.284741163 -15.47612476 4.218055725 0.936604619 
-2.571367025 -15.47641277 4.182783604 0.9371176958 
-1.868437409 -15.47670174 4.156255722 0.9375037551 
-0.4822412133 -15.4772625 4.128448486 0.9379086494 
0.2066357434 -15.47754097 4.126884937 0.9379314184 
0.8963623047 -15.47781944 4.133507729 0.9378349781 
2.982856274 -15.3983469 4.181724072 0.9371331334 
7.632905006 -15.47070503 4.599397182 0.9310752153 
8.923163414 -16.22426987 4.936668396 0.926212132 
9.920048714 -16.27726746 5.082165241 0.9241220951 
10.49161148 -15.60761929 5.013974667 0.9251010418 
23.93202019 32.39074707 10.73728371 0.8464378119 
19.70390511 32.33106232 10.09455299 0.8549273014 
14.2006588 32.3332634 9.415254593 0.8639922738 
3.905610323 13.56481457 3.763482332 0.9432387352 
3.236699104 13.46862316 3.693152189 0.9442693591 
9.339213371 48.21158218 13.09280205 0.8160392046 
-3.773041964 49.78209686 13.3106432 0.8132837415 
-5.820971489 48.21612167 12.94840622 0.8178708553 
-8.011327744 48.21812439 13.0318346 0.8168121576 
-12.9058342 49.78577042 13.71229362 0.8082275391 
-15.21427727 49.50917435 13.80901623 0.8070146441 
-17.24183464 48.33569336 13.6822958 0.8086041808 
-19.63547325 48.15993118 13.86628532 0.8062973022 
-22.63446236 32.41051102 10.53969669 0.8490386009 
-27.51087379 32.75328445 11.40414906 0.8377185464 
-29.72515488 32.35087204 11.71329308 0.8337070942 
-32.49625397 32.35198212 12.22548962 0.8271030188 
-26.33069992 13.43083668 7.880640507 0.8848268986 
-26.27279663 -17.83107185 8.465578079 0.8768268824 
-23.82070351 -17.76437187 7.922497272 0.8842520118 
-18.11817741 -16.20692062 6.481137753 0.9042648077 
-15.16086864 -16.20812225 5.917108059 0.9122188687 
-13.86224556 -16.20864868 5.686320782 0.9154936075 
-11.53615189 -16.20959663 5.304426193 0.920938313 
-10.45568371 -16.16857719 5.13356781 0.9233847857 
-9.364253044 -15.99943066 4.942578793 0.9261271358 
-8.432285309 -15.99982643 4.821924686 0.9278637171 
-7.642465591 -16.21116447 4.778329849 0.9284920692 
-4.159028053 -15.47576904 4.272449017 0.9358139038 
-3.428950071 -15.47607136 4.226191998 0.9364863038 
-0.6201904416 -15.47720909 4.129740238 0.9378898144 
2.148842812 -15.47832203 4.166307449 0.9373574853 
3.57442379 -15.478899 4.235485554 0.9363511801 
4.285693169 -15.39887428 4.261582851 0.9359717965 
5.060102463 -15.47949886 4.341948509 0.9348046184 
5.804121017 -15.3994894 4.387652397 0.9341414571 
7.038149357 -16.42031479 4.763077736 0.9287119508 
7.805566311 -16.18211174 4.790052891 0.9283230305 
8.859780312 -16.45418739 4.982431889 0.9255542159 
8.948344231 -14.98132992 4.65248251 0.9303081036 
10.36471176 -15.71924496 5.020003796 0.9250144958 
24.48508263 32.52972412 10.85512352 0.8448903561 
22.19547272 32.3923645 10.46913147 0.8499693871 
16.31138229 32.33242035 9.655111313 0.8607806563 
12.84847164 32.33380127 9.276297569 0.8658584952 
4.014829159 13.49131107 3.752857924 0.9433943629 
3.545336723 14.19557381 3.900981665 0.941227138 
2.843329906 14.00899124 3.811139107 0.9425410032 
7.792094707 49.62544632 13.39291763 0.8122454286 
3.222748995 48.21240997 12.88276196 0.8187049627 
1.072822213 48.21438217 12.85778046 0.8190225363 
-3.30931139 49.50438309 13.22798634 0.8143280745 
-5.386142254 48.2157135 12.93492031 0.8180422187 
-14.73523903 49.51580048 13.77373123 0.807456851 
-17.16549301 49.50994873 13.97087479 0.8049889803 
-20.15475082 44.8025589 13.09797859 0.8159736991 
-20.05649185 35.71092606 10.91986942 0.8440414667 
-20.31253815 32.67198181 10.25702477 0.8527733088 
-22.20812225 32.41082764 10.47510147 0.8498906493 
-24.3943882 32.40919495 10.81491661 0.8454180956 
-27.18791389 32.95983887 11.39139175 0.8378845453 
-29.19843674 32.35066223 11.61869526 0.8349325061 
-31.92283058 32.35175323 12.11758137 0.8284899592 
-34.06059647 -16.61659431 10.10403252 0.854801476 
-26.72357941 -17.79165268 8.559465408 0.875549674 
-24.07231903 -17.62092972 7.953721523 0.8838233948 
-19.85691833 -15.93893242 6.788686275 0.899956882 
-18.28283691 -16.06369781 6.488653183 0.9041592479 
-16.86981964 -16.20742798 6.237110615 0.9076975584 
-12.89257336 -16.20903587 5.521867752 0.9178342819 
-11.75484371 -16.20949936 5.338427544 0.9204522967 
-6.948622704 -16.21144295 4.702492237 0.9295860529 
-4.307075024 -15.47570992 4.282847881 0.9356628656 
-2.148530245 -15.47658443 4.165836334 0.9373643398 
-1.450463891 -15.47686768 4.144422054 0.9376760721 
-0.7581591606 -15.47715092 4.131362915 0.9378662109 
2.008569241 -15.47826862 4.161313057 0.9374301434 
3.429575205 -15.47883987 4.226949692 0.9364752769 
4.159926891 -15.47913742 4.273377895 0.9358004332 
4.90799284 -15.47944069 4.329506874 0.9349852204 
8.619760513 -16.3555584 4.929138184 0.9263204336 
9.248842239 -15.80212116 4.881630898 0.9270039201 
22.62201691 32.39269257 10.53390503 0.8491150141 
16.67400932 32.33227158 9.699008942 0.8601941466 
14.89266586 32.33298874 9.490888596 0.8629783392 
13.1828661 32.33367538 9.309555054 0.8654114604 
4.518471718 12.66722393 3.585680246 0.9458463788 
4.118574142 13.40257072 3.738218069 0.94360888 
3.636957884 14.03024864 3.864287376 0.9417635202 
7.999804497 48.14883804 13.0130806 0.8170496821 
1.502285123 48.21399307 12.8607378 0.8189849854 
-0.643725574 48.21595764 12.85617065 0.8190430403 
-2.874194384 49.62972641 13.25412178 0.8139977455 
-4.957514763 48.26916885 12.93690491 0.8180169463 
-9.340717316 48.21933365 13.09490299 0.8160125613 
-11.92757797 49.63337326 13.6096611 0.8095164299 
-12.69762135 32.80156326 9.377715111 0.8644961119 
-20.05397987 45.66001511 13.29596996 0.8134691119 
-20.05661774 36.46731567 11.09615803 0.8417343497 
-20.13276291 33.03475571 10.31426239 0.8520157337 
-21.78714371 32.41114426 10.41213608 0.8507218957 
-23.94592285 32.40952682 10.74351692 0.8463559747 
-28.67983246 32.35045624 11.52647209 0.8361290097 
-31.35918427 32.35152817 12.01245975 0.8298432827 
-33.95136642 -16.19094467 10.02849674 0.8558045626 
-27.30574608 -17.83065224 8.694766998 0.873712182 
-24.82077599 -17.83165741 8.148251534 0.8811578751 
-20.22734261 -15.94232178 6.866538048 0.8988696337 
-18.48119164 -15.94872761 6.508403301 0.9038819671 
-13.12974072 -16.20894241 5.56142664 0.9172706604 
-11.97441864 -16.20675468 5.372410774 0.9199666977 
-7.946108341 -16.10568619 4.788167477 0.9283502102 
-5.959281921 -15.39472389 4.40122509 0.9339445829 
-2.997944355 -15.4762373 4.202875614 0.9368253946 
-2.289121151 -15.47653008 4.171141624 0.9372871518 
-0.896323204 -15.47709656 4.133315563 0.9378377795 
-0.2066357434 -15.47737026 4.126842022 0.9379320741 
0.4822509587 -15.47764874 4.128551006 0.9379071593 
1.173090816 -15.47793198 4.138455868 0.9377628565 
1.868627906 -15.47821522 4.156663418 0.9374978542 
4.756840706 -15.47938156 4.317481995 0.9351598024 
6.27865696 -15.39968014 4.433901787 0.9334709048 
8.550434113 -16.58000183 4.973653793 0.9256803393 
9.169960976 -15.99219894 4.91493988 0.9265246391 
10.11006832 -15.94343948 5.033324242 0.9248231053 
14.50608349 12.97584724 5.189034462 0.9225898981 
15.13807106 14.80489922 5.645325661 0.9160766006 
23.05369568 32.39302063 10.6002903 0.8482401371 
20.9464798 32.39143372 10.28436756 0.8524113297 
18.92311478 32.33136368 9.987876892 0.8563446403 
17.07308578 32.39532089 9.763100624 0.859338522 
4.206650257 13.26743603 3.710823536 0.9440103173 
3.674565315 13.67310715 3.774780512 0.9430732727 
8.452031136 48.21240234 13.05009747 0.8165804744 
6.439848423 49.62599564 13.3418932 0.8128891587 
4.095703125 48.32659149 12.93070602 0.8180956841 
-4.542612076 48.46889496 12.97907925 0.817481339 
-8.896313667 48.21893311 13.07277775 0.816292882 
-16.1842041 49.50956345 13.88726902 0.806034565 
-20.05302048 46.78453827 13.57090569 0.8100038171 
-20.27380753 42.03056717 12.44143867 0.8243343234 
-20.05613518 33.57799149 10.42772484 0.8505160809 
-23.50308609 32.4098587 10.67384529 0.8472719789 
-25.77724075 32.40816498 11.04035664 0.8424639702 
-33.93113708 32.59854507 12.5449667 0.8230102658 
-25.55341721 13.9062376 7.756392479 0.8865355849 
-27.74476433 -17.76709747 8.783859253 0.8725044131 
-18.8103466 -15.94286823 6.574081898 0.9029606581 
-10.96247578 -15.9987812 5.170768738 0.9228515625 
-9.946874619 -15.99921608 5.022781372 0.9249745011 
-9.104409218 -16.2105732 4.956952572 0.9259204865 
-7.292753696 -16.21130562 4.739357948 0.929054141 
-5.365400314 -15.47528076 4.366863728 0.9344430566 
-4.605327129 -15.47559261 4.3048172 0.9353436828 
-3.865087748 -15.47588634 4.25281477 0.9360992908 
-2.417480469 -15.39615917 4.155116081 0.9375203848 
0.3444580138 -15.47759533 4.127555847 0.9379216433 
8.38988781 -16.63042641 4.966182232 0.9257878065 
10.61819839 -15.49634933 5.008380413 0.9251813889 
17.72701073 32.92227554 9.969072342 0.8565946221 
15.5957756 32.33270645 9.57075882 0.8619087338 
13.85887623 32.33340454 9.379023552 0.8644785285 
12.18666935 32.3340683 9.212669373 0.8667144179 
4.293671608 13.13490963 3.684299469 0.944399178 
3.790502787 13.61983109 3.769236565 0.9431544542 
3.148510695 13.63449955 3.730806589 0.9437174797 
2.36197257 48.21320343 12.86970139 0.8188709617 
0.2145117074 48.21516418 12.8549366 0.8190587163 
-1.988491178 49.62937546 13.24247551 0.814144969 
-6.257158279 48.21651077 12.96296883 0.8176860213 
-15.69799805 49.5093689 13.84749317 0.8065325618 
-19.98970604 47.80706024 13.81536961 0.8069349527 
-20.04627419 42.52202225 12.53359699 0.823155582 
-19.9930954 37.93546677 11.43278885 0.8373461962 
-20.9573822 32.4079628 10.28964901 0.8523414731 
-25.31007004 32.4085083 10.96332455 0.8434721828 
-27.78979111 32.49389648 11.39947701 0.8377793431 
-33.07997894 32.35221481 12.33630943 0.8256809711 
-28.06087303 -17.61930847 8.833932877 0.8718262911 
-19.14886093 -15.93921566 6.642575741 0.9020010233 
-17.79710388 -16.20705795 6.417605877 0.9051571488 
-16.06803703 -15.99672127 6.044993877 0.9104092121 
-14.69874001 -15.99727249 5.792116642 0.9139909744 
-13.61440372 -16.20874214 5.643618107 0.9161008596 
-12.42811012 -16.20922661 5.445683479 0.9189206362 
-10.27908134 -16.21010017 5.117497921 0.9236152172 
-9.288901329 -16.19959641 4.978685379 0.9256080985 
-8.359985352 -16.21087646 4.862911701 0.9272734523 
-4.75558567 -15.47553444 4.316400528 0.9351754785 
-3.284741163 -15.47612476 4.218055725 0.936604619 
-2.571435452 -15.47641277 4.182785988 0.9371176958 
-1.868437409 -15.47670174 4.156255722 0.9375037551 
0.8963623047 -15.47781944 4.133507729 0.9378349781 
2.982914925 -15.3983469 4.181726933 0.9371330738 
3.719804525 -15.47895718 4.244390011 0.9362217188 
5.213007927 -15.47956276 4.354802608 0.9346180558 
9.920048714 -16.27726746 5.082165241 0.9241220951 
16.77208519 13.21901608 5.693590164 0.9153903127 
16.07009697 13.86813164 5.65932703 0.9158774018 
23.93202019 32.39074707 10.73728371 0.8464378119 
18.10660553 32.92212677 10.01741219 0.8559519053 
12.51657677 32.33394241 9.244024277 0.8662925363 
4.377031326 12.99719429 3.65644908 0.9448075891 
3.905663967 13.56478024 3.763477325 0.9432387948 
3.236699104 13.46862316 3.693152189 0.9442693591 
5.08381319 49.50100327 13.26704788 0.8138343692 
0.6435058713 48.21477509 12.85584927 0.8190470934 
-3.773261547 49.78209686 13.3106432 0.8132836223 
-8.011537552 48.21812439 13.03183556 0.8168120384 
-10.53433323 49.6328125 13.52754402 0.8105492592 
-15.21404266 49.50917053 13.80900192 0.8070148826 
-17.24183464 48.33569336 13.6822958 0.8086041808 
-20.63627243 44.80275345 13.15121269 0.8152994514 
-24.84931564 32.40885544 10.88821983 0.8444564342 
-32.49625397 32.35198212 12.22548962 0.8271030188 
-28.96548843 -17.82997704 9.068408966 0.868657887 
-19.49897003 -15.93907928 6.714552879 0.9009934068 
-18.11817741 -16.20692062 6.481137753 0.9042648077 
-13.86213875 -16.20864868 5.686301231 0.9154938459 
-12.65882778 -16.20913696 5.483311653 0.9183838964 
-7.642465591 -16.21116447 4.778329849 0.9284920692 
-6.436953068 -15.39453793 4.448739052 0.9332558513 
-2.71312499 -15.47635937 4.189129353 0.9370253682 
-2.008295774 -15.47664261 4.160876274 0.9374365211 
-1.311679602 -15.47692585 4.14114666 0.9377237558 
-0.6201220751 -15.47720432 4.129739761 0.9378898144 
0.06885253638 -15.4774828 4.126545429 0.9379363656 
0.758256793 -15.47776604 4.13152504 0.9378638268 
3.57442379 -15.478899 4.235485554 0.9363511801 
5.060102463 -15.47949886 4.341948509 0.9348046184 
5.804042816 -15.3994894 4.387644768 0.9341415763 
7.038149357 -16.42031479 4.763077736 0.9287119508 
8.859780312 -16.45418739 4.982431889 0.9255542159 
10.36471176 -15.71924496 5.020003796 0.9250144958 
16.25546837 13.77743912 5.681168079 0.9155668616 
24.48508263 32.52972412 10.85512352 0.8448903561 
22.19568825 32.3923645 10.46916389 0.8499689698 
20.10046387 32.33089828 10.1499424 0.8541923761 
16.31138229 32.33242035 9.655111313 0.8607806563 
4.014829159 13.49131107 3.752857924 0.9433943629 
7.791870117 49.62544632 13.39290905 0.8122455478 
5.560698032 49.77834702 13.35412979 0.8127347827 
3.222748995 48.21240997 12.88276196 0.8187049627 
1.073017597 48.21438217 12.8577795 0.8190224767 
-5.386142254 48.2157135 12.93492031 0.8180422187 
-9.786913872 48.21974564 13.1181612 0.8157179952 
-14.73523903 49.51580048 13.77373123 0.807456851 
-19.1372242 48.15973663 13.81663132 0.8069191575 
-20.05649185 35.71055603 10.91977978 0.8440426588 
-22.20832253 32.41082764 10.47512627 0.8498902321 
-24.3943882 32.40919495 10.81491661 0.8454180956 
-27.18791389 32.95983887 11.39139175 0.8378845453 
-29.19818687 32.35066223 11.6186533 0.8349331021 
-31.92283058 32.35175323 12.11758137 0.8284899592 
-26.19243622 13.65533447 7.875312328 0.8849000931 
-34.06041336 -16.61667633 10.10400105 0.8548018932 
-26.72357941 -17.79165268 8.559465408 0.875549674 
-24.07231903 -17.62092972 7.953721523 0.8838233948 
-19.85708046 -15.93893242 6.788718224 0.8999564648 
-18.28283691 -16.06369781 6.488653183 0.9041592479 
-16.8699646 -16.20742798 6.237138748 0.9076971412 
-15.40726566 -16.18055916 5.956852913 0.9116560817 
-14.11390591 -16.20854187 5.730137825 0.9148709774 
-12.89257336 -16.20903587 5.521867752 0.9178342819 
-11.75473595 -16.20950317 5.338407993 0.9204525352 
-9.682333946 -16.21033859 5.034144402 0.9248113632 
-4.306996822 -15.47570992 4.282842636 0.9356629252 
-3.573750019 -15.47600269 4.234694481 0.9363626838 
-2.855273485 -15.47629642 4.195823669 0.9369279742 
-2.148608446 -15.4765892 4.165838718 0.9373642802 
0.6201415658 -15.47770214 4.129873753 0.937887907 
1.311752915 -15.47799015 4.141431332 0.9377195835 
2.008637667 -15.47826862 4.161316872 0.9374301434 
2.713510752 -15.47855186 4.189723015 0.9370167255 
3.429643393 -15.47883987 4.226953506 0.9364752173 
4.908071041 -15.47943592 4.329512596 0.9349851608 
7.590487957 -16.10091591 4.745829105 0.928960681 
8.619804382 -16.35548019 4.929126263 0.9263206124 
16.06883812 13.37542248 5.574133396 0.9170897603 
14.63335896 13.32596397 5.276770115 0.921333909 
22.62201691 32.39269257 10.53390503 0.8491150141 
20.50143051 32.3307457 10.20675755 0.8534392118 
18.59261703 32.42503738 9.965316772 0.85664469 
4.518476486 12.66708183 3.585645437 0.9458469152 
5.976059437 49.50064468 13.29336166 0.8135018945 
3.654257774 48.21202087 12.8908453 0.8186022043 
1.502285123 48.21399307 12.8607378 0.8189849854 
-2.874194384 49.62972641 13.25412178 0.8139977455 
-7.131811142 48.21731186 12.99524498 0.817276299 
-9.340937614 48.21934128 13.09491539 0.8160123825 
-12.69762135 32.80156326 9.377715111 0.8644961119 
-21.78694344 32.41114426 10.41210651 0.8507222533 
-26.27365875 32.43564987 11.12893486 0.8413062692 
-34.03205872 -16.22934723 9.684017181 0.8558072448 
-27.30579567 -17.83066177 8.376208305 0.8739939332 
-24.82081413 -17.83166313 7.849719048 0.8814241886 
-16.94955063 -15.99636459 5.986045837 0.9082369208 
-14.36933517 -16.2084446 5.563471317 0.9144288898 
-13.12971687 -16.20894241 5.357659817 0.9174600244 
-11.87645435 -16.0742054 5.133234978 0.9207766652 
-9.826738358 -16.12423515 4.849926949 0.9249807596 
-8.915644646 -16.21064568 4.751793861 0.9264413714 
-6.796469688 -15.47470951 4.341046333 0.9325802326 
-5.211611271 -15.4753437 4.194106579 0.9347862601 
-3.711904287 -15.4460125 4.080178261 0.9365001917 
-2.99795413 -15.47623253 4.04888773 0.9369715452 
-1.589550734 -15.47681332 3.996048212 0.9377678633 
-0.2066308558 -15.47737026 3.975636721 0.9380757213 
0.4822656214 -15.47764397 3.977281809 0.9380508661 
1.173100591 -15.47792721 3.986829996 0.9379069209 
2.571723461 -15.47849846 4.030072212 0.9372549653 
4.756811619 -15.47937679 4.159288406 0.9353097081 
5.521738052 -15.47968483 4.221252441 0.9343782663 
7.093261719 -15.40001202 4.354823589 0.9323736429 
9.080492973 -15.83618832 4.688669682 0.9273821712 
15.54801273 13.90788269 5.357973576 0.9174554348 
23.0087738 32.32973862 10.19197464 0.8488458991 
20.90720749 32.33058167 9.888953209 0.8529917598 
15.24278259 32.3328476 9.181097984 0.8627556562 
13.51957035 32.33353043 9.001441002 0.8652516603 
4.875673771 13.2934494 3.636763573 0.9432010055 
3.198256731 14.43480206 3.797417879 0.9407677054 
2.341425657 13.35609055 3.482759714 0.9455395341 
6.248241901 48.14953995 12.47065067 0.8183077574 
1.929418921 48.15126801 12.37733364 0.8195365667 
-4.534633636 48.38507843 12.48191357 0.8181595802 
-8.884496689 48.15562439 12.57726669 0.8169062138 
-11.46133804 49.63318253 13.08350658 0.8102837205 
-16.22518349 49.6350975 13.41237164 0.8060103655 
-20.05290031 46.78436279 13.07361984 0.8104125261 
-20.05665779 37.24880219 10.86590958 0.8396971822 
-19.9945488 33.47486877 10.01480484 0.8512673974 
-23.50312042 32.4098587 10.28277111 0.847607553 
-25.77730179 32.40816116 10.63585472 0.8428090215 
-33.93074036 32.59835052 12.08522511 0.8233948946 
-34.99068832 -16.30590057 9.915112495 0.852633059 
-25.20910072 -17.77263451 7.922171593 0.8803977966 
-20.59713745 -15.93863964 6.689227104 0.8980255723 
-19.12137222 -16.20651054 6.437940598 0.9016614556 
-17.25449181 -15.99623775 6.043212891 0.9074023366 
-15.99283123 -16.20778084 5.848299503 0.9102506042 
-11.10706043 -16.20976257 5.047006607 0.9220542312 
-6.14927721 -15.47496796 4.276975155 0.9335414767 
-4.605312347 -15.47558784 4.147092342 0.9354931116 
-3.141093731 -15.47617912 4.056024551 0.9368639588 
-2.417460918 -15.39615917 4.002873898 0.9376649261 
-1.029218674 -15.39672565 3.963392019 0.9382603765 
0.3444140553 -15.47758961 3.976324797 0.9380653501 
1.729013681 -15.47815609 4.000209332 0.9377050996 
2.430371046 -15.47843933 4.02426672 0.9373424649 
3.141621113 -15.47873211 4.056691647 0.9368538857 
6.151264668 -15.47994328 4.278352261 0.9335208535 
6.963911057 -15.48027039 4.359823704 0.9322987199 
7.94543457 -15.74942589 4.530772209 0.9297395349 
9.000912666 -16.02625656 4.721038342 0.9268996119 
10.03757763 -16.14508438 4.882867813 0.924490869 
49.37506104 -23.00909424 13.99111652 0.7985444665 
16.23692322 13.0331316 5.347681999 0.9176071882 
15.72213364 13.81375217 5.375399113 0.91719836 
23.4910984 32.39334106 10.27751827 0.8476790786 
19.31143951 32.33121872 9.672657013 0.8559635282 
17.72701645 32.92227173 9.603816986 0.8569115996 
15.59593201 32.33270645 9.220106125 0.8622146845 
12.18678665 32.33406448 8.875127792 0.867010653 
4.157773495 12.71924019 3.436985731 0.9462357163 
3.71883297 13.36217499 3.562443972 0.9443288445 
3.293784142 14.26373768 3.759975195 0.9413342476 
2.462563515 13.34757519 3.486114025 0.9454885125 
6.684457779 48.14936447 12.48551941 0.8181121349 
4.558105469 48.63519287 12.54643917 0.8173112273 
2.358793974 48.15110397 12.38219357 0.8194724917 
-1.929492116 48.15282059 12.37772942 0.8195313215 
-10.66978741 48.15634155 12.66866398 0.8157064915 
-20.05678749 38.05662155 11.04905224 0.837228179 
-19.99430847 34.1613884 10.1665554 0.8491928577 
-20.91807365 32.34734344 9.894090652 0.8529214263 
-28.06620026 -17.62272263 8.511884689 0.8720893264 
-25.47146988 -17.62036896 7.955028057 0.8799328208 
