# .PCD v0.7 - Point Cloud Data file format
VERSION 0.7
FIELDS x y z intensities
SIZE 4 4 4 4
TYPE F F F F
COUNT 1 1 1 1
WIDTH 925
HEIGHT 1
VIEWPOINT 0 0 0 1 0 0 0
POINTS 925
DATA ascii
16.01203156 -1.860847116 -1.999662757 0.9370923638 
16.07888222 -1.146723628 -1.999654174 0.9370926619 
16.11392593 -0.4303271472 -1.999650121 0.9370928407 
16.11712837 0.2868969738 -1.999650359 0.9370927811 
16.08847046 1.003574252 -1.999655128 0.9370926023 
15.47112274 4.529135704 -1.999744654 0.93708992 
15.25458908 5.212944031 -1.999775529 0.9370889068 
15.00783157 5.886464596 -1.999810576 0.9370879531 
13.97268486 6.211093426 -1.896848679 0.9402281642 
12.32490253 8.364780426 -1.847777843 0.9417284727 
11.93766594 8.902553558 -1.847321153 0.9417424202 
6.327177525 10.81036568 -1.553837895 0.9507658482 
5.777309418 10.96209908 -1.537145615 0.9512815475 
3.477529287 10.96780205 -1.427309394 0.954682529 
2.355190277 10.62976551 -1.350603938 0.9570649266 
0.4194775224 10.46841812 -1.299653411 0.9586507082 
-0.04700195044 10.56112289 -1.310124516 0.9583246112 
-1.91600585 10.38511181 -1.310016155 0.9583278894 
-2.385195255 10.32908154 -1.315042138 0.9581713676 
-4.514897346 13.81169605 -1.802565217 0.943113029 
-5.725136757 13.35701847 -1.802732944 0.9431077838 
-6.313925743 13.08971119 -1.802814603 0.94310534 
-6.586176395 11.02659416 -1.593274355 0.9495481849 
-9.378681183 10.77063942 -1.771645784 0.9440609217 
-11.20115948 9.841532707 -1.849646449 0.9416713119 
-12.03866673 8.812232018 -1.850739956 0.941637814 
-12.42200375 8.270163536 -1.85122633 0.9416229725 
-13.10854912 7.133730412 -1.851320624 0.9416201115 
-14.30062675 6.205048561 -1.933795571 0.9391001463 
-15.54426765 4.400734901 -2.004056215 0.9369586706 
-15.72481632 3.704958439 -2.004080534 0.9369579554 
-16.07841301 1.579060078 -2.004127502 0.9369565248 
-16.13280487 0.8622680306 -2.004134417 0.9369562864 
-16.14558029 -0.5750170946 -2.004134417 0.936956346 
-16.10397339 -1.292658687 -2.004127979 0.9369565248 
-16.03044128 -2.00774169 -2.004117012 0.9369568229 
-15.92516327 -2.718827963 -2.004101753 0.9369572401 
-15.78827858 -3.424511671 -2.004081726 0.9369578958 
-15.62012196 -4.123393536 -2.004057646 0.9369586706 
-15.42101574 -4.814086914 -2.004029274 0.9369595051 
-14.93160152 -6.165417194 -2.003959656 0.9369616508 
-14.32385731 -7.467795372 -2.003873825 0.9369644523 
-11.46666241 -9.718903542 -1.864667058 0.9412125945 
-9.99679184 -11.0761013 -1.850868464 0.9416338801 
-8.972094536 -11.91985321 -1.850725174 0.9416382909 
-7.87647438 -12.66906261 -1.850572109 0.9416430593 
-7.304945946 -13.006567 -1.850523472 0.9416444302 
-6.120131493 -13.60461903 -1.850559592 0.9416433573 
-5.508896351 -13.86339855 -1.8505615 0.9416433573 
-3.614579916 -14.47284603 -1.850502729 0.9416450262 
-2.313818216 -14.73607349 -1.850410223 0.9416479468 
-0.9948534966 -14.88232899 -1.850276113 0.941652 
1.655527353 -14.82022953 -1.849886775 0.9416639209 
2.313007832 -14.73094654 -1.84976542 0.9416676164 
2.965790987 -14.61243629 -1.849634767 0.9416716695 
4.252128601 -14.2887888 -1.849347353 0.9416804314 
4.883134842 -14.08429623 -1.84919095 0.9416852593 
6.114487171 -13.59208488 -1.848854423 0.9416955113 
6.712431431 -13.30534649 -1.848675132 0.9417009354 
7.296918869 -12.9922657 -1.848488688 0.9417066574 
7.867197037 -12.65408421 -1.848383427 0.9417099357 
8.960000038 -11.9037962 -1.848232388 0.9417145848 
9.480331421 -11.49298573 -1.848160505 0.941716671 
10.46349621 -10.60413265 -1.848024726 0.9417209029 
10.92448235 -10.12782955 -1.847961068 0.9417228103 
13.57815933 -8.694509506 -1.999993682 0.9370791912 
13.95013142 -8.081735611 -1.99994278 0.9370838404 
14.29550743 -7.45300293 -1.999895453 0.9370852709 
14.6125679 -6.809545517 -1.999851942 0.9370866418 
15.15938473 -5.48363018 -1.999777317 0.9370889664 
15.58631802 -4.114467621 -1.999719501 0.9370906949 
15.75374985 -3.417023897 -1.99969697 0.9370913506 
15.89000988 -2.71281004 -1.999678731 0.937091887 
15.99483871 -2.003266573 -1.999664903 0.9370923638 
16.06803131 -1.289765596 -1.999655604 0.9370927215 
16.11903191 0.1434619129 -1.999649882 0.9370928407 
16.09677696 0.8603588939 -1.999653935 0.9370925426 
16.04260635 1.575551748 -1.999662161 0.9370924234 
15.95675755 2.287641525 -1.999674797 0.9370919466 
15.83933067 2.995209932 -1.999691844 0.9370914698 
15.69055653 3.696884632 -1.999713302 0.9370908737 
15.51076603 4.391264439 -1.999739051 0.9370900989 
15.30030727 5.076957703 -1.999769092 0.9370892048 
13.3862257 6.530531883 -1.8476367 0.9417328238 
13.08278751 7.119707108 -1.847679377 0.9417314529 
12.75343704 7.694828987 -1.847725987 0.941730082 
12.39884758 8.254751205 -1.847775817 0.9417285323 
12.01701164 8.796396255 -1.847410798 0.9417396784 
11.61105442 9.320019722 -1.846970201 0.941753149 
11.18241215 9.825063705 -1.846550345 0.9417660236 
10.73195744 10.31055164 -1.846152186 0.9417782426 
9.258856773 11.64056587 -1.845094204 0.9418105483 
8.730414391 12.03892517 -1.844789505 0.9418199062 
6.374213696 10.6717062 -1.541999221 0.9511315823 
5.960663795 11.07002449 -1.559657574 0.9505860209 
5.177719593 10.73416996 -1.478392243 0.95309937 
4.685722351 10.93204117 -1.475444198 0.9531906247 
4.020058632 10.66606426 -1.413985252 0.9550959468 
3.522617102 10.77618122 -1.406397104 0.9553315043 
2.946274281 10.58626175 -1.363138437 0.9566752315 
2.459707022 10.65174294 -1.356122971 0.9568933249 
1.971132755 10.6839056 -1.347708702 0.9571549892 
0.5145605206 10.50391579 -1.304576993 0.9584973454 
0.04666503891 10.48645496 -1.30086112 0.9586130977 
-0.4176074266 10.42212868 -1.293903828 0.9588297606 
-0.8920409679 10.52570534 -1.31039691 0.9583160877 
-2.28208971 10.29988289 -1.308686972 0.9583692551 
-5.003813267 13.64278507 -1.802633047 0.9431108832 
-5.605986118 13.4073143 -1.802716494 0.9431083202 
-6.197124004 13.14526081 -1.80279839 0.9431058168 
-6.837749004 10.57379818 -1.562046528 0.9505121708 
-7.346904278 10.32318306 -1.571792245 0.9502111673 
-8.117568016 10.39427757 -1.636033177 0.9482299089 
-9.377715111 10.96505356 -1.789826035 0.9435033798 
-10.65631771 10.4218092 -1.849019885 0.9416905046 
-11.5470314 9.438824654 -1.850076914 0.9416581392 
-11.95903015 8.918486595 -1.850628138 0.9416412711 
-13.9743576 6.211838245 -1.897076368 0.9402212501 
-15.28695011 5.223999023 -2.004021406 0.9369597435 
-15.69119549 3.844746113 -2.004076004 0.9369580746 
-15.84685516 3.142973661 -2.004096985 0.9369574189 
-15.97111511 2.434951067 -2.004113436 0.9369568825 
-16.0637207 1.722079992 -2.004125595 0.9369565248 
-16.12446976 1.005803227 -2.004133224 0.936956346 
-16.15327263 0.287551254 -2.004136562 0.9369562864 
-16.11484146 -1.149299264 -2.004129648 0.9369565248 
-15.94874477 -2.576994658 -2.004105091 0.9369571805 
-15.65626144 -3.984243155 -2.004062891 0.9369584322 
-15.46329308 -4.676660061 -2.004035234 0.9369593263 
-14.98595715 -6.032319069 -2.003967524 0.9369612932 
-14.70246315 -6.692839146 -2.003927469 0.9369626045 
-13.67987251 -8.589570045 -2.003783226 0.9369669557 
-11.03236294 -10.04676723 -1.851013541 0.9416294694 
-10.57416439 -10.52721214 -1.850949407 0.9416314363 
-9.59592247 -11.42454052 -1.850812435 0.9416356683 
-9.077880859 -11.83962154 -1.850739956 0.9416378736 
-7.420390606 -12.94099045 -1.850517511 0.9416446686 
-5.632055759 -13.81383801 -1.850561976 0.9416432977 
-5.011982441 -14.05065441 -1.850555182 0.9416434169 
-4.381958008 -14.25954533 -1.850537777 0.9416440129 
-3.743256807 -14.44015598 -1.850509644 0.9416447878 
-1.127260685 -14.87300301 -1.850291371 0.9416515827 
1.523579121 -14.83455563 -1.849909902 0.9416632056 
2.181840658 -14.7511425 -1.849790454 0.9416669011 
2.835678577 -14.63845158 -1.849661708 0.941670835 
4.757670879 -14.12743664 -1.849223018 0.9416843057 
5.380937576 -13.9006052 -1.849060059 0.9416891932 
5.993393421 -13.64621544 -1.848889589 0.9416944385 
8.85378933 -11.98315907 -1.848247051 0.941714108 
9.377699852 -11.57700157 -1.848174691 0.9417163134 
10.36878872 -10.69690895 -1.848037839 0.9417204857 
13.09441376 -9.407074928 -2.00006032 0.9370796084 
13.87771416 -8.205602646 -1.999952674 0.937083602 
15.54912567 -4.253015041 -1.999724507 0.9370905757 
16.11968231 -2.441406195e-06 -1.999649763 0.9370927811 
16.10374069 0.7170580626 -1.999652624 0.9370927811 
13.44374943 6.411108017 -1.847628593 0.9417331219 
12.82136726 7.580986023 -1.847716331 0.9417302608 
12.47176743 8.1440382 -1.847765446 0.9417288303 
10.35650349 10.68423271 -1.845849514 0.9417874813 
9.362401962 11.5581007 -1.845158219 0.941808641 
8.837509155 11.961133 -1.844848394 0.9418180585 
6.494560242 10.65661812 -1.548107624 0.9509427547 
6.107993126 11.10572243 -1.572281122 0.950196147 
5.309477329 10.76152325 -1.488606572 0.9527830482 
4.790200233 10.90665054 -1.477712989 0.9531203508 
4.14238739 10.70108128 -1.423459411 0.9548020363 
3.632802725 10.78726292 -1.412006974 0.9551573992 
3.079580069 10.69582462 -1.380721211 0.9561288357 
2.528017521 10.51959419 -1.342110872 0.9573290944 
1.559238195 10.54186058 -1.321947575 0.9579564929 
0.6126464605 10.57872295 -1.314492106 0.9581885934 
0.1395898461 10.45544434 -1.297116637 0.9587296844 
-0.3290868998 10.56128883 -1.310765624 0.958304584 
-0.7925390601 10.45676231 -1.300883889 0.9586123228 
-1.286581993 10.65694809 -1.331596136 0.9576562047 
-2.200341702 10.36690617 -1.314662099 0.9581831694 
-3.646025419 14.06507492 -1.802444696 0.9431166053 
-4.268271446 13.88963318 -1.802530885 0.9431139827 
-6.079838753 13.19977474 -1.802782059 0.9431063533 
-6.66130352 12.91684055 -1.802862644 0.9431037903 
-6.064980507 10.57718754 -1.512502432 0.9520435929 
-11.02293968 10.03820038 -1.849434972 0.9416778088 
-12.27186012 8.489266396 -1.851079106 0.9416275024 
-12.63855457 7.935719967 -1.851256013 0.9416220784 
-13.29449463 6.781335354 -1.851346135 0.9416193962 
-13.66673565 6.221352577 -1.862757087 0.9412702322 
-15.65631294 3.984223604 -2.004071236 0.9369582534 
-15.81822968 3.283864737 -2.00409317 0.9369575381 
-15.94876957 2.57698226 -2.004110575 0.9369570613 
-16.11489296 1.149269938 -2.004132032 0.9369562864 
-16.15009499 0.4312939346 -2.004136086 0.9369562268 
-16.15328407 -0.2875708044 -2.004135847 0.9369562268 
-16.12447166 -1.005844712 -2.004131079 0.936956346 
-15.97106934 -2.434965849 -2.004108191 0.9369570613 
-15.8467865 -3.142976046 -2.004090309 0.9369576573 
-15.50435257 -4.538869381 -2.004041195 0.9369591475 
-15.28686714 -5.223986626 -2.004010201 0.9369601011 
-15.03909397 -5.898727894 -2.003974915 0.9369611144 
-14.45470428 -7.211770058 -2.003892422 0.9369636178 
-13.36520004 -9.070813179 -2.00373888 0.936968267 
-12.94806385 -9.656079292 -2.003680468 0.9369701743 
-10.66750431 -10.43278027 -1.85096252 0.9416310191 
-9.18296814 -11.75847149 -1.850754619 0.9416373968 
-8.650478363 -12.15483856 -1.850680232 0.9416396022 
-5.136836052 -14.00551224 -1.850557566 0.9416433573 
-3.226874828 -14.56398869 -1.850479484 0.9416458011 
-0.5971728563 -14.90319347 -1.850227714 0.9416534901 
0.7297167778 -14.89579105 -1.850040793 0.9416592121 
1.391533136 -14.84771442 -1.849932671 0.9416624904 
2.050488234 -14.77017021 -1.849815011 0.9416661263 
2.705307484 -14.66333008 -1.849688053 0.9416700006 
3.997260571 -14.36267567 -1.849407554 0.9416785836 
4.631840706 -14.16945267 -1.849254608 0.941683352 
5.257119179 -13.94818306 -1.849093318 0.9416882396 
6.474804401 -13.42321301 -1.848747611 0.9416988492 
7.640859127 -12.79232121 -1.848414898 0.941708982 
8.746845245 -12.06157684 -1.848261833 0.9417136908 
9.783539772 -11.2355299 -1.848118544 0.9417180419 
10.27325153 -10.78880882 -1.848050952 0.9417201877 
10.74264622 -10.32078838 -1.847986221 0.941722095 
11.19074154 -9.832370758 -1.847924471 0.9417240024 
12.09204102 -9.706120491 -1.92348206 0.9394147992 
13.01003361 -9.523298264 -2.000071764 0.9370799065 
13.42039967 -8.934889793 -2.000015497 0.937081635 
13.80420399 -8.328830719 -1.999962687 0.9370833039 
14.16071224 -7.706310749 -1.999913931 0.9370847344 
14.48917007 -7.068588734 -1.99986887 0.937086165 
14.78896427 -6.416943073 -1.999827862 0.937087357 
15.30024338 -5.076948166 -1.999758244 0.9370894432 
15.51070309 -4.391252518 -1.999729753 0.9370903373 
15.69050789 -3.696899414 -1.999705434 0.9370910525 
15.83925724 -2.995241642 -1.999685526 0.9370917082 
16.10946274 0.5737206936 -1.99965179 0.9370928407 
16.06804657 1.289763212 -1.999658346 0.9370926619 
15.99486256 2.003259182 -1.999669194 0.9370923042 
15.89005852 2.712822199 -1.999684572 0.9370917082 
15.58637619 4.11449194 -1.999728203 0.9370904565 
15.3881588 4.803818226 -1.999756575 0.9370895624 
15.15949154 5.483666897 -1.999789119 0.9370884895 
14.90081024 6.152704716 -1.999825716 0.9370874763 
13.50022411 6.291186333 -1.847620487 0.9417333007 
13.20731449 6.885653973 -1.847661972 0.9417319894 
12.8882513 7.466537952 -1.847706914 0.9417306185 
12.54367161 8.032670975 -1.847755432 0.941729188 
11.35652828 9.625350952 -1.846715808 0.9417609572 
10.4516058 10.59206963 -1.845923781 0.9417852163 
9.465233803 11.47471619 -1.845223069 0.941806674 
8.405165672 12.26655293 -1.844618678 0.9418251514 
6.613945007 10.6383152 -1.553938985 0.9507626295 
4.884535789 10.85797119 -1.476949096 0.9531440139 
4.329287052 10.89485836 -1.454303265 0.9538456202 
3.702333927 10.67852497 -1.402031541 0.9554669857 
2.632373095 10.54003906 -1.347655058 0.9571566582 
2.202265501 10.85062504 -1.373466611 0.9563542604 
1.65103507 10.51511192 -1.320382953 0.9580051899 
1.187333941 10.62905025 -1.326738238 0.9578074217 
0.7146776915 10.69121552 -1.329209208 0.9577305317 
-0.2367871106 10.64109325 -1.320357084 0.9580059648 
-0.6977685094 10.4385252 -1.297792077 0.9587086439 
-3.148486376 10.5800581 -1.369339585 0.95648247 
-5.962069988 13.25324631 -1.802765727 0.9431068301 
-6.546005726 12.97549248 -1.80284667 0.9431043267 
-7.117045879 12.67201614 -1.802925706 0.9431018829 
-7.1387887 10.41841507 -1.566697955 0.9503685236 
-12.1950922 8.597613335 -1.8509655 0.9416308999 
-12.56735802 8.047830582 -1.851246238 0.941622436 
-13.23357105 6.899343014 -1.851337671 0.941619575 
-15.42110538 4.814111233 -2.004039526 0.9369591475 
-15.62020206 4.123381138 -2.004066467 0.9369583726 
-15.78833199 3.424492121 -2.004089117 0.9369577169 
-15.92518997 2.718806028 -2.004107475 0.9369571209 
-16.03048325 2.007717133 -2.004121304 0.9369567037 
-16.14560509 0.5750073195 -2.004135609 0.9369562268 
-16.15521622 -0.1437768489 -2.004136324 0.9369561672 
-16.13277817 -0.8622826934 -2.004132509 0.936956346 
-15.992136 -2.292746544 -2.004111528 0.9369569421 
-15.87417698 -3.00184083 -2.004094124 0.9369574785 
-15.54418182 -4.400734901 -2.004046917 0.9369589686 
-15.33279991 -5.087756157 -2.004016638 0.9369598627 
-15.09106636 -5.764682293 -2.003982306 0.936960876 
-14.81939411 -6.430146217 -2.00394392 0.9369620681 
-13.44545841 -8.951569557 -2.003750324 0.9369679689 
-12.0927248 -9.70665741 -1.923593283 0.939411521 
-11.20963383 -9.848955154 -1.851038456 0.9416285753 
-10.76001644 -10.33748722 -1.850975394 0.9416306019 
-10.28914738 -10.8055172 -1.850909591 0.9416326284 
-8.212089539 -12.45458698 -1.850618958 0.9416416287 
-7.64964819 -12.80704117 -1.8505404 0.9416438937 
-4.635058403 -14.17936993 -1.850546122 0.9416437745 
-3.999677658 -14.37133312 -1.85052228 0.9416444898 
-2.706420898 -14.66932583 -1.85044241 0.941646874 
2.5747509 -14.68702602 -1.849714279 0.9416692257 
3.225302696 -14.55690384 -1.849580169 0.9416733384 
4.505624771 -14.21036625 -1.849285841 0.9416823387 
5.132841587 -13.99466324 -1.84912622 0.9416872263 
5.749799728 -13.75123024 -1.848958731 0.9416923523 
6.947915077 -13.18323231 -1.848601341 0.9417032003 
9.683202744 -11.32227993 -1.848132491 0.9417175651 
10.17692375 -10.87987804 -1.848064184 0.9417197108 
10.65043926 -10.4160471 -1.847998977 0.9417217374 
11.1028614 -9.931645393 -1.847936511 0.9417236447 
12.92484379 -9.638747215 -2.000083685 0.9370796084 
13.34042454 -9.054003716 -2.000026464 0.937081337 
13.72961426 -8.451394081 -1.999972939 0.9370829463 
14.09161568 -7.832092285 -1.999923348 0.937084496 
15.00774384 -5.886423111 -1.999798059 0.9370883107 
15.25450134 -5.212917328 -1.999764562 0.9370892644 
16.08844757 -1.003559589 -1.999652982 0.9370926619 
16.11711884 -0.2868920863 -1.999649763 0.9370928407 
16.01204109 1.860832453 -1.999666691 0.9370923638 
15.91352463 2.571284056 -1.999680996 0.937091887 
15.78352547 3.276669741 -1.99969995 0.9370914102 
15.62232399 3.975571156 -1.999723196 0.9370906949 
15.43024826 4.666635513 -1.999750495 0.9370898008 
14.95491219 6.019828796 -1.999818087 0.9370877147 
12.9541111 7.351499081 -1.847697616 0.9417309761 
12.24936485 8.473700523 -1.84768486 0.9417313337 
10.54587364 10.49906731 -1.845999002 0.9417829514 
9.049590111 11.80271912 -1.844969392 0.941814363 
8.514247894 12.19163513 -1.844674587 0.9418234229 
6.735507488 10.62180424 -1.560223937 0.9505684972 
6.246557713 10.8938961 -1.557788491 0.9506437182 
3.797499895 10.64595222 -1.40213573 0.9554637671 
3.332753897 10.84526348 -1.40744853 0.9552989006 
2.720336914 10.49407673 -1.344820023 0.9572448134 
1.763740182 10.61540985 -1.334895611 0.9575535059 
0.8105273247 10.69423294 -1.330427408 0.9576926231 
0.3269921839 10.49423313 -1.302444458 0.958563745 
-0.6046532989 10.4409523 -1.297371149 0.9587216973 
-1.573852539 10.64067841 -1.334335923 0.9575708508 
-2.499096632 10.39923096 -1.326752901 0.9578068852 
-4.020322323 13.96311951 -1.802496552 0.9431150556 
-4.637685299 13.7711134 -1.802582264 0.943112433 
-5.843837738 13.30565357 -1.802749395 0.943107307 
-6.430224419 13.03311539 -1.802830577 0.9431048632 
-7.003940105 12.73474121 -1.802910089 0.9431023598 
-6.579111099 10.79537582 -1.568262696 0.9503201842 
-10.27494144 10.60007763 -1.831310272 0.9422324896 
-10.84132099 10.23163319 -1.849225998 0.9416841865 
-11.2889452 9.742016792 -1.849753022 0.9416680932 
-11.71457958 9.232914925 -1.850295663 0.9416514039 
-12.11733341 8.705295563 -1.850852489 0.9416344166 
-12.49520016 8.159322739 -1.851236343 0.9416226149 
-14.63974571 6.197966099 -1.972114921 0.9379315972 
-15.14189434 5.630185604 -2.004001617 0.9369603395 
-15.58285809 4.262248516 -2.00406146 0.9369584322 
-15.75722122 3.564851046 -2.004084826 0.9369577765 
-15.90033436 2.860422373 -2.004104137 0.9369572401 
-16.01194954 2.150300264 -2.004118919 0.9369568229 
-16.13983536 0.7186620831 -2.004135132 0.9369562864 
-16.15586472 -9.765624782e-06 -2.004136562 0.9369561672 
-16.0119381 -2.150305033 -2.004114389 0.9369568825 
-15.90028286 -2.860461473 -2.004097939 0.9369574189 
-15.75712872 -3.564885139 -2.004077435 0.9369580746 
-15.14178658 -5.630160809 -2.003989697 0.9369607568 
-14.58090496 -6.953400612 -2.003910065 0.9369630814 
-13.90449905 -8.221457481 -2.003814697 0.9369660616 
-13.52463818 -8.831605911 -2.003761292 0.9369677305 
-13.11803722 -9.424218178 -2.003704071 0.9369693995 
-11.29686451 -9.748868942 -1.851050735 0.9416283369 
-10.3849659 -10.71360302 -1.850922942 0.9416322708 
-7.188930511 -13.0711031 -1.850528955 0.9416442513 
-4.761108398 -14.13758278 -1.850549579 0.9416436553 
-4.127426624 -14.33520508 -1.850527883 0.9416443706 
-2.83687973 -14.64472103 -1.850452423 0.9416466355 
-0.1991113275 -14.91339302 -1.850175858 0.941655159 
0.4644775391 -14.90673351 -1.850081444 0.94165802 
1.127075195 -14.87047291 -1.849977016 0.9416611791 
1.787348628 -14.80472088 -1.849863291 0.9416646361 
3.095683575 -14.58523369 -1.849607706 0.9416725039 
4.379052639 -14.25013161 -1.849316716 0.9416814446 
5.008193016 -14.04003906 -1.849158764 0.941686213 
5.627270222 -13.80212879 -1.848992705 0.9416912794 
6.235087872 -13.53687 -1.848819256 0.9416965842 
7.412109375 -12.92653751 -1.848450541 0.9417078495 
7.979447842 -12.58346176 -1.848367929 0.9417103529 
8.530941963 -12.21554947 -1.848291636 0.9417127371 
9.582118988 -11.40808296 -1.848146319 0.9417172074 
10.07975101 -10.97012138 -1.848077655 0.9417192936 
10.55737782 -10.51051998 -1.848011732 0.9417213202 
11.66959 -9.713532448 -1.883489966 0.9406363964 
13.25940418 -9.172419548 -2.00003767 0.9370809793 
14.3611908 -7.325446606 -1.999886394 0.9370855689 
14.95484352 -6.019775391 -1.999805212 0.9370880127 
15.43017101 -4.666625977 -1.999740601 0.9370900393 
15.62229443 -3.97557354 -1.999714613 0.9370908141 
16.01203156 -1.860849619 -1.999662757 0.9370923638 
16.11392975 -0.4303466678 -1.999650121 0.9370928407 
16.11712837 0.2869164944 -1.999650359 0.9370927811 
16.08845711 1.003583908 -1.999655128 0.9370926619 
16.02796364 1.718271494 -1.999664307 0.9370923638 
15.65710449 3.836401224 -1.99971807 0.9370906353 
15.47113228 4.529135704 -1.999744654 0.93708992 
15.2545948 5.212934494 -1.999775529 0.9370889068 
13.01895523 7.235903263 -1.847688556 0.9417312145 
10.16390133 10.86601543 -1.845703721 0.9417919517 
9.668642044 11.30525875 -1.84535563 0.9418026209 
9.154564857 11.72211361 -1.845031381 0.9418125153 
8.622660637 12.11575699 -1.844731569 0.9418216944 
6.888949871 10.65295887 -1.57374382 0.9501510262 
5.777319431 10.96209908 -1.537146211 0.9512815475 
5.086953163 10.79041481 -1.479840994 0.9530544281 
3.919843674 10.6874218 -1.412135243 0.9551533461 
2.355190277 10.62976551 -1.350603938 0.9570649266 
0.4194872975 10.46843243 -1.299655318 0.9586506486 
-0.04698242247 10.5611248 -1.310124159 0.9583246112 
-0.5087792873 10.38638687 -1.289978862 0.9589520693 
-1.471191406 10.59714317 -1.327183843 0.9577934742 
-6.31393528 13.08971119 -1.802814603 0.9431052804 
-6.890273094 12.79645252 -1.802894235 0.9431028366 
-6.586176395 11.02659416 -1.593274355 0.9495481849 
-6.922133446 10.49820805 -1.559916854 0.9505779147 
-7.457417011 10.28351021 -1.575793982 0.9500876069 
-10.09343719 10.60000992 -1.815704346 0.94271034 
-10.74922371 10.32715321 -1.849122524 0.9416873455 
-11.6312933 9.33621788 -1.85018599 0.9416547418 
-12.42201614 8.270147324 -1.85122633 0.9416229725 
-12.77795124 7.709588528 -1.851275086 0.9416214228 
-13.10855675 7.133713245 -1.851320624 0.9416201115 
-13.41323471 6.543681622 -1.851362228 0.9416188002 
-14.30065632 6.205048561 -1.933798671 0.9391000867 
-15.0912199 5.764701843 -2.003994703 0.9369602799 
-15.99217224 2.292734385 -2.004116297 0.9369568229 
-16.07841492 1.579079509 -2.004127502 0.9369565248 
-16.1552124 0.1437988281 -2.004136562 0.9369562268 
-16.10396194 -1.292688012 -2.004127979 0.9369565248 
-16.03044319 -2.00776124 -2.004117012 0.9369568229 
-15.92515087 -2.71885252 -2.004101753 0.9369572401 
-15.78827858 -3.424533606 -2.004081726 0.9369578958 
-15.62012196 -4.123403072 -2.004057646 0.9369586706 
-15.42100811 -4.814096451 -2.004029274 0.9369595051 
-15.19136429 -5.495222092 -2.003996611 0.9369604588 
-14.64225578 -6.823378563 -2.003918886 0.9369629025 
-13.97704315 -8.097399712 -2.003824949 0.9369662404 
-13.60280514 -8.710927963 -2.003772497 0.9369673133 
-10.94245338 -10.14446735 -1.851000905 0.9416298866 
-10.47995853 -10.62086391 -1.850936294 0.941631794 
-9.996767044 -11.07612324 -1.850868464 0.9416338801 
-9.493813515 -11.50941849 -1.85079813 0.9416360259 
-8.972055435 -11.91986275 -1.850725174 0.9416383505 
-8.432607651 -12.30667686 -1.850649834 0.9416406155 
-6.719208717 -13.31881809 -1.850546837 0.9416437149 
-5.508896351 -13.86339855 -1.8505615 0.9416433573 
-4.8867383 -14.0946722 -1.850552678 0.9416435361 
-4.254882812 -14.2979393 -1.850533128 0.9416441917 
-0.3317871094 -14.91119576 -1.85019362 0.9416545033 
0.331831038 -14.91044903 -1.850101113 0.9416573644 
1.655541897 -14.82021427 -1.849886775 0.9416639805 
2.313022375 -14.730937 -1.84976542 0.941667676 
2.965810537 -14.61243629 -1.849634767 0.9416716099 
3.612612247 -14.46494579 -1.849495292 0.9416759014 
4.252143383 -14.28877926 -1.849347353 0.9416804314 
4.883134842 -14.08429623 -1.84919095 0.9416852593 
5.504325867 -13.85190868 -1.849026561 0.9416902661 
6.712431431 -13.30535603 -1.848675132 0.9417009354 
7.29689455 -12.99227047 -1.848488688 0.941706717 
7.867177486 -12.65408707 -1.848383427 0.9417099357 
8.421933174 -12.29109383 -1.848306656 0.9417123199 
8.959990501 -11.90381527 -1.848232388 0.9417145252 
9.480312347 -11.4930048 -1.848160505 0.941716671 
10.46351528 -10.60410404 -1.848024726 0.9417209029 
10.92449188 -10.12780952 -1.847961068 0.9417228699 
13.5781641 -8.694506645 -1.999993682 0.9370791912 
15.58630848 -4.114484787 -1.999719501 0.9370906949 
16.06804085 -1.289738774 -1.999655604 0.9370926619 
16.10947227 -0.5736962557 -1.999650478 0.9370927811 
16.09673882 0.860373497 -1.999653935 0.9370926619 
15.69055653 3.696884632 -1.999713302 0.9370908737 
15.51076603 4.391264439 -1.999739051 0.9370900989 
15.30030727 5.076957703 -1.999769092 0.9370892048 
13.082798 7.119692326 -1.847679377 0.9417314529 
12.7534523 7.694818974 -1.847725987 0.9417300224 
12.39886189 8.25472641 -1.847775817 0.9417285323 
9.76923275 11.21917439 -1.845423341 0.9418005347 
7.148906231 10.84213829 -1.611024261 0.9490007758 
5.960663795 11.07002449 -1.559657574 0.9505860209 
5.177719593 10.73416996 -1.478392243 0.95309937 
3.522636652 10.77618122 -1.40639782 0.9553314447 
2.946279287 10.58626461 -1.363138437 0.9566751719 
1.971113205 10.6839056 -1.347708106 0.9571549892 
1.472255826 10.60511684 -1.328184128 0.9577624202 
1.006699204 10.74173832 -1.338356853 0.9574459195 
0.5145458579 10.50391102 -1.304576874 0.9584973454 
0.0466552712 10.48645496 -1.30086112 0.9586130977 
-2.28208971 10.29988289 -1.308686972 0.9583692551 
-4.391757488 13.85121536 -1.80254817 0.9431135058 
-5.003793716 13.6427927 -1.802633047 0.9431108832 
-6.197109222 13.14526844 -1.802798271 0.9431058168 
-6.837768555 10.57376957 -1.562043548 0.9505122304 
-9.930502892 10.61644745 -1.803314686 0.943089962 
-10.6563282 10.4217968 -1.849019885 0.9416905046 
-11.5470314 9.438824654 -1.850076914 0.9416581392 
-11.95903015 8.918486595 -1.850628138 0.9416412711 
-12.70874691 7.822978497 -1.851265669 0.9416217804 
-13.97432804 6.211843014 -1.897072554 0.9402213693 
-15.50440598 4.538910866 -2.00405097 0.936958909 
-15.69119549 3.844711781 -2.004076004 0.9369580746 
-15.84686279 3.142941713 -2.004096985 0.9369574189 
-16.06370354 1.722067833 -2.004125595 0.9369565845 
-16.12448692 1.005786061 -2.004133224 0.9369562864 
-16.15006828 -0.4313085973 -2.004135132 0.9369562864 
-16.11484146 -1.149299264 -2.004129648 0.9369565248 
-15.94874477 -2.576994658 -2.004105091 0.9369571805 
-15.65626431 -3.984225988 -2.004062891 0.9369584322 
-15.23971367 -5.359799862 -2.004003525 0.9369603395 
-14.70247078 -6.692810059 -2.003927469 0.9369626641 
-14.38988018 -7.340107441 -2.003883362 0.9369639158 
-11.03234863 -10.04677963 -1.851013541 0.9416294694 
-10.57415295 -10.52722836 -1.850949407 0.9416314363 
-9.077880859 -11.83962154 -1.850739956 0.9416378736 
-8.541854858 -12.23122787 -1.850665092 0.9416401982 
-6.837480545 -13.25843239 -1.850543022 0.9416438937 
-6.240976334 -13.54958916 -1.850557804 0.9416434169 
-5.632089615 -13.81382275 -1.850561976 0.9416432977 
-5.011952877 -14.05066395 -1.850555182 0.9416434169 
-4.381928444 -14.25955582 -1.850537777 0.9416440129 
-3.097099543 -14.59206963 -1.850470901 0.9416460395 
-1.787802696 -14.80870533 -1.850361586 0.9416493773 
0.8622216582 -14.88851547 -1.850019932 0.9416599274 
2.181840658 -14.7511425 -1.849790454 0.9416669011 
3.483774424 -14.49675274 -1.849524021 0.9416750669 
4.124867916 -14.32631779 -1.849377751 0.9416794181 
4.757666111 -14.12743664 -1.849222779 0.9416843057 
5.380918026 -13.90061951 -1.849060178 0.9416891932 
6.593896389 -13.36479473 -1.848711491 0.9416999221 
7.754355431 -12.72368908 -1.848399043 0.9417094588 
8.85378933 -11.9831543 -1.848247051 0.941714108 
9.883075714 -11.14795589 -1.848104835 0.9417183995 
10.36878872 -10.69690895 -1.848037839 0.9417204857 
10.83398438 -10.22471428 -1.847973585 0.9417224526 
11.27791977 -9.73251152 -1.847945094 0.9417233467 
12.31018543 -9.702240944 -1.944350362 0.9387777448 
14.2286377 -7.579972744 -1.999904633 0.9370850921 
14.55142498 -6.939379692 -1.999860287 0.9370864034 
14.84543419 -6.285024166 -1.999820232 0.9370875955 
15.11003876 -5.61831522 -1.999783993 0.937088728 
15.54913044 -4.253000259 -1.999724507 0.9370905757 
15.72272396 -3.557067871 -1.999701142 0.9370913506 
15.86526299 -2.85412097 -1.999682069 0.9370918274 
16.05594635 1.432705045 -1.999660134 0.9370926023 
15.97642517 2.14552474 -1.999671936 0.937092185 
15.72279263 3.557070255 -1.999708652 0.9370910525 
14.63784122 6.197187424 -1.971857667 0.9379394054 
13.44374943 6.411127567 -1.847628593 0.9417330623 
13.14555645 7.002973557 -1.847670555 0.941731751 
12.47173786 8.144052505 -1.847765446 0.9417288899 
12.09539509 8.689536095 -1.847501516 0.9417369366 
11.269907 9.725590706 -1.8466326 0.9417635202 
10.35650349 10.68423271 -1.845849514 0.9417874813 
6.494570255 10.65658665 -1.548105478 0.9509428144 
5.30943346 10.76148415 -1.488598347 0.952783227 
4.790175438 10.90666485 -1.477712989 0.9531203508 
3.632797718 10.78726006 -1.41200614 0.9551573992 
2.084799767 10.76230717 -1.359883666 0.9567763805 
1.559238195 10.54186058 -1.321947575 0.9579564929 
0.6126464605 10.57872295 -1.314492106 0.9581885934 
0.1395898461 10.45544434 -1.297116637 0.9587296844 
-0.3290722668 10.56129837 -1.310767174 0.9583045244 
-0.7925195098 10.45676231 -1.300883412 0.9586123228 
-1.286562443 10.65694809 -1.331596375 0.9576562047 
-3.646054506 14.06506824 -1.802444696 0.9431166053 
-4.268310547 13.8896265 -1.802530885 0.9431139827 
-5.486420631 13.45654964 -1.802699804 0.9431087971 
-6.661318302 12.91683102 -1.802862644 0.9431038499 
-6.065000057 10.57718754 -1.512502551 0.9520435333 
-6.759311199 10.6593504 -1.565734029 0.9503982067 
-7.226201057 10.34727478 -1.565607905 0.9504021406 
-9.827802658 10.69593716 -1.801886201 0.9431337714 
-11.02293968 10.03820038 -1.849434972 0.9416778088 
-11.8784523 9.024036407 -1.850516677 0.9416447282 
-12.97941399 7.365817547 -1.851302862 0.9416205883 
-13.66679859 6.221344948 -1.862762451 0.9412700534 
-15.46338367 4.676662445 -2.004045248 0.9369590282 
-15.65631294 3.984223604 -2.004071236 0.9369582534 
-15.81822968 3.283864737 -2.00409317 0.9369575381 
-16.04774666 1.864982843 -2.004123449 0.9369565845 
-16.11489296 1.149269938 -2.004132032 0.9369562864 
-16.15009499 0.4312939346 -2.004136086 0.9369562268 
-16.15328026 -0.2875463665 -2.004135847 0.9369562268 
-16.06368065 -1.722077608 -2.004122019 0.9369567037 
-15.69112492 -3.844782591 -2.004067898 0.936958313 
-15.28686047 -5.224020958 -2.004010201 0.9369600415 
-15.03908157 -5.898756981 -2.003974915 0.9369611144 
-14.76151562 -6.561777115 -2.003935814 0.9369623065 
-14.45470428 -7.211770058 -2.003892422 0.9369636178 
-13.75584888 -8.467534065 -2.003793955 0.936966598 
-12.94806385 -9.656079292 -2.003680468 0.9369701743 
-11.87918663 -9.710412025 -1.90330863 0.9400310516 
-9.697345734 -11.33876705 -1.850826621 0.9416351318 
-9.182939529 -11.75849342 -1.850754619 0.9416373968 
-8.10082531 -12.52711201 -1.850603461 0.941642046 
-7.535248756 -12.87451172 -1.850524426 0.9416444302 
-6.955161095 -13.19705582 -1.85053885 0.9416440129 
-6.361274242 -13.49350548 -1.850555778 0.9416434765 
-5.754760742 -13.76316833 -1.850562096 0.9416432977 
-3.871616125 -14.40630341 -1.8505162 0.9416446686 
-3.226874828 -14.56398869 -1.850479484 0.9416458011 
-2.575756788 -14.69271946 -1.850432277 0.9416472912 
-0.597192347 -14.90319824 -1.850227714 0.9416534901 
0.06635253876 -14.91429138 -1.85013926 0.9416562319 
2.050537109 -14.77016068 -1.849815011 0.9416661263 
3.354701996 -14.52739716 -1.849552274 0.9416741729 
3.997299671 -14.36266613 -1.849407554 0.9416785836 
4.631840706 -14.16945267 -1.849254608 0.941683352 
5.257119179 -13.94818306 -1.849093318 0.9416882396 
7.064799786 -13.12061024 -1.848564148 0.9417043924 
8.201992035 -12.43924522 -1.848337173 0.9417113662 
9.78350544 -11.23554897 -1.848118544 0.9417181015 
10.27322769 -10.78883743 -1.848050952 0.9417201877 
13.80421829 -8.328801155 -1.999962687 0.9370833039 
14.16071224 -7.706310749 -1.999913931 0.9370847344 
14.78896427 -6.416943073 -1.999827862 0.937087357 
15.30024338 -5.076948166 -1.999758244 0.9370894432 
15.51070309 -4.391252518 -1.999729753 0.9370903373 
15.83925724 -2.995241642 -1.999685526 0.9370917082 
15.95667934 -2.287656307 -1.999669909 0.9370922446 
16.10949707 0.5737499595 -1.99965179 0.9370927215 
16.06806564 1.289794922 -1.999658346 0.9370925426 
15.75377941 3.417040825 -1.999704242 0.9370912313 
15.58637619 4.11449194 -1.999728203 0.9370904565 
15.15949154 5.483666897 -1.999789119 0.9370884895 
13.20731449 6.885653973 -1.847661972 0.9417319894 
12.8882513 7.466537952 -1.847706914 0.9417306185 
11.77619648 9.112714767 -1.847144127 0.9417479038 
11.35655212 9.625331879 -1.846715808 0.9417609572 
10.91472626 10.11875916 -1.846308708 0.9417734146 
10.45158672 10.59209919 -1.845923781 0.9417851567 
8.943881989 11.88241673 -1.844908357 0.9418162107 
8.40514183 12.266572 -1.844618678 0.9418250918 
6.613945007 10.6383152 -1.553938985 0.9507626295 
6.198486328 11.03651333 -1.570231915 0.9502594471 
5.439052582 10.78127384 -1.497974634 0.9524930716 
4.329287052 10.89485836 -1.454303265 0.9538456202 
3.702333927 10.67852497 -1.402031541 0.9554669857 
2.632373095 10.54003906 -1.347655058 0.9571566582 
0.2338427752 10.50941658 -1.304020524 0.9585146904 
-0.6977929473 10.43851757 -1.297790766 0.9587087035 
-2.61328125 10.46363735 -1.337884545 0.9574605227 
-3.148486376 10.5800581 -1.369339585 0.95648247 
-5.366376877 13.50472164 -1.802683234 0.9431093335 
-6.546005726 12.97549248 -1.80284667 0.9431043267 
-7.117045879 12.67201614 -1.802925706 0.9431018829 
-7.138764381 10.41842747 -1.566697001 0.9503685236 
-7.706318378 10.23825169 -1.589627624 0.9496606588 
-9.659032822 10.70181847 -1.788327932 0.943549335 
-11.37588882 9.641714096 -1.849860549 0.9416647553 
-11.79698181 9.128809929 -1.850405812 0.9416481256 
-12.1950922 8.597613335 -1.8509655 0.9416308999 
-12.56735802 8.047830582 -1.851246238 0.941622436 
-13.52767754 6.303981781 -1.851377964 0.9416183233 
-15.19145489 5.495236874 -2.004008293 0.9369601607 
-15.62019253 4.123417854 -2.004066467 0.9369583726 
-15.78832722 3.424531221 -2.004089117 0.9369577169 
-15.92518806 2.718837738 -2.004107475 0.9369571209 
-16.10400581 1.292607427 -2.004130602 0.9369564056 
-16.14559937 0.5749706626 -2.004135609 0.9369562864 
-16.13278008 -0.8623095751 -2.004132509 0.936956346 
-16.07834244 -1.579101562 -2.004124165 0.9369567633 
-15.54418182 -4.400734901 -2.004046917 0.9369589686 
-15.09106636 -5.764682293 -2.003982306 0.936960876 
-14.18873787 -7.721518517 -2.00385499 0.9369643331 
-13.44549274 -8.951542854 -2.003750324 0.9369679093 
-12.09267807 -9.706662178 -1.923588991 0.9394116402 
-10.7599926 -10.33750916 -1.850975394 0.9416306615 
-9.797903061 -11.2521143 -1.850840688 0.9416347742 
-8.758393288 -12.07747078 -1.850695252 0.9416391253 
-7.072333813 -13.1345892 -1.850534201 0.9416441321 
-5.877036095 -13.71139145 -1.850561619 0.9416432977 
-4.635087967 -14.17936516 -1.850546122 0.9416437745 
0.5971337557 -14.90186024 -1.850061297 0.9416585565 
1.259350538 -14.85968685 -1.849955082 0.9416618347 
1.918998957 -14.78802204 -1.84983933 0.941665411 
4.505624771 -14.21036625 -1.849285841 0.9416823387 
5.132841587 -13.99466324 -1.84912622 0.9416872263 
5.749765396 -13.75123978 -1.848958731 0.9416923523 
7.526796818 -12.85989189 -1.848430634 0.9417085648 
9.170331955 -11.74224377 -1.848203182 0.9417154193 
10.17692375 -10.87987804 -1.848064184 0.9417197108 
10.65043926 -10.4160471 -1.847998977 0.9417217374 
11.87862301 -9.709877968 -1.903202891 0.9400340319 
12.92484379 -9.638747215 -2.000083685 0.9370796084 
14.09161568 -7.832092285 -1.999923348 0.937084496 
14.42572689 -7.197319031 -1.999877572 0.9370859265 
15.0077343 -5.886452675 -1.999798059 0.9370883107 
15.25445747 -5.21295166 -1.999764562 0.9370893836 
15.81202602 -3.136042356 -1.999689102 0.9370915294 
15.93574142 -2.429538488 -1.999672651 0.9370920658 
16.02791977 -1.71824944 -1.999660611 0.9370925426 
16.08844757 -1.003559589 -1.999652982 0.9370926619 
16.11711884 -0.2868920863 -1.999649763 0.9370928407 
16.07889557 1.146716237 -1.999656677 0.9370926023 
15.91352463 2.571284056 -1.999680996 0.937091887 
14.95493126 6.019799709 -1.999818087 0.9370876551 
13.66026783 6.218364239 -1.861873031 0.9412972927 
12.61456966 7.920717716 -1.847745419 0.941729486 
11.00478935 10.02167416 -1.84638834 0.9417710304 
10.54587364 10.49906731 -1.845999002 0.9417829514 
9.567318916 11.39043427 -1.845288754 0.9418046474 
6.735507488 10.62180424 -1.560223937 0.9505684972 
6.246582031 10.89388657 -1.557789326 0.9506437182 
5.621567249 10.90069294 -1.521461964 0.9517664909 
4.445663929 10.90389156 -1.46073401 0.9536463022 
3.797475576 10.6459713 -1.402137399 0.9554637074 
3.332724571 10.84526825 -1.407448053 0.9552989006 
2.720312357 10.49407196 -1.344818115 0.957244873 
2.297568321 10.82506847 -1.372764826 0.9563760161 
1.763715744 10.61541271 -1.334896803 0.9575535059 
1.28200686 10.61914253 -1.326872349 0.9578031898 
0.3269921839 10.49423313 -1.302444458 0.958563745 
-0.1410742104 10.56644535 -1.310887218 0.9583008289 
-1.573852539 10.64067841 -1.334335923 0.9575708508 
-2.499072313 10.39923096 -1.326752305 0.9578068852 
-4.020292759 13.96312428 -1.802496552 0.9431150556 
-4.637670994 13.7711277 -1.802582264 0.943112433 
-5.245966911 13.55180168 -1.802666545 0.94310987 
-6.430263519 13.0331049 -1.802830577 0.9431048036 
-7.5684762 10.24354935 -1.579931021 0.9499598742 
-10.27494144 10.60007763 -1.831310272 0.9422324896 
-11.2889452 9.742016792 -1.849753022 0.9416680932 
-11.71457958 9.232914925 -1.850295663 0.9416514039 
-13.17157936 7.016838074 -1.851329207 0.9416198134 
-15.37761211 4.951106071 -2.004033566 0.9369593859 
-15.75722122 3.564851046 -2.004084826 0.9369577765 
-15.90033436 2.860422373 -2.004104137 0.9369572401 
-16.01194954 2.150300264 -2.004118919 0.9369568229 
-16.09185028 1.43589592 -2.004129171 0.9369564652 
-16.13983536 0.7186620831 -2.004135132 0.9369562864 
-16.15586472 -9.765624782e-06 -2.004136562 0.9369561672 
-16.13982201 -0.7186743021 -2.004133463 0.936956346 
-15.90028286 -2.860422373 -2.004097939 0.9369574189 
-15.75714111 -3.564848661 -2.004077435 0.9369580746 
-15.37751961 -4.951159477 -2.004023075 0.9369596243 
-15.1417675 -5.630190372 -2.003989458 0.9369608164 
-14.87607861 -6.298071384 -2.003952026 0.9369618297 
-14.25682545 -7.594982624 -2.003864527 0.9369644523 
-13.90449905 -8.221457481 -2.003814697 0.9369660616 
-13.52463818 -8.831605911 -2.003761292 0.9369677305 
-13.11803722 -9.424218178 -2.003704071 0.9369693995 
-9.897753716 -11.16454315 -1.850854754 0.9416342974 
-9.390947342 -11.59333229 -1.850783825 0.9416365027 
-5.385282993 -13.91188431 -1.850560546 0.9416432977 
-4.127426624 -14.33520508 -1.850527883 0.9416443706 
-2.83687973 -14.64472103 -1.850452423 0.9416466355 
-2.182548761 -14.75600052 -1.850398779 0.9416482449 
-1.523935556 -14.8379488 -1.850334764 0.9416502714 
-0.8623437285 -14.89045334 -1.850260377 0.9416525364 
-0.1991113275 -14.91339302 -1.850175858 0.941655159 
0.4644775391 -14.90673351 -1.850081444 0.94165802 
1.127050757 -14.8704834 -1.849977016 0.9416611791 
2.443959951 -14.70956516 -1.849739909 0.9416684508 
3.741157055 -14.4319725 -1.849466562 0.9416768551 
4.379086971 -14.25012684 -1.849316716 0.941681385 
6.235121727 -13.53684998 -1.848819256 0.9416966438 
6.830439091 -13.24480438 -1.848638415 0.9417021275 
7.412109375 -12.92653751 -1.848450541 0.9417078495 
8.530941963 -12.21554947 -1.848291636 0.9417127371 
9.065507889 -11.82348633 -1.848217726 0.9417150617 
11.01408195 -10.03014183 -1.847948909 0.9417232871 
11.6695509 -9.713537216 -1.883485079 0.940636456 
12.76054668 -9.694167137 -1.987935305 0.9374495745 
13.65394974 -8.573248863 -1.999983311 0.9370826483 
14.02145481 -7.957187176 -1.999933004 0.9370841384 
14.36120605 -7.325412273 -1.999886394 0.9370855689 
14.67253399 -6.679182053 -1.999843717 0.9370868802 
14.95484352 -6.019775391 -1.999805212 0.9370880127 
15.2075386 -5.348481178 -1.999770761 0.9370891452 
15.62229443 -3.97557354 -1.999714613 0.9370908141 
15.78350544 -3.276667356 -1.999692917 0.9370914698 
15.91349602 -2.57130599 -1.999675751 0.9370920062 
16.0788765 -1.146723628 -1.999654174 0.9370926619 
16.11392975 -0.4303466678 -1.999650121 0.9370928407 
16.11711884 0.2868847549 -1.999650359 0.9370928407 
16.08845711 1.003549814 -1.999655128 0.9370926619 
16.0279789 1.718232393 -1.999664307 0.9370923042 
15.93575191 2.429594755 -1.999677896 0.9370920062 
15.65707016 3.836420774 -1.99971807 0.9370906949 
15.25457001 5.212968826 -1.999775529 0.9370889664 
13.97265625 6.211098671 -1.896844745 0.9402282834 
13.32763672 6.64944315 -1.847644925 0.9417325258 
12.32490253 8.364780426 -1.847777843 0.9417284727 
11.93765068 8.902544022 -1.847321153 0.9417425394 
11.52709961 9.422529221 -1.846884608 0.9417558312 
10.16391563 10.86599541 -1.845703721 0.9417919517 
9.668662071 11.30522919 -1.84535563 0.9418026209 
8.622636795 12.11576653 -1.844731569 0.941821754 
6.888920784 10.65297318 -1.573742032 0.9501510859 
6.327172756 10.8103857 -1.553838968 0.9507657886 
4.599179745 10.99947739 -1.47896111 0.9530816674 
3.919843674 10.6874218 -1.412135243 0.9551533461 
2.851318359 10.60977554 -1.362844825 0.956684351 
2.355190277 10.62976551 -1.350603938 0.9570649266 
1.872304678 10.68001652 -1.345062256 0.9572372437 
1.364609361 10.51579571 -1.315424442 0.9581595659 
0.9119824171 10.76079559 -1.339664936 0.9574051499 
0.4194872975 10.46843243 -1.299655318 0.9586506486 
-0.5087792873 10.38638687 -1.289978862 0.9589520693 
-1.471191406 10.59714317 -1.327183843 0.9577934742 
-1.9160254 10.38510704 -1.310015798 0.9583278894 
-2.385209799 10.32908154 -1.315042377 0.9581713676 
-3.895869017 13.99821949 -1.802479386 0.9431155324 
-4.514912128 13.81170845 -1.802565217 0.9431129694 
-5.125078201 13.59783649 -1.802649856 0.9431103468 
-6.890273094 12.79645252 -1.802894235 0.9431028366 
-6.586176395 11.02659416 -1.593274355 0.9495481849 
-7.457417011 10.28351021 -1.575793982 0.9500876069 
-10.09343719 10.60000992 -1.815704346 0.94271034 
-10.74926281 10.32710648 -1.849122524 0.9416873455 
-11.6312933 9.33621788 -1.85018599 0.9416547418 
-12.42201614 8.270147324 -1.85122633 0.9416229725 
-13.10855675 7.133713245 -1.851320624 0.9416201115 
-14.30065632 6.205048561 -1.933798671 0.9391000867 
-15.0912199 5.764701843 -2.003994703 0.9369602799 
-15.33289242 5.087775707 -2.004027605 0.9369595051 
-15.87420845 3.001833439 -2.004100561 0.9369573593 
-16.07841492 1.579079509 -2.004127502 0.9369565248 
-16.13280296 0.8622997999 -2.004134417 0.9369562864 
-16.15521431 0.143737793 -2.004136562 0.9369562268 
-16.14558601 -0.5750488043 -2.004134417 0.9369562864 
-16.03044319 -2.00776124 -2.004117012 0.9369568229 
-15.92515087 -2.71885252 -2.004101753 0.9369572401 
-14.93160152 -6.165429592 -2.003959656 0.9369615912 
-14.64225578 -6.823378563 -2.003918886 0.9369629025 
-11.46634007 -9.718903542 -1.8646698 0.9412134886 
-10.94241905 -10.14451408 -1.851001143 0.941629827 
-9.493813515 -11.50941849 -1.85079813 0.9416360259 
-8.432607651 -12.30667686 -1.850649834 0.9416406155 
-7.876493931 -12.66907215 -1.850572109 0.9416429996 
-6.719208717 -13.31881809 -1.850546837 0.9416437149 
-5.508896351 -13.86339855 -1.8505615 0.9416433573 
-4.8867383 -14.0946722 -1.850552678 0.9416435361 
-4.254882812 -14.2979393 -1.850533128 0.9416441917 
-3.614589691 -14.47283649 -1.850502729 0.9416450262 
-2.967143536 -14.61897945 -1.850461841 0.9416462779 
-2.313827991 -14.73607349 -1.850410223 0.9416479468 
-1.655966759 -14.82392025 -1.850348353 0.9416497946 
-0.9947997928 -14.88232899 -1.850276113 0.941652 
-0.3317871094 -14.91119576 -1.85019362 0.9416545033 
0.9947167635 -14.88010216 -1.849998713 0.9416604638 
2.313022375 -14.730937 -1.84976542 0.941667676 
2.965810537 -14.61243629 -1.849634767 0.9416716099 
3.612612247 -14.46494579 -1.849495292 0.9416759014 
6.712431431 -13.30535603 -1.848675132 0.9417009354 
7.29689455 -12.99227047 -1.848488688 0.941706717 
8.959990501 -11.90381527 -1.848232388 0.9417145252 
10.46351528 -10.60410404 -1.848024726 0.9417209029 
11.46480465 -9.717086792 -1.864320278 0.9412224293 
13.1773243 -9.290100098 -2.000048876 0.9370806813 
13.57721138 -8.69456768 -1.999993801 0.9370820522 
15.15938473 -5.483649731 -1.999777317 0.9370889068 
15.38807583 -4.80373764 -1.999746323 0.93708992 
15.58630848 -4.114484787 -1.999719501 0.9370906949 
15.88999939 -2.712846518 -1.999678731 0.9370919466 
16.0680275 -1.289794922 -1.999655604 0.9370927215 
16.04259682 1.575495601 -1.999662161 0.937092483 
15.30030727 5.076957703 -1.999769092 0.9370892048 
15.05957031 5.752709866 -1.999803305 0.9370881319 
14.29890633 6.204291821 -1.933558583 0.9391072989 
12.75340748 7.694863319 -1.847725987 0.941730082 
11.61106873 9.319994926 -1.846970201 0.941753149 
11.18237305 9.825078011 -1.846550345 0.9417661428 
10.73199177 10.31051731 -1.846152186 0.9417782426 
10.26058578 10.7755518 -1.8457762 0.9417897463 
7.148906231 10.84213829 -1.611024261 0.9490007758 
6.374198914 10.67180443 -1.542008638 0.9511312842 
4.685747147 10.93204117 -1.475445271 0.9531905651 
4.019995213 10.66597176 -1.413969874 0.955096364 
2.459726572 10.6517334 -1.356122971 0.9568933249 
1.971113205 10.6839056 -1.347708106 0.9571549892 
1.472304702 10.60515594 -1.328189969 0.9577622414 
1.006699204 10.74173832 -1.338356853 0.9574459195 
-0.4175683558 10.42212391 -1.293902874 0.9588297606 
-1.389658213 10.7085247 -1.339532733 0.9574092627 
-1.833930612 10.46116447 -1.317497849 0.9580948949 
-3.771074057 14.03219414 -1.802461982 0.9431161284 
-4.391816139 13.85120296 -1.80254817 0.9431134462 
-5.606040001 13.40729427 -1.802716494 0.9431083202 
-6.197109222 13.14526844 -1.802798271 0.9431058168 
-6.776079178 12.85712337 -1.802878499 0.9431034327 
-6.564208984 11.21539497 -1.61204803 0.9489691257 
-7.346874714 10.32319832 -1.571791172 0.9502111673 
-9.930502892 10.61644745 -1.803314686 0.943089962 
-10.65628147 10.42184258 -1.849019766 0.9416905046 
-11.11250687 9.940263748 -1.849540353 0.9416745305 
-11.95903015 8.918486595 -1.850628138 0.9416412711 
-13.04452324 7.250021935 -1.851311803 0.9416203499 
-15.03917408 5.898776531 -2.003987789 0.9369607568 
-15.28695774 5.223964691 -2.004021406 0.9369598031 
-15.50440598 4.538910866 -2.00405097 0.936958909 
-15.8468523 3.143007755 -2.004096985 0.9369574189 
-16.06369781 1.722138643 -2.004125595 0.9369565845 
-16.12448692 1.005786061 -2.004133224 0.9369562864 
-16.15326881 0.2875952125 -2.004136562 0.9369562864 
-16.15006828 -0.4313085973 -2.004135132 0.9369562864 
-15.4633131 -4.676660061 -2.004035234 0.9369592667 
-15.23969173 -5.359860897 -2.004003525 0.9369603395 
-14.70244122 -6.692865849 -2.003927469 0.9369626641 
-14.38993168 -7.340058327 -2.003883362 0.9369637966 
-14.04878902 -7.972773075 -2.003835201 0.9369652867 
-13.28385735 -9.189360619 -2.003727436 0.9369686246 
-11.03239727 -10.046731 -1.851013541 0.9416294694 
-10.57415295 -10.52722836 -1.850949407 0.9416314363 
-9.59592247 -11.42454052 -1.850812435 0.9416356683 
-9.077821732 -11.83966255 -1.850739956 0.9416378736 
-7.420395374 -12.94098091 -1.850517511 0.9416446686 
-6.837421894 -13.25846672 -1.850543022 0.9416438937 
-6.240976334 -13.54958916 -1.850557804 0.9416434169 
-5.632030964 -13.81385708 -1.850561976 0.9416432381 
-5.012016296 -14.05063915 -1.850555182 0.9416434765 
-3.097099543 -14.59206963 -1.850470901 0.9416460395 
-1.787802696 -14.80870533 -1.850361586 0.9416493773 
-0.464492172 -14.90778732 -1.850210786 0.9416540265 
0.1991552711 -14.91296387 -1.850120306 0.9416567683 
1.523647428 -14.83455086 -1.849909902 0.9416632056 
2.181840658 -14.7511425 -1.849790454 0.9416669011 
3.483774424 -14.49675274 -1.849524021 0.9416750669 
7.181113243 -13.0569725 -1.848526597 0.9417055249 
8.312255859 -12.3656683 -1.848321915 0.941711843 
8.85378933 -11.9831543 -1.848247051 0.941714108 
9.377655983 -11.57702351 -1.848174691 0.941716373 
9.883075714 -11.14795589 -1.848104835 0.9417183995 
10.36884785 -10.69687271 -1.848037839 0.9417204261 
10.83398438 -10.22471428 -1.847973585 0.9417224526 
13.09440422 -9.40702343 -2.00006032 0.9370797873 
13.49917984 -8.815048218 -2.000004768 0.9370824099 
