# .PCD v0.7 - Point Cloud Data file format
VERSION 0.7
FIELDS x y z intensities
SIZE 4 4 4 4
TYPE F F F F
COUNT 1 1 1 1
WIDTH 925
HEIGHT 1
VIEWPOINT 0 0 0 1 0 0 0
POINTS 925
DATA ascii
0.3325634599 10.67341328 -1.523411632 0.9577707648 
-0.1409863234 10.55988789 -1.506610394 0.9582265615 
-1.057441354 10.29574203 -1.476518512 0.9590435624 
-1.260458946 8.521781921 -1.22894609 0.9657919407 
-2.062246084 10.64587593 -1.546970844 0.9571316838 
-2.497744083 10.39367676 -1.524976492 0.9577282071 
-2.983911037 10.36357403 -1.538528085 0.9573606253 
-6.570761681 10.78159142 -1.801238179 0.9502638578 
-9.014433861 9.299679756 -1.847677708 0.9490147233 
-9.42097187 8.89115715 -1.848027349 0.9490053654 
-9.809096336 8.464956284 -1.848395348 0.9489955306 
-10.17633724 8.020534515 -1.848463893 0.9489936233 
-11.15276337 6.594399452 -1.848370671 0.948996067 
-11.66349125 6.21344471 -1.885298014 0.9480041862 
-12.6580658 6.036384106 -2.000628233 0.9449126124 
-12.9139061 5.467275143 -2.000603676 0.9449132681 
-13.14418221 4.88735342 -2.000581503 0.9449138641 
-13.52629375 3.699709415 -2.00054431 0.9449148178 
-13.67738533 3.094326019 -2.000529289 0.9449151754 
-13.80139351 2.482831955 -2.00051713 0.9449155927 
-13.8980999 1.86643064 -2.000507355 0.9449158907 
-13.967309 1.246340275 -2.000500202 0.9449161291 
-14.02279282 0 -2.000493526 0.9449161291 
-14.00890636 -0.6237841845 -2.000494242 0.9449161887 
-13.96731377 -1.2463305 -2.000497341 0.9449160695 
-13.89809322 -1.866418362 -2.000503302 0.9449158907 
-13.80136204 -2.48282218 -2.000511646 0.9449157119 
-13.52624512 -3.699697256 -2.000536203 0.9449149966 
-13.34837627 -4.29781723 -2.000552416 0.9449145794 
-11.74236584 -7.66778326 -2.000699759 0.9449108243 
-10.19980431 -9.626371384 -2.00084281 0.9449073672 
-8.623056412 -9.726691246 -1.854395509 0.9488342404 
-8.156415939 -10.06927013 -1.848634601 0.9489890933 
-6.744130611 -11.06606674 -1.848766446 0.9489855766 
-6.245302677 -11.35543633 -1.848812938 0.9489843249 
-5.734125614 -11.62230682 -1.848860741 0.9489830732 
-5.211616039 -11.86620331 -1.848909736 0.9489816427 
-4.678730488 -12.08660126 -1.848959565 0.9489803314 
-4.136552811 -12.28310013 -1.849010229 0.9489790201 
-3.58616209 -12.4553051 -1.849061966 0.9489775896 
-3.028622866 -12.60284901 -1.84911418 0.9489762187 
-1.648330092 -16.04953003 -2.301636219 0.9368901849 
-0.749497056 -12.94155693 -1.849337578 0.948970139 
0.9797607064 -12.9272604 -1.849495292 0.9489659071 
2.124965668 -12.78972626 -1.849598765 0.9489631653 
2.691879749 -12.68289757 -1.849652171 0.9489617944 
3.808740139 -12.39414501 -1.849757552 0.9489589334 
4.356415749 -12.21279526 -1.84980917 0.9489575028 
4.895468712 -12.00725269 -1.849860191 0.9489561915 
5.943642616 -11.52523613 -1.849959254 0.9489535093 
6.450600624 -11.2497263 -1.850007296 0.9489522576 
7.425322056 -10.63239765 -1.850099564 0.9489497542 
7.8911376 -10.29183578 -1.850143671 0.9489485025 
8.925771713 -9.71422863 -1.882012129 0.948092401 
10.3795948 -9.452460289 -2.002778769 0.9448554516 
10.79015636 -8.981545448 -2.002817869 0.9448539615 
11.17918873 -8.492810249 -2.002854824 0.944853127 
11.89023399 -7.465825081 -2.002923012 0.9448512197 
12.2107563 -6.929624081 -2.002953529 0.9448503852 
12.50710869 -6.379672527 -2.00298214 0.9448496103 
12.77868176 -5.817065239 -2.003008127 0.9448488951 
13.43965816 -4.064626217 -2.003072262 0.9448471665 
13.60727024 -3.462785482 -2.003088713 0.9448467493 
13.74792957 -2.854077101 -2.003102541 0.9448463917 
13.8613472 -2.239716768 -2.003113747 0.9448461533 
13.94734383 -1.620893478 -2.003122568 0.9448458552 
14.00565434 -0.9988647103 -2.003128767 0.9448457956 
14.03626919 -0.3748510778 -2.003132343 0.9448456168 
13.96122074 1.496684551 -2.003127337 0.9448457956 
13.88078117 2.116301298 -2.003120422 0.9448459148 
13.47536087 3.944916964 -2.003084183 0.9448469281 
12.83008766 5.703193188 -2.003025293 0.944848299 
12.41931629 6.196274281 -1.98001492 0.9454643726 
11.04606438 6.799511433 -1.850458622 0.9489400387 
10.73249531 7.284028053 -1.850429654 0.9489408731 
10.04228497 8.208813667 -1.850365877 0.9489425421 
9.269208908 9.065209389 -1.849619985 0.9489626288 
8.85477066 9.466425896 -1.84920013 0.9489738941 
7.974897385 10.21163559 -1.848409891 0.9489951134 
5.209477425 11.05034637 -1.742842793 0.9518367648 
4.457763672 10.66127872 -1.648540735 0.9543824196 
1.383837819 10.66401863 -1.5340873 0.9574811459 
0.4312402308 10.76191902 -1.536531091 0.9574149251 
-0.5154394507 10.52214813 -1.502893209 0.9583274722 
-1.455429673 10.48353767 -1.509925365 0.9581365585 
-2.415415049 10.45984364 -1.531469107 0.9575520754 
-2.896791935 10.40842056 -1.541297555 0.9572855234 
-5.986113071 11.11727047 -1.801293492 0.9502623677 
-6.474560261 10.83971691 -1.801247239 0.9502635598 
-7.599359989 10.47922802 -1.846691132 0.949041307 
-8.5034132 9.765470505 -1.847283602 0.9490253329 
-8.930966377 9.379199028 -1.847610116 0.949016571 
-9.341132164 8.974274635 -1.847955942 0.9490072727 
-9.733016968 8.551557541 -1.848320246 0.9489974976 
-10.45521259 7.65312624 -1.848437309 0.9489943385 
-10.78510952 7.180353642 -1.848405719 0.9489952326 
-11.0936718 6.693376541 -1.848376274 0.9489960074 
-11.43620586 6.223620415 -1.857436895 0.9487525225 
-12.6038866 6.148845196 -2.000633717 0.9449124336 
-12.86475754 5.582021236 -2.000608444 0.9449131489 
-13.10017776 5.004169941 -2.000585794 0.9449137449 
-13.49286079 3.819963217 -2.000547409 0.9449146986 
-13.6493063 3.215952158 -2.00053215 0.9449151754 
-13.77876949 2.605585814 -2.000519276 0.9449154735 
-13.95569801 1.370615244 -2.000501394 0.9449159503 
-14.01390553 -0.4991162121 -2.000493765 0.9449161887 
-13.70431137 -2.972507238 -2.000520468 0.9449154139 
-13.55859375 -3.579196692 -2.000533342 0.9449151158 
-13.38607121 -4.178822994 -2.000549078 0.9449146986 
-12.96194553 -5.352118969 -2.000587702 0.9449136257 
-12.71116638 -5.923483849 -2.00061059 0.9449130893 
-12.43527794 -6.483159065 -2.000635862 0.9449122548 
-12.13472176 -7.029990196 -2.000663757 0.9449115992 
-11.46221447 -8.080932617 -2.000725746 0.9449099898 
-10.69901371 -9.068017006 -2.000796556 0.9449080825 
-10.28503895 -9.535214424 -2.000834942 0.9449074864 
-9.573583603 -9.702292442 -1.944516897 0.9464154243 
-8.769697189 -9.716615677 -1.867275953 0.9484882951 
-7.793002605 -10.35339832 -1.848668456 0.9489881396 
-7.324902058 -10.69005585 -1.848712087 0.9489870071 
-6.842309475 -11.00558853 -1.848757267 0.9489856958 
-4.786083698 -12.0444212 -1.848949552 0.9489806294 
-4.245707989 -12.24572468 -1.849000216 0.9489792585 
-3.696894407 -12.4228096 -1.849051595 0.9489778876 
-3.140683413 -12.57532978 -1.849103689 0.9489764571 
-2.578281164 -12.70294189 -1.849156499 0.9489750862 
-2.010673761 -12.80542946 -1.849209666 0.9489736557 
-0.8645849228 -12.93425751 -1.849324346 0.9489705563 
-0.2883788943 -12.96036625 -1.849387169 0.9489688277 
0.2884374857 -12.96073246 -1.849441648 0.9489674568 
1.439296842 -12.88446712 -1.849534154 0.9489648938 
2.578916073 -12.70628643 -1.849641562 0.9489620328 
4.788432598 -12.0502882 -1.849850059 0.9489563704 
6.847050667 -11.01325893 -1.850044847 0.9489511251 
7.79916954 -10.36161137 -1.850134969 0.948948741 
8.252602577 -10.00462151 -1.850178003 0.9489476085 
8.770116806 -9.71694088 -1.867348075 0.9484862685 
10.29512691 -9.544435501 -2.002770662 0.9448553324 
12.14854431 -7.038027287 -2.002947569 0.944850564 
12.44981384 -6.490671158 -2.002976656 0.9448497891 
12.97775841 -5.358593464 -2.003027439 0.9448484182 
13.40292931 -4.184025764 -2.003068686 0.9448473454 
13.72197247 -2.976276875 -2.003099918 0.9448465109 
14.03236771 -0.4997143447 -2.003131866 0.9448456168 
14.02124023 0.7494384646 -2.003132105 0.9448456764 
13.79662037 2.608901262 -2.003112793 0.9448461533 
12.88031197 5.588778973 -2.003029823 0.9448483586 
11.10614204 6.70098114 -1.850464225 0.9489399791 
9.742572784 8.560024261 -1.850144029 0.9489485025 
8.939043045 9.387690544 -1.849282742 0.9489716887 
7.605253696 10.48727036 -1.848113418 0.9490031004 
7.129799843 10.81315613 -1.847759366 0.9490126371 
6.640492916 11.11762714 -1.847424269 0.9490215778 
5.788496017 10.75030708 -1.741832972 0.9518640041 
5.329897404 11.04982376 -1.75017035 0.951639235 
4.619194031 10.77681637 -1.672696233 0.9537296295 
4.143984318 10.99497986 -1.676257849 0.9536335468 
0.5311914086 10.84273434 -1.548682213 0.9570854306 
-0.4231835902 10.56183529 -1.507962584 0.9581898451 
-1.352280259 10.42040539 -1.499041438 0.9584319592 
-2.317099571 10.45760918 -1.528064251 0.957644403 
-2.797822237 10.41071224 -1.53788805 0.9573779702 
-4.348193169 11.85529804 -1.801448345 0.9502581358 
-7.484726429 10.51687717 -1.8415066 0.9491805434 
-8.415854454 9.840441704 -1.84722054 0.9490270615 
-8.846850395 9.457953453 -1.84754324 0.9490183592 
-9.26048851 9.056753159 -1.847885251 0.9490092397 
-9.656123161 8.637504578 -1.848245978 0.9489994645 
-10.03208923 8.200400352 -1.848477721 0.9489932656 
-10.72084904 7.276049614 -1.848411798 0.9489949942 
-11.32481861 6.294191837 -1.848353982 0.9489963651 
-12.41859818 6.195915222 -1.97990334 0.9454674721 
-13.45832253 3.93992424 -2.000550747 0.9449146986 
-13.62018967 3.337275267 -2.000535011 0.9449150562 
-13.8627243 2.11348629 -2.000510931 0.9449157119 
-13.94294643 1.494787574 -2.000502825 0.9449159503 
-13.99563217 0.8730028868 -2.000497103 0.9449160099 
-14.02056599 0.2496264577 -2.000494003 0.9449161887 
-14.01778984 -0.3743603528 -2.000493526 0.9449161887 
-13.98727036 -0.9976049662 -2.000495911 0.9449161291 
-13.92908669 -1.618771911 -2.000500679 0.9449160099 
-13.58989429 -3.458425283 -2.00053072 0.9449151754 
-13.42274094 -4.059499264 -2.000545502 0.9449146986 
-13.22894287 -4.652658463 -2.000563383 0.944914341 
-13.0090332 -5.236520767 -2.00058341 0.9449138045 
-12.76333237 -5.810136795 -2.000605822 0.9449132085 
-12.49245358 -6.372179985 -2.000630856 0.9449124336 
-9.742441177 -9.699198723 -1.961202979 0.9459683895 
-8.334272385 -9.922429085 -1.84861815 0.9489895105 
-7.884755611 -10.28361034 -1.848659873 0.948988378 
-7.419745922 -10.62438679 -1.848703265 0.948987186 
-6.939892292 -10.94421101 -1.848748088 0.9489860535 
-5.940009594 -11.51831055 -1.848841548 0.9489834905 
-4.893036842 -12.00128841 -1.848939419 0.9489809275 
-4.354492188 -12.20738506 -1.848989964 0.9489795566 
-3.807216644 -12.3893652 -1.849041224 0.9489781857 
-3.252490044 -12.5468111 -1.849093318 0.9489766955 
-2.691152334 -12.67943287 -1.849145889 0.9489753246 
-2.12457037 -12.78695488 -1.849199057 0.9489738941 
-1.553652287 -12.86919403 -1.849252701 0.9489724636 
-0.979726553 -12.92596149 -1.849310517 0.9489709139 
-0.4037255645 -12.95719719 -1.849375248 0.9489691854 
0.7495312095 -12.94252872 -1.849478841 0.9489663839 
1.896977544 -12.82537556 -1.849577308 0.9489637613 
4.68100071 -12.09235573 -1.849839926 0.9489566088 
6.748769283 -11.07367897 -1.850035548 0.9489514232 
7.706640244 -10.43053722 -1.850126266 0.948949039 
8.624286652 -9.728088379 -1.854661703 0.9488271475 
10.62853527 -9.17203331 -2.002802372 0.9448544979 
11.02621078 -8.690378189 -2.002840281 0.9448533654 
12.08541489 -7.145807743 -2.002941608 0.9448506832 
12.39147472 -6.601276875 -2.002970934 0.9448499084 
12.67307568 -6.043537617 -2.002998114 0.9448491335 
12.92947197 -5.47393322 -2.003022671 0.944848597 
13.16036129 -4.89337635 -2.003045082 0.9448479414 
13.36512661 -4.303217888 -2.003064871 0.944847405 
13.54344177 -3.704406738 -2.003082275 0.9448469281 
13.69491196 -3.098356962 -2.003097296 0.9448465705 
13.81927204 -2.486049652 -2.003109694 0.9448462129 
13.98565388 -1.24796629 -2.003126621 0.9448457956 
14.04127884 -2.441406195e-06 -2.003133297 0.9448455572 
13.81931114 2.486057043 -2.003114939 0.9448460937 
13.160429 4.893398285 -2.003055573 0.9448476434 
12.67310047 6.04358387 -2.003010988 0.9448490143 
11.6640625 6.213776588 -1.885397911 0.9480016232 
11.16541958 6.601828575 -1.850469828 0.9489398003 
10.86048794 7.091906548 -1.850441575 0.9489405751 
10.53415489 7.567831993 -1.850411296 0.9489412904 
9.818818092 8.473418236 -1.850233436 0.9489461184 
9.429960251 8.899638176 -1.849792242 0.9489579797 
8.597753525 9.698154449 -1.848955989 0.9489805102 
8.156064034 10.06891537 -1.848562479 0.9489910007 
7.225996017 10.74969673 -1.847828627 0.9490107298 
5.526679516 11.20173836 -1.781957626 0.9507828951 
4.779052734 10.88136673 -1.695458651 0.953115046 
4.209970474 10.87558556 -1.66370368 0.9539726377 
3.604287148 10.70264149 -1.611097693 0.9553950429 
3.105439425 10.78557587 -1.601179123 0.955663383 
2.616054535 10.8860445 -1.597220302 0.9557706714 
2.050082922 10.58286572 -1.537821889 0.9573799372 
1.090341806 10.61667442 -1.522544622 0.9577942491 
-0.3275292814 10.51169872 -1.500331044 0.9583970308 
-1.253759742 10.3850584 -1.492290139 0.9586152434 
-1.415908217 8.521698952 -1.23237443 0.9656981826 
-2.238154173 10.54511738 -1.537876964 0.9573783278 
-2.701728344 10.42223644 -1.535979152 0.9574297667 
-3.777255774 10.58910656 -1.603876591 0.9555904269 
-4.767255783 11.69278336 -1.801408768 0.9502592087 
-6.761581898 10.6628046 -1.801220059 0.9502643347 
-7.877177715 10.27352524 -1.84686017 0.949036777 
-9.578505516 8.722719193 -1.848172426 0.9490014911 
-10.31741714 7.838041782 -1.848450422 0.9489940405 
-10.65565681 7.371254921 -1.848418117 0.948994875 
-11.26827621 6.394802094 -1.848359466 0.9489964843 
-12.76332283 5.810180664 -2.000618219 0.9449131489 
-13.22902107 4.652692795 -2.000573158 0.9449139833 
-13.58996296 3.458312988 -2.000537872 0.9449149966 
-13.73023415 2.850402832 -2.000524044 0.9449154139 
-14.0177927 0.3743554652 -2.00049448 0.9449161887 
-14.02055359 -0.2496215701 -2.000493526 0.9449162483 
-13.9955883 -0.8730077744 -2.000495195 0.9449161887 
-13.94291973 -1.494775414 -2.000499487 0.9449160695 
-13.86268806 -2.113478899 -2.000506401 0.9449158311 
-13.75500679 -2.728122473 -2.000515938 0.9449155927 
-13.62013912 -3.337263107 -2.000527859 0.944915235 
-13.26982403 -4.5346632 -2.000559568 0.9449144006 
-13.05508804 -5.120558739 -2.000579119 0.9449138641 
-12.81454086 -5.696239948 -2.000601053 0.9449133277 
-11.60451889 -7.875695705 -2.000712633 0.9449089766 
-10.85861588 -8.876159668 -2.000781775 0.9449083805 
-10.45323467 -9.350531578 -2.000819445 0.9449074864 
-8.421601295 -9.847841263 -1.848609924 0.9489911199 
-7.037050724 -10.8819313 -1.848739028 0.9489862919 
-4.999701977 -11.95717716 -1.848929524 0.9489811659 
-3.917265654 -12.35492897 -1.849030852 0.9489784837 
-1.66809082 -12.85477543 -1.849241853 0.9489727616 
-1.094692349 -12.91664505 -1.849296689 0.9489712715 
0.05766601488 -12.96367645 -1.849420905 0.9489679337 
0.6343554258 -12.94863224 -1.849470019 0.9489666224 
3.476386547 -12.49121761 -1.8497262 0.9489597678 
4.028764725 -12.324543 -1.849778295 0.9489583373 
4.573085785 -12.13347912 -1.849829674 0.9489569664 
5.108447075 -11.91834164 -1.849880338 0.9489557147 
5.63381815 -11.6796093 -1.849929929 0.9489542246 
6.649931431 -11.13321781 -1.850026011 0.9489517212 
7.138730526 -10.82669163 -1.850072384 0.9489504695 
7.613491058 -10.4986372 -1.850117445 0.9489492774 
8.516679764 -9.780866623 -1.850203156 0.9489474297 
10.08938408 -9.693149567 -1.995983362 0.9450368881 
10.54640102 -9.266301155 -2.002794504 0.9448546171 
10.94840813 -8.788103104 -2.00283289 0.9448536038 
11.68657207 -7.780517578 -2.002903461 0.9448516965 
12.02125931 -7.253119946 -2.00293541 0.944850862 
12.61871052 -6.156149864 -2.002992868 0.9448493123 
12.88025379 -5.588739872 -2.003017902 0.9448486567 
13.11627865 -5.01025629 -2.003040791 0.9448480606 
13.32626915 -4.421943188 -2.003061056 0.9448475242 
13.50993156 -3.824748516 -2.003079176 0.9448469877 
13.66679192 -3.220077991 -2.003094673 0.9448465705 
13.89904308 -1.992658615 -2.003117561 0.944846034 
13.97399426 -1.372353435 -2.003125429 0.9448457956 
14.02124977 -0.749445796 -2.003130436 0.9448456168 
14.04070759 -0.1249291971 -2.003133059 0.9448456168 
14.0323925 0.4997216761 -2.00313282 0.9448455572 
13.99623966 1.123493671 -2.003130198 0.9448456764 
13.93238258 1.744916916 -2.003124714 0.9448457956 
13.84089851 2.363007784 -2.003116846 0.944846034 
13.72199154 2.97628665 -2.003106356 0.9448463917 
13.57585907 3.583762169 -2.003093243 0.9448469281 
13.40299797 4.184050083 -2.003077745 0.9448470473 
12.72642517 5.930605412 -2.003015757 0.9448487759 
11.90767574 6.20815897 -1.915765285 0.9471865296 
10.92319298 6.995026588 -1.850447297 0.9489403963 
10.60110283 7.473842621 -1.850417614 0.9489411116 
10.2579298 7.937914848 -1.850385904 0.9489420056 
9.105561256 9.22791481 -1.849449992 0.9489671588 
8.684082031 9.621704102 -1.849036694 0.9489783049 
7.791274071 10.35110855 -1.848260164 0.9489991665 
6.837836742 10.99843979 -1.847555995 0.9490180612 
3.189711809 10.71863461 -1.5953933 0.9558200836 
2.140038967 10.54396725 -1.534876466 0.9574598074 
1.196733356 10.71301746 -1.53782928 0.9573796988 
0.7080566287 10.59258747 -1.514513612 0.958012104 
0.2368652225 10.64320755 -1.518739939 0.9578974843 
-0.2349267453 10.55615234 -1.506319284 0.9582345486 
-0.7128515244 10.66416931 -1.524748683 0.9577344656 
-1.161777377 10.39997578 -1.492889524 0.9585989714 
-1.338037133 8.521745682 -1.230608702 0.9657464623 
-2.148530245 10.58570766 -1.540945649 0.9572950602 
-2.596054554 10.39478016 -1.528466821 0.9576334953 
-3.171557665 10.65759277 -1.586305499 0.956066072 
-4.663056374 11.73478699 -1.801418543 0.9502590299 
-5.180356503 11.51541519 -1.801369786 0.9502602816 
-5.687270164 11.27330017 -1.801321864 0.9502615929 
-6.183012486 11.00884056 -1.801274776 0.9502628446 
-6.586748123 10.59455013 -1.779712081 0.9508433938 
-7.7851367 10.34294891 -1.84680295 0.9490383267 
-8.238866806 9.987958908 -1.847097278 0.9490303993 
-9.500067711 8.807331085 -1.84809947 0.949003458 
-9.884467125 8.377651215 -1.848471165 0.948993504 
-11.21097183 6.49483633 -1.848364949 0.9489963055 
-11.9072752 6.207814693 -1.915689349 0.9471884966 
-12.71124458 5.923520565 -2.000623226 0.9449127316 
-12.96205044 5.35209465 -2.000598907 0.9449133277 
-13.70435524 2.972453594 -2.000526667 0.9449152946 
-13.82292938 2.359934092 -2.000514984 0.9449155927 
-14.0222187 -0.1247607395 -2.000493526 0.9449162483 
-14.00280476 -0.748452127 -2.000494719 0.9449161291 
-13.6492548 -3.21593976 -2.000525236 0.9449153543 
-12.6037569 -6.14884758 -2.000620604 0.9449128509 
-12.31794453 -6.703469276 -2.00064683 0.9449121356 
-11.67376423 -7.771977425 -2.000706196 0.9449104667 
-11.31662369 -8.283759117 -2.000739336 0.9449096322 
-10.93719006 -8.779071808 -2.000774384 0.9449086189 
-10.08900356 -9.692763329 -1.995906949 0.9450389743 
-9.244159698 -9.708239555 -1.912428737 0.9472762942 
-7.607524395 -10.49058533 -1.848685861 0.9489877224 
-7.133584023 -10.81884003 -1.848729968 0.9489864111 
-6.144042969 -11.41060543 -1.848822474 0.9489840865 
-5.630487919 -11.67296314 -1.848870516 0.9489827156 
-4.027133465 -12.31949425 -1.8490206 0.9489786625 
-3.475204945 -12.48680592 -1.849072337 0.948977232 
-2.916406155 -12.6293602 -1.84912467 0.9489759803 
-1.782460928 -12.83934784 -1.849231243 0.948973 
-1.505405188 -16.06364632 -2.30164957 0.9368898869 
-0.6343212724 -12.94778824 -1.849350333 0.948969841 
-0.05768066272 -12.96360302 -1.849410057 0.9489682317 
0.5190087557 -12.95368576 -1.84946084 0.9489669204 
1.094804645 -12.91807079 -1.84950316 0.9489657283 
2.238749981 -12.77038574 -1.849609494 0.9489628673 
2.804731369 -12.65849781 -1.8496629 0.9489614964 
3.918925762 -12.35983849 -1.849768043 0.9489585757 
4.464941502 -12.17361546 -1.849819422 0.9489572644 
6.550448895 -11.19194794 -1.850016713 0.9489520192 
7.042079926 -10.88971615 -1.850063324 0.9489507079 
10.86958504 -8.885133743 -2.002825499 0.9448542595 
11.61684036 -7.884155273 -2.002896786 0.9448519349 
12.27197742 -6.820663929 -2.00295949 0.944850266 
12.56339836 -6.268149376 -2.002987385 0.9448494911 
13.47531223 -3.944897413 -2.0030756 0.9448471069 
13.63758755 -3.341540337 -2.003091574 0.9448466301 
13.77281189 -2.731652737 -2.003104925 0.9448462725 
13.88076115 -2.116242647 -2.003115892 0.944846034 
14.03627872 0.3748559356 -2.003133059 0.9448455572 
13.24547863 4.658471584 -2.003063202 0.944847405 
13.02587414 5.242959023 -2.003043413 0.9448450208 
12.77873516 5.817152977 -2.003020525 0.944848597 
12.15941906 6.202323914 -1.947303534 0.9463408589 
11.2811861 6.402153015 -1.850480437 0.9489395022 
10.98509789 6.897497177 -1.850453138 0.9489402175 
10.66720676 7.379252911 -1.850423694 0.9489409924 
10.32824707 7.846279144 -1.850392222 0.9489418864 
9.968784332 8.297851562 -1.850358963 0.9489427209 
8.334716797 9.922964096 -1.848717809 0.9489868283 
7.883368969 10.28180122 -1.84833467 0.9489971399 
6.9356637 10.93756294 -1.847622991 0.949016273 
5.722323895 11.09622574 -1.781092286 0.9508062601 
5.079154968 11.02720165 -1.731996298 0.9521291852 
4.389809608 10.76706028 -1.658789277 0.9541054368 
3.898164034 10.92812443 -1.655224562 0.9542017579 
3.273593664 10.65288544 -1.589879632 0.9559693336 
2.826845646 10.90490246 -1.607116461 0.9555027485 
2.253447294 10.61722183 -1.548394561 0.9570932388 
0.3325634599 10.67341328 -1.523411632 0.9577707648 
-1.057475567 10.29564476 -1.476505041 0.95904392 
-2.06229496 10.64585209 -1.546969056 0.9571317434 
-2.983945131 10.363554 -1.538526893 0.9573606849 
-4.030219555 11.96736336 -1.801478386 0.9502573013 
-4.558500767 11.77588367 -1.801428437 0.9502586722 
-5.58677721 11.3235054 -1.801331282 0.9502613544 
-6.084755898 11.06352043 -1.801284194 0.9502626061 
-6.570761681 10.78159142 -1.801238179 0.9502638578 
-7.124443054 10.59860039 -1.821854234 0.9497091174 
-7.692577839 10.41148949 -1.846746445 0.9490398169 
-9.014467239 9.299638748 -1.847677708 0.9490147829 
-9.42097187 8.89115715 -1.848027349 0.9490053654 
-9.809130669 8.464917183 -1.848395467 0.9489955306 
-10.17633724 8.020534515 -1.848463893 0.9489936233 
-10.84850311 7.084091663 -1.848399639 0.948995471 
-11.66349125 6.21344471 -1.885298014 0.9480041862 
-13.34843254 4.297836781 -2.000561714 0.944914341 
-13.52629375 3.699709415 -2.00054431 0.9449148178 
-13.80139351 2.482831955 -2.00051713 0.9449155927 
-13.89811039 1.866491675 -2.000507355 0.9449158311 
-13.967309 1.246340275 -2.000500202 0.9449161291 
-14.00892258 0.6237280369 -2.000495672 0.9449161291 
-13.14855671 -0.585485816 -2.000575304 0.9481419325 
-13.10953617 -1.169797301 -2.000578165 0.9481418133 
-12.83734322 -2.904294252 -2.000602007 0.9481412172 
-12.69553471 -3.472509623 -2.000614643 0.9481408596 
-12.52857876 -4.033833027 -2.000629902 0.948140502 
-12.33684254 -4.58719492 -2.000647306 0.9481400847 
-11.61692619 -6.18860817 -2.000713348 0.9481383562 
-11.33027554 -6.699345589 -2.000739813 0.9481377006 
-9.965751648 -8.600131989 -2.000865936 0.9481344819 
-7.865937233 -9.710659027 -1.899521947 0.9506956339 
-7.227841854 -9.782155991 -1.848722219 0.9519814253 
-6.785409927 -10.09419632 -1.848763585 0.9519810081 
-6.329814434 -10.3862915 -1.848806143 0.9519799352 
-5.381879807 -10.90829277 -1.848894596 0.9519777298 
-0.162412107 -12.1658392 -1.849384308 0.9519652724 
0.9195995927 -12.13279057 -1.849485993 0.9519627094 
1.458398461 -12.08020687 -1.849536896 0.9519614577 
1.994404197 -12.00370598 -1.849587321 0.9519601464 
2.52644515 -11.90342522 -1.849637389 0.9519588947 
3.05356431 -11.77957249 -1.849687099 0.9519575834 
5.09146452 -11.05396748 -1.849879622 0.9519527555 
5.578295708 -10.81680393 -1.849925637 0.9519515634 
6.054091454 -10.55821037 -1.849970698 0.9519504309 
6.517924786 -10.27868652 -1.850014567 0.951949358 
6.968857288 -9.978803635 -1.850057364 0.9519482851 
7.453593731 -9.720734596 -1.861896276 0.9516475201 
8.152519226 -9.705945015 -1.92668426 0.9500083923 
9.337158203 -9.295702934 -2.002680779 0.9480887651 
9.741650581 -8.871320724 -2.002719402 0.9480876327 
10.1267767 -8.429343224 -2.00275588 0.9480868578 
10.49190426 -7.970651627 -2.002790689 0.9480860233 
11.15915966 -7.006825924 -2.002854586 0.948084414 
11.45997047 -6.503573895 -2.002883434 0.9480836987 
12.61326599 -3.814704418 -2.002994776 0.9480808973 
12.77059555 -3.249880314 -2.003010273 0.9480804205 
12.90259266 -2.678588867 -2.003023148 0.9480801225 
13.17316818 -0.3517895341 -2.003051043 0.9480795264 
13.02726555 1.986135244 -2.003040075 0.9480797648 
12.7990675 3.136108398 -2.003019571 0.9480801821 
12.64680672 3.702336311 -2.003005981 0.9480805397 
12.46948242 4.261200905 -2.002990007 0.9480810165 
12.2674799 4.811628342 -2.002971411 0.9480814338 
12.04116154 5.35250473 -2.002950668 0.9480820298 
10.3669138 6.381450176 -1.850394368 0.951939702 
9.424872398 7.704121113 -1.850307107 0.9519419074 
9.0726614 8.115612984 -1.850274444 0.9519427419 
8.70181179 8.510332108 -1.850093365 0.951947391 
5.583022118 10.5934906 -1.820158362 0.9527061582 
5.056250095 10.7252779 -1.802331686 0.953158319 
3.370654106 10.63076878 -1.695165038 0.9558811188 
2.35587883 10.63287067 -1.655403376 0.9568933845 
1.385029316 10.67322731 -1.635944366 0.9573891163 
0.9018945098 10.64195824 -1.623386145 0.9577091932 
0.4286132753 10.69644737 -1.62717557 0.9576125741 
-1.452392578 10.46184063 -1.605460048 0.9581662416 
-2.441621065 10.5733881 -1.649453998 0.9570447206 
-2.90213871 10.42769718 -1.645256281 0.957151711 
-3.682533979 11.26535606 -1.801510334 0.953179121 
-4.179897308 11.09010696 -1.801463485 0.9531803131 
-7.566596508 9.512992859 -1.847611308 0.9520102143 
-7.983530045 9.168408394 -1.847899318 0.952002883 
-8.3848629 8.805664062 -1.848205805 0.9519951344 
-8.769809723 8.425429344 -1.84853065 0.9519869089 
-9.813022614 7.183073521 -1.848497152 0.951987803 
-11.38836193 6.197621822 -1.970779538 0.9488942623 
-12.49226284 4.145192623 -2.000641823 0.948140204 
-12.66419411 3.585366249 -2.000625134 0.9481406212 
-12.93256092 2.445563793 -2.000598669 0.9481412768 
-13.09863472 1.286418438 -2.00058198 0.9481416941 
-13.14286137 0.7024706602 -2.000576973 0.9481418133 
-13.16106701 0.1171264648 -2.000574827 0.9481419325 
-12.72589779 -3.359362602 -2.00061202 0.9481409788 
-11.93048286 -5.559679985 -2.0006845 0.9481391907 
-11.38942623 -6.598229885 -2.000734091 0.9481378198 
-11.08485317 -7.098447323 -2.000762224 0.9481369257 
-10.75813675 -7.584606647 -2.000792503 0.9481366277 
-9.65349102 -8.949497223 -2.000895023 0.9481337667 
-9.245981216 -9.370241165 -2.000932932 0.9481328726 
-8.008027077 -9.70817852 -1.912903428 0.9503571391 
-6.874950886 -10.03337669 -1.848755121 0.9519811869 
-6.421982288 -10.32948494 -1.848797441 0.9519801736 
-5.956254959 -10.60518742 -1.848840952 0.9519791007 
-4.990322113 -11.09314919 -1.848931432 0.9519768357 
-3.984873056 -11.49337578 -1.849025488 0.9519743323 
-3.469707012 -11.6595602 -1.849073768 0.9519731998 
-2.41982913 -11.92243671 -1.849172115 0.9519706368 
-1.887133718 -12.01859856 -1.849222183 0.9519693851 
-0.2707031071 -12.16384506 -1.849374056 0.9519655704 
0.8115429282 -12.1404295 -1.84947598 0.9519630075 
1.350839853 -12.0926466 -1.849526644 0.9519616961 
1.887470603 -12.02091503 -1.849577308 0.9519603848 
2.420410156 -11.92537785 -1.849627495 0.9519591331 
2.948608398 -11.80622005 -1.849677205 0.9519578218 
4.494081974 -11.30961609 -1.849823117 0.951954186 
5.959863186 -10.61161613 -1.849961758 0.9519506693 
6.879755497 -10.04038048 -1.8500489 0.9519484639 
7.324726582 -9.731266975 -1.851353049 0.9519154429 
8.008300781 -9.708488464 -1.912964702 0.9503555894 
8.750390053 -9.695131302 -1.985141397 0.9485315084 
9.254013062 -9.378393173 -2.002672911 0.9480890036 
9.662231445 -8.957633972 -2.002711773 0.9480879903 
10.05131817 -8.519099236 -2.002748728 0.9480870962 
10.42051697 -8.06368351 -2.002784014 0.9480862021 
11.9438715 -5.565925121 -2.002929926 0.9480825067 
12.17977047 -5.029157639 -2.002952576 0.9480819702 
12.39156246 -4.482417107 -2.002973318 0.9480814338 
12.8782177 -2.793315411 -2.003020763 0.9480802417 
12.9898138 -2.217683077 -2.003031969 0.9480798841 
13.17737293 0.1172851548 -2.003051996 0.9480794072 
13.15907669 0.7033471465 -2.003051043 0.9480795264 
12.67924786 3.589631319 -2.003008842 0.9480805993 
12.50693321 4.150065899 -2.002993345 0.9480808973 
12.30982876 4.702265739 -2.002975225 0.9480813742 
12.08835888 5.245156288 -2.002955198 0.948081851 
11.38900375 6.197948933 -1.970885873 0.9488915205 
10.42333031 6.288947582 -1.850399613 0.9519395828 
9.822816849 7.190266132 -1.850344062 0.9519410133 
9.144565582 8.03457737 -1.850281119 0.9519425631 
8.39197731 8.813149452 -1.849776745 0.9519553185 
6.693789005 10.15189457 -1.848346114 0.9519916177 
6.234521389 10.43783379 -1.848031402 0.9519995451 
5.70404768 10.59343719 -1.828799248 0.9524870515 
5.151533127 10.67991447 -1.802340627 0.9531580806 
4.634101391 10.81160831 -1.787971616 0.9535226822 
2.990385771 10.74482155 -1.695293069 0.9558778405 
2.496650219 10.81176281 -1.686646104 0.9560979009 
0.5263183713 10.74411106 -1.635073066 0.9574112892 
0.0475390628 10.68353939 -1.62392509 0.9576954842 
-0.4237060547 10.57398891 -1.608546734 0.9580875635 
-0.9011523128 10.63315392 -1.622041941 0.9577434063 
-1.347436547 10.38337898 -1.591514587 0.9585219622 
-2.312285185 10.43610287 -1.62476182 0.9576739669 
-2.804936409 10.43717289 -1.642746091 0.9572156668 
-4.571860313 10.93408871 -1.801426411 0.9531812668 
-5.053598404 10.7196188 -1.801380873 0.9531823993 
-5.585400105 10.59797859 -1.820929885 0.9526865482 
-6.137362957 10.48603535 -1.846822143 0.9520302415 
-7.04685545 9.901562691 -1.84729135 0.9520183206 
-7.481406212 9.579663277 -1.847556114 0.9520116448 
-8.305878639 8.879621506 -1.848143101 0.9519967437 
-8.694159508 8.50283432 -1.84846437 0.9519886374 
-9.415859222 7.69674778 -1.848535061 0.9519867897 
-10.06232357 6.829184532 -1.84847331 0.951988399 
-10.36908436 6.382775784 -1.850779057 0.9519299269 
-11.77791214 5.876269341 -2.000710964 0.9481386542 
-12.0276022 5.34646225 -2.000686884 0.9481389523 
-12.6317873 3.697929621 -2.000628233 0.9481405616 
-12.91030216 2.560554028 -2.000601053 0.9481412172 
-13.01135254 1.983713388 -2.000590801 0.9481415153 
-13.08667183 1.402939439 -2.000583172 0.9481416941 
-13.15950394 0.2342602462 -2.000575066 0.9481419325 
-13.15689659 -0.3513525426 -2.000574589 0.9481419325 
-13.1282711 -0.9362939 -2.000576735 0.9481418133 
-13.07365227 -1.51935792 -2.000581264 0.9481417537 
-12.59835434 -3.810192823 -2.000623465 0.9481406808 
-12.41651344 -4.366882324 -2.000640154 0.948140204 
-12.21007061 -4.914931297 -2.000658751 0.9481397867 
-11.14750957 -6.999489784 -2.000756502 0.9481372237 
-10.11715508 -8.421318054 -2.000852108 0.9481349587 
-9.732822418 -8.863195419 -2.000887632 0.948133707 
-8.905278206 -9.691913605 -2.00063014 0.948140502 
-7.452880859 -9.719535828 -1.861664057 0.9516528845 
-6.963945389 -9.971733093 -1.848746896 0.9519814253 
-6.51360321 -10.27188206 -1.848788857 0.951980412 
-5.088847637 -11.04824162 -1.848922133 0.9519770145 
-4.592441082 -11.26396656 -1.848968625 0.9519758224 
-4.08694315 -11.45739746 -1.849015951 0.9519746304 
-3.573329926 -11.62814713 -1.849063993 0.9519734383 
-3.052626848 -11.77591515 -1.849112868 0.951972127 
-1.993984342 -12.00126171 -1.84921217 0.9519696832 
-1.458203077 -12.07840538 -1.849262476 0.9519684315 
-0.3788915873 -12.16087818 -1.849363923 0.9519658685 
0.1624023467 -12.16603947 -1.849414825 0.9519644976 
0.703466773 -12.14711666 -1.849465728 0.9519631863 
1.2431494 -12.10412121 -1.849516511 0.9519619346 
2.843369007 -11.83193302 -1.849667311 0.9519581199 
3.883949995 -11.53299999 -1.849765539 0.9519556165 
4.393232346 -11.34910393 -1.8498137 0.9519544244 
6.333886623 -10.39296818 -1.849997163 0.9519497752 
6.790097713 -10.1011591 -1.850040436 0.9519487023 
8.597558022 -9.697937012 -1.969972134 0.9489146471 
9.169951439 -9.460331917 -2.002664804 0.9480897188 
10.34831047 -8.156068802 -2.0027771 0.948086381 
10.70105934 -7.687805176 -2.002810717 0.9480854869 
11.03261662 -7.204282284 -2.002842426 0.948084712 
11.34231377 -6.706484318 -2.002872229 0.9480840564 
11.89383793 -5.67197752 -2.002925158 0.9480826259 
12.13451099 -5.137338638 -2.002948523 0.9480820298 
12.35116196 -4.592529297 -2.002969265 0.9480814934 
12.96954536 -2.333200693 -2.003029823 0.9480799437 
13.06054688 -1.753962398 -2.003039122 0.9480797648 
13.12568283 -1.171235323 -2.003045797 0.948079586 
13.17789078 0 -2.003051996 0.9480794072 
13.12570286 1.171254873 -2.00304842 0.9480795264 
12.71071243 3.476667404 -2.003011703 0.9480804801 
11.8939352 5.672004223 -2.002937317 0.9480822682 
11.62364197 6.19220686 -2.001874685 0.9481091499 
9.560590744 7.535217285 -1.850319743 0.9519414902 
7.227655888 9.782272339 -1.848747253 0.9519814849 
5.246396542 10.63369083 -1.802349567 0.9531578422 
4.238046646 10.94823265 -1.784471869 0.9536114931 
2.624277353 10.92016125 -1.707134247 0.9555766582 
1.600957036 10.82390118 -1.663142681 0.9566962123 
1.088544846 10.59880066 -1.619501591 0.9578081965 
0.6171289086 10.65626907 -1.622476935 0.9577323794 
-0.3280957043 10.52914524 -1.601216793 0.9582744837 
-1.415302753 8.518295288 -1.312538385 0.9656662345 
-3.481474638 11.32923794 -1.801529408 0.9531786442 
-4.958017349 10.76421642 -1.801389933 0.9531822205 
-6.958271503 9.96361351 -1.847240806 0.9520195723 
-7.39563942 9.645583153 -1.847501636 0.9520130157 
-7.818573952 9.308462143 -1.847781777 0.9520059228 
-8.226249695 8.952899933 -1.848080993 0.9519982934 
-9.683695793 7.356642723 -1.848509431 0.9519874454 
-10.29888916 6.466650009 -1.84845078 0.9519889355 
-12.21012878 4.914963245 -2.000669241 0.9481394887 
-12.41655731 4.366884708 -2.000649452 0.9481400251 
-12.75533199 3.245983839 -2.000616312 0.9481408596 
-12.88701916 2.67535162 -2.000603199 0.9481411576 
-12.99320316 2.099428654 -2.000592709 0.9481414557 
-13.12828064 0.9362914562 -2.000578642 0.9481418133 
-13.15950394 -0.2342675775 -2.00057435 0.9481419325 
-13.1360817 -0.8194262385 -2.000576019 0.9481418133 
-13.08664513 -1.402949214 -2.000580072 0.9481417537 
-13.01132298 -1.983710885 -2.000586748 0.9481416345 
-12.91026592 -2.560546875 -2.00059557 0.9481413364 
-12.78364944 -3.132324219 -2.000606775 0.948141098 
-12.63174057 -3.697907686 -2.000620604 0.9481408 
-12.45484066 -4.256186485 -2.000636578 0.9481403828 
-11.50504589 -6.394450665 -2.0007236 0.948137939 
-11.20928669 -6.899982929 -2.00075078 0.9481375217 
-10.8914032 -7.391881943 -2.000780344 0.9481368065 
-10.55226517 -7.869204044 -2.000811577 0.948135078 
-10.19168186 -8.330917358 -2.000844955 0.948135078 
-9.811141968 -8.776193619 -2.00088048 0.9481342435 
-8.992646217 -9.613847733 -2.000956297 0.9481322765 
-8.298271179 -9.70303154 -1.94068706 0.949654758 
-7.58737278 -9.715444565 -1.873739481 0.951348424 
-6.604741096 -10.21345425 -1.848780513 0.9519805908 
-4.692480564 -11.22259998 -1.848959208 0.9519760609 
-4.188735485 -11.42051029 -1.849006295 0.9519748688 
-2.631625891 -11.87735367 -1.849152327 0.9519711733 
-2.100727558 -11.98298073 -1.849202275 0.9519699216 
-1.565644503 -12.06489754 -1.849252462 0.9519686103 
-1.027421832 -12.12292194 -1.849302888 0.9519673586 
0.05415038764 -12.16693592 -1.849404573 0.9519647956 
1.673173785 -12.05246544 -1.849557042 0.9519609809 
2.737939358 -11.85669136 -1.849657416 0.9519584179 
3.262753725 -11.72348118 -1.849706888 0.9519571066 
4.292060375 -11.38769531 -1.849804044 0.9519546032 
4.794462681 -11.18578339 -1.849851489 0.9519534707 
5.769989967 -10.71591568 -1.849943757 0.9519510865 
6.241117954 -10.44889164 -1.849988341 0.951949954 
6.699892521 -10.16114712 -1.850031853 0.9519489408 
7.145419598 -9.853283882 -1.850074172 0.9519478679 
9.898188591 -8.696586609 -2.002734184 0.948086977 
10.63217735 -7.782714844 -2.002804279 0.9480856657 
11.57397461 -6.298598289 -2.002894402 0.9480834007 
11.84286118 -5.777585506 -2.002920151 0.9480827451 
12.08828545 -5.245109558 -2.002943754 0.948082149 
12.30977535 -4.70223856 -2.00296545 0.9480816126 
12.82642555 -3.02207756 -2.003015757 0.9480803609 
13.04443359 -1.870136619 -2.003037453 0.9480797052 
13.11474133 -1.287993193 -2.003044605 0.948079586 
13.15909195 -0.7033275962 -2.003049374 0.9480794668 
13.1695013 0.4690209925 -2.003051758 0.9480795264 
12.98982906 2.21767807 -2.003036499 0.9480798244 
12.57885742 3.926828623 -2.002999783 0.9480807185 
12.3916111 4.482453346 -2.002982855 0.9480811954 
12.1798439 5.02918911 -2.002963543 0.9480816722 
10.25164032 6.564909458 -1.850383759 0.9519399405 
9.62725544 7.449862957 -1.850325942 0.9519414902 
8.54822731 8.663125038 -1.849933863 0.9519513845 
8.152689934 9.032910347 -1.849545598 0.9519612193 
7.741244793 9.384728432 -1.84917295 0.9519706964 
6.41973114 10.32591248 -1.848155141 0.9519964457 
5.949570179 10.59334183 -1.846774578 0.9520314932 
4.864501953 10.8134613 -1.802313805 0.9531587958 
3.799233198 10.95805168 -1.762900472 0.9541592002 
3.190883636 10.72260952 -1.700482249 0.9557458162 
2.741660118 10.97764111 -1.719865084 0.9552528858 
2.152558565 10.60572243 -1.644947052 0.957159698 
1.689179659 10.75806618 -1.655272007 0.9568967223 
0.2381005734 10.69961357 -1.626754761 0.9576233029 
-1.155273438 10.34197712 -1.581764936 0.9587706923 
-1.337543964 8.518342018 -1.310660958 0.9657145143 
-4.376567364 11.01383495 -1.801444769 0.9531807899 
-5.346533298 10.59788036 -1.804275751 0.953109026 
-6.41558075 10.31917477 -1.846954346 0.9520269036 
-7.309296608 9.710727692 -1.847447872 0.9520143867 
-7.73519516 9.377382278 -1.847724319 0.9520073533 
-8.145976067 9.025448799 -1.848019719 0.9519998431 
-8.540844917 8.65562439 -1.848333716 0.9519919157 
-8.918627739 8.268251419 -1.848582387 0.9519855976 
-10.72571754 6.213674068 -1.884133577 0.9510849714 
-11.93055439 5.559704304 -2.000696182 0.9481388927 
-12.56402111 3.922194719 -2.000634909 0.9481403828 
-12.72596169 3.359369993 -2.000619173 0.9481407404 
-12.86269474 2.789931536 -2.000605822 0.9481411576 
-12.97401047 2.214980364 -2.000594616 0.948141396 
-13.05963612 1.635654211 -2.000585794 0.9481416345 
-13.14283943 -0.7024658322 -2.000575542 0.9481418729 
-13.02845383 -1.867844224 -2.000585079 0.9481416345 
-12.81099606 -3.018435001 -2.000604391 0.9481412172 
-12.6641407 -3.585349083 -2.000617504 0.9481408 
-12.4922142 -4.145180702 -2.000633001 0.9481403828 
-12.29557133 -4.696811199 -2.000651121 0.9481399655 
-11.82969189 -5.771179199 -2.000693798 0.9481389523 
-11.27023697 -6.799938679 -2.000745296 0.9481375813 
-10.95677757 -7.294662952 -2.000774145 0.9481367469 
-10.62186241 -7.774965763 -2.00080514 0.9481351376 
-9.888856888 -8.688508034 -2.000873089 0.9481343031 
-9.492714882 -9.119953156 -2.000910044 0.9481335282 
-9.077724457 -9.533373833 -2.000948668 0.9481327534 
-6.237158298 -10.44225788 -1.848814845 0.9519796968 
-5.766621113 -10.70963573 -1.848858714 0.9519785643 
-4.290165901 -11.3827343 -1.848996878 0.9519751072 
-3.261664867 -11.719594 -1.849093318 0.9519726634 
-1.672900319 -12.05041027 -1.84924233 0.9519689679 
-0.5953271389 -12.15208912 -1.849343538 0.9519662857 
-0.05419921875 -12.16687012 -1.849394441 0.951965034 
0.4871679544 -12.15757084 -1.849445462 0.9519637227 
1.027539015 -12.12420177 -1.849496245 0.9519624114 
1.565859318 -12.0668211 -1.849546909 0.9519611597 
4.190512657 -11.42538071 -1.849794388 0.9519549012 
5.674369812 -10.76677513 -1.849934816 0.9519513845 
6.147841454 -10.50395012 -1.84997952 0.9519502521 
7.057431698 -9.916435242 -1.850065708 0.9519480467 
7.587651253 -9.715729713 -1.873795748 0.9513469338 
9.000253677 -9.621954918 -2.00264883 0.9480895996 
10.5624609 -7.876989365 -2.002797604 0.9480858445 
11.2211132 -6.907262802 -2.002860546 0.9480842352 
11.51740742 -6.40135479 -2.002888918 0.9480835795 
11.79094696 -5.882758617 -2.002915382 0.9480828047 
12.2674017 -4.811591625 -2.002961159 0.9480817914 
12.64674759 -3.702306986 -2.002998114 0.9480807781 
12.92592716 -2.563662052 -2.003025532 0.9480801225 
13.02724552 -1.986137629 -2.003035784 0.9480798244 
13.15228939 -0.8204052448 -2.003048658 0.9480795264 
13.08974552 1.521230459 -2.003045321 0.948079586 
12.90262699 2.67858386 -2.00302887 0.9480800033 
12.77062511 3.249870539 -2.003017187 0.9480803013 
12.43103504 4.372011662 -2.002986431 0.9480810761 
11.73821259 5.987473011 -2.002923012 0.9480825067 
10.94058609 6.20882082 -1.912109375 0.9503772259 
10.30968761 6.473437309 -1.850389004 0.9519398212 
10.01135731 6.925537109 -1.850361466 0.9519405365 
9.355883598 7.787680626 -1.85030067 0.9519420862 
9.000039101 8.196020126 -1.850267768 0.9519429207 
6.963173866 9.970629692 -1.848543525 0.9519866109 
6.511606216 10.268713 -1.848218083 0.9519948363 
4.960576057 10.76979256 -1.802322626 0.9531585574 
3.287465811 10.69793892 -1.701142192 0.9557290077 
2.868784189 11.06679153 -1.73776257 0.9547979236 
2.260522366 10.65039539 -1.654933929 0.9569053054 
1.287675738 10.6661253 -1.633034468 0.9574632645 
0.8063915968 10.63978767 -1.621898174 0.9577471614 
-0.1408007741 10.54629326 -1.603189945 0.9582241774 
-1.060878873 10.32928181 -1.578317046 0.9588587284 
-1.25996089 8.518385887 -1.308890343 0.9657600522 
-2.525405169 10.5086956 -1.642803907 0.9572141767 
-2.999711752 10.41840076 -1.647937298 0.9570834637 
-3.782626867 11.23207474 -1.801500797 0.9531793594 
-4.278403282 11.05239677 -1.801454067 0.9531806111 
-7.222387314 9.77511692 -1.847394943 0.952015698 
-8.065063477 9.097280502 -1.847959042 0.9520014524 
-8.463178635 8.730991364 -1.848269463 0.951993525 
-8.844726562 8.347324371 -1.84858942 0.9519854188 
-9.207118988 7.945463657 -1.848554969 0.9519863129 
-10.52424335 6.222736835 -1.858406067 0.9517366886 
-11.88077641 5.665676117 -2.000701189 0.948138237 
-12.12076855 5.13151598 -2.000677824 0.9481393099 
-12.3369112 4.587221622 -2.000657082 0.9481398463 
-12.52863216 4.03385973 -2.000638485 0.9481403232 
-12.83739948 2.904291868 -2.000608206 0.9481410384 
-12.95379353 2.330351591 -2.000596523 0.948141396 
-13.10955334 1.169792414 -2.000580788 0.9481417537 
-13.14859104 0.5854760408 -2.000576496 0.9481418133 
-13.16159439 0 -2.000574589 0.9481419325 
-13.10953617 -1.169787526 -2.000578165 0.9481418133 
-12.95376682 -2.33037591 -2.000591755 0.9481414557 
-12.83734322 -2.904309034 -2.000602007 0.9481412172 
-12.52857876 -4.033842564 -2.000629902 0.948140502 
-12.12069511 -5.131486893 -2.000667095 0.9481396079 
-10.69027042 -7.680085182 -2.000798941 0.9481363893 
-10.33828354 -8.148163795 -2.000831366 0.9481353164 
-9.965737343 -8.600133896 -2.000865936 0.9481345415 
-9.162177086 -9.452187538 -2.000940561 0.9481329322 
-8.597285271 -9.697611809 -1.96990335 0.9489162564 
-7.865995884 -9.710659027 -1.899523616 0.9506954551 
-6.32980442 -10.38628674 -1.848806143 0.9519799352 
-5.861660004 -10.65782928 -1.848849773 0.9519788623 
-4.891440392 -11.13716984 -1.848940492 0.9519765973 
-3.365829945 -11.69004631 -1.849083543 0.9519729018 
-2.842548847 -11.82850838 -1.849132538 0.9519716501 
-2.313613176 -11.94357109 -1.849182248 0.9519703984 
-1.780097604 -12.03499222 -1.849232316 0.9519691467 
-1.242998004 -12.10259724 -1.849282622 0.9519678354 
-0.7034375072 -12.14624214 -1.849333405 0.9519665837 
-0.1624316424 -12.1658392 -1.849384308 0.9519652724 
1.458398461 -12.08020687 -1.849536896 0.9519614577 
2.526474476 -11.90342999 -1.849637389 0.9519588351 
3.574658155 -11.63238716 -1.849736333 0.9519563317 
5.578300476 -10.8167963 -1.849925637 0.951951623 
7.453085899 -9.720739365 -1.861896634 0.9516487122 
8.152480125 -9.705945015 -1.926683903 0.9500084519 
8.905585289 -9.692257881 -2.00069952 0.9481387734 
9.337148666 -9.295710564 -2.002680779 0.9480887651 
10.12678242 -8.429333687 -2.00275588 0.9480868578 
10.83625984 -7.49616909 -2.00282383 0.9480851889 
11.15915966 -7.006825924 -2.002854586 0.948084414 
11.45997047 -6.503573895 -2.002883434 0.9480836987 
11.73809528 -5.987443924 -2.002910137 0.9480829835 
11.99294853 -5.459425926 -2.002934694 0.9480823874 
12.61329079 -3.814704418 -2.002994776 0.9480808377 
13.00901794 -2.10199213 -2.003033876 0.9480799437 
13.08971691 -1.521227956 -2.003041983 0.9480797052 
13.1731739 -0.3518041968 -2.003051043 0.9480794668 
13.17582035 0.2345629781 -2.003051996 0.9480793476 
13.15229988 0.8204345703 -2.003050566 0.9480795264 
13.10275841 1.404675245 -2.003046274 0.948079586 
13.02725601 1.986135244 -2.003040075 0.9480797648 
12.64678669 3.702321768 -2.003005981 0.9480805993 
12.46948719 4.261198521 -2.002990007 0.9480810165 
12.2674799 4.811647892 -2.002971411 0.9480814338 
11.79101562 5.88279295 -2.00292778 0.9480825067 
10.36690426 6.381454945 -1.850394368 0.951939702 
10.0726366 6.836184025 -1.850367188 0.9519404173 
9.758402824 7.277372837 -1.850338101 0.9519411325 
9.424833298 7.704115868 -1.850307107 0.9519420266 
9.072675705 8.115607262 -1.850274444 0.9519427419 
8.70181179 8.510341644 -1.850093365 0.9519473314 
8.312850952 8.887111664 -1.84969902 0.951957345 
7.487074852 9.586948395 -1.848957062 0.9519760609 
6.602949142 10.21070576 -1.848281622 0.951993227 
6.141171932 10.49255085 -1.847970724 0.9520011544 
3.370644569 10.63077164 -1.695165157 0.9558811188 
2.952690363 10.98703384 -1.729294062 0.9550130963 
2.35587883 10.63287067 -1.655403376 0.9568933845 
1.852060556 10.56458187 -1.630315781 0.9575325251 
1.385034204 10.67323208 -1.635945082 0.9573891163 
0.901904285 10.64194775 -1.623385429 0.9577091932 
0.4286181629 10.69645214 -1.627176523 0.9576125741 
-0.04738281295 10.65183067 -1.619104624 0.9578183293 
-0.5176073909 10.56652355 -1.608048797 0.9581002593 
-0.9668554664 10.31652069 -1.574991107 0.958943665 
-1.452421784 10.46183586 -1.605458736 0.9581662416 
-1.979375005 10.72844219 -1.658253193 0.9568206668 
-2.441635609 10.57338333 -1.649453878 0.9570447803 
-5.148779392 10.67416 -1.801371694 0.9531826377 
-6.23059082 10.43125248 -1.846865296 0.952029109 
-7.983520508 9.168422699 -1.847899318 0.952002883 
-8.384848595 8.805678368 -1.848205805 0.9519951344 
-9.136098862 8.027099609 -1.848561764 0.9519860744 
-9.48396492 7.612604618 -1.848528504 0.9519869089 
-11.38837337 6.197621822 -1.970785022 0.9488942623 
-11.82987309 5.77119875 -2.000705957 0.9481382966 
-12.2956152 4.696833611 -2.000660896 0.9481397271 
-12.81104469 3.018447161 -2.000610828 0.9481409788 
-13.02848148 1.867851496 -2.000589132 0.9481415153 
-13.09863472 1.286430597 -2.00058198 0.9481416941 
-13.15325451 -0.4684667885 -2.000574827 0.9481419325 
-13.11941624 -1.053110361 -2.00057745 0.9481418133 
-13.05961132 -1.635668874 -2.000582457 0.9481417537 
-12.86266327 -2.789946318 -2.000599861 0.9481412768 
-12.72589588 -3.359377384 -2.00061202 0.9481409788 
-12.56396484 -3.922180176 -2.000626564 0.9481405616 
-11.08485317 -7.098437309 -2.000762224 0.9481369257 
-9.245966911 -9.370265961 -2.000932932 0.9481328726 
-8.750067711 -9.694799423 -1.98506999 0.9485332966 
-8.008036613 -9.708173752 -1.912900686 0.9503571391 
-5.956249714 -10.60519505 -1.848841071 0.9519790411 
-5.478740215 -10.85991669 -1.848885655 0.9519779086 
-4.990322113 -11.09314919 -1.848931432 0.9519768357 
-4.492050648 -11.30444336 -1.848977923 0.951975584 
-3.984853506 -11.49336433 -1.849025488 0.9519743919 
-3.469736338 -11.6595602 -1.849073768 0.9519731402 
-2.94770503 -11.80268002 -1.849122763 0.9519718885 
-0.2706542909 -12.16384506 -1.849374056 0.9519655704 
0.811557591 -12.1404314 -1.84947598 0.9519629478 
1.350830078 -12.09264374 -1.849526644 0.9519616961 
2.420410156 -11.92537785 -1.849627495 0.9519591331 
5.959853172 -10.61163044 -1.849961758 0.9519506693 
6.879735947 -10.04038811 -1.8500489 0.9519485235 
7.324721336 -9.731274605 -1.851351023 0.9519154429 
10.76908207 -7.592275143 -2.002817392 0.9480853677 
11.40162086 -6.605290413 -2.002877951 0.9480837584 
11.68431568 -6.091645241 -2.002904892 0.9480831027 
12.74113274 -3.363405704 -2.003007412 0.9480805397 
12.87821293 -2.79332757 -2.003020763 0.9480802417 
13.0756588 -1.637621999 -2.003040552 0.9480797052 
13.1695118 -0.4689965844 -2.003050566 0.9480795264 
13.1773634 0.1172924787 -2.003051996 0.9480794072 
13.15907669 0.7033569217 -2.003051043 0.9480795264 
13.04443359 1.870134234 -2.003041267 0.9480797052 
12.9482708 2.448535204 -2.003032923 0.9480799437 
12.82648849 3.02208972 -2.003022194 0.9480801225 
12.67924786 3.589631319 -2.003008842 0.9480805993 
11.84293461 5.777619362 -2.002932549 0.9480824471 
