# .PCD v0.7 - Point Cloud Data file format
VERSION 0.7
FIELDS x y z intensities
SIZE 4 4 4 4
TYPE F F F F
COUNT 1 1 1 1
WIDTH 924
HEIGHT 1
VIEWPOINT 0 0 0 1 0 0 0
POINTS 924
DATA ascii
1.166264653 -13.7612257 -1.585144281 0.9459127784 
1.787919879 -13.77785587 -1.594649911 0.9455974102 
2.418325186 -13.79471684 -1.607472181 0.9451721907 
3.060239077 -13.81188488 -1.62374258 0.9446328878 
4.390561581 -13.84746552 -1.667358875 0.9431887269 
8.593300819 -13.28845692 -1.81634748 0.9382721186 
9.1929245 -12.91698742 -1.819718719 0.9381611943 
9.758432388 -12.49526787 -1.819718719 0.9381611347 
10.3046236 -12.04880333 -1.819718719 0.9381611347 
11.33470154 -11.08526325 -1.819718719 0.9381611943 
12.60162067 -10.30087376 -1.868124008 0.9365695119 
14.63211918 -9.006933212 -1.972118735 0.9331591129 
15.01829529 -8.3471241 -1.972118735 0.9331591129 
15.70073986 -6.97927475 -1.972118735 0.9331591725 
15.99567604 -6.273947716 -1.972118735 0.9331591129 
16.25891876 -5.556198597 -1.972118735 0.9331591129 
16.85380173 -3.342653751 -1.972118735 0.9331591129 
16.98580933 -2.589623928 -1.972118735 0.9331591129 
17.14874649 -1.069692373 -1.972118735 0.9331591129 
17.17935562 -0.3058007658 -1.972118735 0.9331591129 
17.17595482 0.4586962759 -1.972118735 0.9331591129 
16.96208 2.740717649 -1.972118735 0.9331591129 
16.44636917 4.973962307 -1.972118735 0.9331591725 
14.70747757 5.920192719 -1.819718719 0.9381611943 
14.42956257 6.568571568 -1.819718719 0.9381611943 
14.12305355 7.204018593 -1.819718719 0.9381611943 
12.64224052 9.604279518 -1.822286129 0.9380766749 
12.1987648 10.1540432 -1.82172966 0.9380949736 
11.73152351 10.68346214 -1.821189404 0.9381127954 
11.24143505 11.19152832 -1.820665956 0.9381300211 
10.72948742 11.67726994 -1.820160627 0.9381466508 
10.19668388 12.13976002 -1.819674373 0.9381626248 
9.644105911 12.5781002 -1.819207907 0.9381780028 
8.483960152 13.37908173 -1.818338394 0.9382066131 
7.258149147 14.07414055 -1.817558885 0.9382322431 
5.976279259 14.65802193 -1.8168751 0.9382547736 
5.317378044 14.90688419 -1.816570878 0.9382647872 
2.512602568 8.176445007 -0.9817848802 0.9661464691 
2.592665911 15.6046381 -1.815617323 0.9382961392 
0.492529273 15.80716801 -1.815190673 0.9383102059 
-0.4541161954 7.841479301 -0.9015350342 0.9688701034 
-1.029907227 6.963134766 -0.8079077005 0.9720574021 
-1.988149405 6.905180454 -0.8247594833 0.9714829922 
-2.33450675 6.932114124 -0.8395605087 0.9709787369 
-3.951567411 7.184775352 -0.9411495924 0.9675247073 
-4.31426239 7.079038143 -0.9515185356 0.9671728015 
-5.831108093 7.198603153 -1.063301206 0.9633877277 
-6.961254597 7.181518555 -1.147967458 0.9605306983 
-7.663549423 7.232573032 -1.209477305 0.9584604502 
-9.326245308 7.350527287 -1.36295557 0.9533141851 
-11.26648903 7.357011318 -1.544427752 0.9472647309 
-13.42158699 7.150033951 -1.745458007 0.9406082034 
-14.59978008 6.181010723 -1.819718719 0.9381611943 
-15.12665939 5.624477386 -1.852333665 0.9370883107 
-16.3552494 5.265869141 -1.972118735 0.9331591725 
-17.16507339 0.7643212676 -1.972118735 0.9331591129 
-17.16507339 -0.7643261552 -1.972118735 0.9331591129 
-17.11407661 -1.527124047 -1.972118735 0.9331591129 
-17.02920341 -2.28691411 -1.972118735 0.9331591129 
-16.57330513 -4.533124924 -1.972118735 0.9331591129 
-16.35521889 -5.26595211 -1.972118735 0.9331591725 
-15.8224659 -6.698735237 -1.972118735 0.9331591725 
-15.16444778 -8.078505516 -1.972118735 0.9331592321 
-14.79010201 -8.745087624 -1.972118735 0.9331591129 
-14.38644505 -9.394345284 -1.972118735 0.9331591725 
-13.95431137 -10.02500916 -1.972118735 0.9331591725 
-13.0600729 -10.29337883 -1.908622146 0.9352399111 
-12.00275898 -10.35809994 -1.819718719 0.9381614327 
-11.0347414 -11.38390064 -1.819718719 0.9381611347 
-9.979282379 -12.31962395 -1.819718719 0.9381610751 
-8.259228706 -13.55211353 -1.821584582 0.9380997419 
-5.730136395 -14.80275345 -1.821879268 0.9380900264 
-3.731957912 -12.96167946 -1.548149347 0.9471411109 
-3.278437376 -13.64234352 -1.610415936 0.9450745583 
-2.645976543 -13.65926266 -1.596922755 0.9455220103 
-2.022797823 -13.67593193 -1.586769223 0.9458588362 
-0.793915987 -13.70879364 -1.576100707 0.9462128878 
-0.1832372993 -13.72512627 -1.575479507 0.946233511 
0.4281640649 -13.74147892 -1.57798171 0.9461504817 
1.662949204 -13.77452087 -1.592486501 0.9456691146 
2.291391611 -13.79132271 -1.604635715 0.9452662468 
3.584047794 -13.82588863 -1.639356971 0.9441156387 
4.94481945 -13.8622942 -1.689278483 0.9424637556 
5.659638405 -13.8814106 -1.720613956 0.9414283633 
6.40297842 -13.90130329 -1.756677151 0.9402381182 
7.179716587 -13.92207527 -1.797920227 0.9388788342 
7.606156826 -13.26494122 -1.755056858 0.9402915835 
8.432783127 -13.29837418 -1.807369471 0.9385676384 
9.07759285 -12.99830055 -1.819718719 0.9381611943 
9.646811485 -12.58164024 -1.819718719 0.9381611347 
10.19695759 -12.14005375 -1.819718719 0.9381611347 
11.23560047 -11.18571281 -1.819718719 0.9381611347 
12.37948227 -10.30447006 -1.848717332 0.9372072816 
13.5388298 -10.285429 -1.951524258 0.9338335395 
14.1305542 -9.775016785 -1.972118735 0.9331591725 
14.55140114 -9.136759758 -1.972118735 0.9331591725 
15.6380291 -7.118691444 -1.972118735 0.9331591129 
15.93921375 -6.416015625 -1.972118735 0.9331591129 
16.20883942 -5.70063448 -1.972118735 0.9331591129 
16.65135765 -4.237446308 -1.972118735 0.9331591129 
16.82337189 -3.492541313 -1.972118735 0.9331591129 
17.06721115 -1.983471632 -1.972118735 0.9331591129 
17.1385479 -1.222297311 -1.972118735 0.9331591129 
17.17595482 -0.4587036073 -1.972118735 0.9331591129 
17.17935753 0.3058007658 -1.972118735 0.9331591129 
16.98579597 2.589704514 -1.972118735 0.9331591129 
16.85377884 3.34272933 -1.972118735 0.9331591129 
16.68840599 4.089130878 -1.972118735 0.9331591129 
16.48997116 4.827436447 -1.972118735 0.9331591725 
14.77153492 5.793849945 -1.821210146 0.9381125569 
14.48743153 6.439936161 -1.819718719 0.9381611943 
14.18663311 7.078014851 -1.819718719 0.9381611347 
13.85772419 7.702079773 -1.819718719 0.9381611943 
13.52989483 8.328444481 -1.823561192 0.9380347133 
13.14178181 8.919186592 -1.82297349 0.9380540848 
12.72801685 9.491950035 -1.822399259 0.9380729795 
12.28940201 10.04566383 -1.821839809 0.9380913973 
11.3412447 11.09165955 -1.82076931 0.9381266236 
10.83359814 11.58193302 -1.820260286 0.9381433725 
10.30489254 12.04915047 -1.819769979 0.9381594658 
8.00094223 13.67015076 -1.818015456 0.9382172227 
7.383378506 14.00957966 -1.817632556 0.9382297993 
6.7515378 14.32132339 -1.817273498 0.938241601 
4.78289032 15.08481884 -1.816346049 0.9382721782 
2.67766118 15.27400398 -1.779849648 0.9394741654 
1.335634708 15.75956535 -1.815330863 0.9383055568 
-0.07034667581 15.81406689 -1.815119863 0.9383125305 
-2.694545746 7.149169922 -0.8769158721 0.9697072506 
-3.390966654 7.029955864 -0.8958483934 0.9690634608 
-3.868154287 7.183813095 -0.9364767075 0.9676833153 
-4.716088772 7.152485371 -0.9833418131 0.966093719 
-5.662709713 7.119365215 -1.044108868 0.9640365243 
-8.955981255 7.188798904 -1.318138719 0.9548140764 
-13.26569748 7.219233036 -1.733468771 0.941003859 
-14.54421806 6.310727596 -1.819718719 0.9381610751 
-14.81035614 5.657495022 -1.819718719 0.9381617308 
-16.88286018 3.192568302 -1.972118735 0.9331591725 
-17.00816917 2.438398361 -1.972118735 0.9331591725 
-17.09980011 1.679399371 -1.972118735 0.9331591725 
-17.18138123 0.1528759748 -1.972118735 0.9331591725 
-17.17119598 -0.6115722656 -1.972118735 0.9331591129 
-17.12699127 -1.374804616 -1.972118735 0.9331591129 
-17.04887199 -2.13530755 -1.972118735 0.9331591725 
-16.93701172 -2.891596556 -1.972118735 0.9331591129 
-16.79161644 -3.642153263 -1.972118735 0.9331591129 
-16.61297417 -4.385502815 -1.972118735 0.9331591725 
-15.88146973 -6.557641506 -1.972118735 0.9331591129 
-15.57403755 -7.257616997 -1.972118735 0.9331591725 
-14.4695015 -9.265917778 -1.972118735 0.9331591129 
-14.04322243 -9.900400162 -1.972118735 0.9331584573 
-12.16611767 -10.31148911 -1.830483556 0.9378069639 
-11.62655735 -10.77875996 -1.819718719 0.9381611943 
-11.13557625 -11.28527832 -1.819718719 0.9381611943 
-10.62253857 -11.76946259 -1.819718719 0.9381611943 
-10.08849144 -12.23034191 -1.819718719 0.9381611347 
-9.534438133 -12.66700172 -1.819718719 0.9381611943 
-8.961518288 -13.07859802 -1.819718719 0.9381611943 
-7.148881912 -14.17052746 -1.821714282 0.9380954504 
-6.511723518 -14.47510242 -1.82178843 0.9380930066 
-5.861620903 -14.75103951 -1.821864009 0.9380905628 
-3.375585794 -13.51590347 -1.598975778 0.9454540014 
-1.529199243 -13.68913078 -1.580979705 0.9460509419 
-0.3053222597 -13.7218647 -1.575354218 0.9462376833 
0.3057372868 -13.73821735 -1.577230692 0.9461753368 
0.9194872975 -13.7546339 -1.582247853 0.9460088611 
2.164956093 -13.78794384 -1.601937771 0.9453556538 
2.801923752 -13.80497551 -1.616811037 0.9448626041 
6.251772404 -13.89725113 -1.749063969 0.9404892921 
7.021410942 -13.91784668 -1.789231181 0.9391649961 
7.459863186 -13.28240681 -1.748512268 0.9405074716 
8.257787704 -13.28237724 -1.795131803 0.9389705658 
9.534438133 -12.66700649 -1.819718719 0.9381611943 
10.62260246 -11.76940918 -1.819718719 0.9381611347 
11.62655735 -10.77876472 -1.819718719 0.9381611347 
12.16613293 -10.31148911 -1.830484748 0.9378069043 
13.29674816 -10.28946495 -1.929755807 0.9345468879 
14.0430584 -9.900403023 -1.972118735 0.9331589341 
14.86735821 -8.613095284 -1.972118735 0.9331591129 
15.23581505 -7.943144321 -1.972118735 0.9331591725 
15.57404041 -7.25760746 -1.972118735 0.9331591725 
16.157444 -5.844685078 -1.972118735 0.9331591725 
16.61297989 -4.385495663 -1.972118735 0.9331591129 
17.12698746 -1.374807119 -1.972118735 0.9331591129 
17.15758324 0.9170800447 -1.972118735 0.9331591129 
17.09981346 1.679328561 -1.972118735 0.9331591129 
17.0081768 2.438410521 -1.972118735 0.9331591129 
16.88288307 3.192504883 -1.972118735 0.9331591129 
16.53227425 4.680537224 -1.972118735 0.9331591725 
16.30773354 5.411244869 -1.972118735 0.9331591129 
13.92572975 7.578424931 -1.819718719 0.9381611943 
12.37909126 9.936479568 -1.821950436 0.9380877018 
10.93682098 11.48572254 -1.820360541 0.9381400347 
10.41228962 11.95757294 -1.819866538 0.9381563067 
8.721532822 13.22717762 -1.818505406 0.9382011294 
7.508090496 13.94387627 -1.8177073 0.9382273555 
6.878959656 14.26123047 -1.817343354 0.938239336 
5.582201958 14.81085396 -1.81668961 0.9382608533 
2.659223557 14.41365719 -1.682287574 0.942694962 
2.175092697 15.66737747 -1.815511703 0.9382995963 
1.475810528 15.74729443 -1.815358281 0.9383046627 
-0.6331005692 15.80108356 -1.81506741 0.9383142591 
-2.169897318 6.843569279 -0.8240295053 0.9715079069 
-2.993481398 7.159150124 -0.890652597 0.9692400694 
-3.296860218 6.993256569 -0.8873966932 0.9693507552 
-5.120444298 7.194799423 -1.013587594 0.965069294 
-5.575815201 7.139594555 -1.039759517 0.9641836882 
-6.674672604 7.135727406 -1.121477008 0.9614236951 
-7.315688133 7.154750824 -1.174494267 0.9596373439 
-8.036381721 7.188622952 -1.237576723 0.9575161338 
-8.917309761 7.289155006 -1.321939826 0.9546867609 
-10.78228474 7.317753792 -1.495668173 0.9488863349 
-12.04153824 7.412260532 -1.622957826 0.9446588159 
-14.77252388 5.793852329 -1.821208119 0.9381090999 
-16.25893974 5.556128025 -1.972118735 0.9331591129 
-16.48999023 4.827445984 -1.972118735 0.9331591129 
-16.85377312 3.342719555 -1.972118735 0.9331591725 
-16.98581505 2.589623928 -1.972118735 0.9331591129 
-17.08417511 1.831542969 -1.972118735 0.9331591725 
-17.14877319 1.069687486 -1.972118735 0.9331590533 
-17.17936897 0.3058642447 -1.972118735 0.9331590533 
-17.17596245 -0.4587060511 -1.972118735 0.9331591129 
-17.13854408 -1.222368121 -1.972118735 0.9331591129 
-17.06720734 -1.98347652 -1.972118735 0.9331591129 
-16.65133667 -4.237514496 -1.972118735 0.9331591725 
-16.44639206 -4.97396946 -1.972118735 0.9331590533 
-16.20881271 -5.700697899 -1.972118735 0.9331591725 
-15.93921375 -6.416005611 -1.972118735 0.9331591129 
-15.6380024 -7.118759632 -1.972118735 0.9331591129 
-14.55141544 -9.136767387 -1.972118735 0.9331590533 
-14.1303854 -9.775068283 -1.972118735 0.9331595898 
-11.722085 -10.67479515 -1.819718719 0.9381611943 
-11.23558521 -11.18571281 -1.819718719 0.9381611943 
-10.19696712 -12.14006329 -1.819718719 0.9381610751 
-9.646742821 -12.58167934 -1.819718719 0.9381611943 
-9.077607155 -12.99830532 -1.819718719 0.9381611347 
-7.894672871 -13.76808548 -1.82162714 0.938098371 
-7.274623871 -14.10624504 -1.821699619 0.9380959272 
-6.640253544 -14.41643047 -1.821773529 0.9380935431 
-5.99257803 -14.69817352 -1.82184875 0.9380910993 
-3.362582922 -12.97155285 -1.538057089 0.9474765062 
-2.897685528 -13.6525383 -1.601912141 0.9453564882 
-2.271171808 -13.66929626 -1.590437531 0.9457370639 
-1.65224123 -13.68583965 -1.582235098 0.9460092783 
0.7963769436 -13.75133228 -1.580991149 0.9460505843 
2.038867235 -13.78456974 -1.599373937 0.9454407096 
3.983925581 -13.83658695 -1.652650833 0.9436754584 
4.665849686 -13.85482407 -1.677979946 0.9428373575 
7.452685356 -13.55074692 -1.775032878 0.9396328926 
8.092133522 -13.27794933 -1.784735799 0.9393131733 
9.42137146 -12.75133228 -1.819718719 0.9381611347 
9.979208946 -12.31965828 -1.819718719 0.9381611347 
10.51741219 -11.86349583 -1.819718719 0.9381611943 
11.03479004 -11.38385201 -1.819718719 0.9381611347 
11.53019524 -10.88178158 -1.819718719 0.9381611943 
12.00310993 -10.35804176 -1.819718719 0.9381605387 
13.06006527 -10.29337406 -1.90862143 0.9352399707 
14.79014111 -8.745029449 -1.972118735 0.9331591129 
15.50885201 -7.395881176 -1.972118735 0.9331591725 
16.10482407 -5.988207817 -1.972118735 0.9331591129 
16.75853539 -3.791474581 -1.972118735 0.9331591129 
17.16506577 -0.7642480135 -1.972118735 0.9331591725 
17.16506767 0.7643896341 -1.972118735 0.9331591129 
17.11407661 1.527131319 -1.972118735 0.9331591129 
17.02919579 2.286984921 -1.972118735 0.9331591129 
16.57330513 4.533127308 -1.972118735 0.9331591129 
16.35522842 5.265944481 -1.972118735 0.9331591129 
15.12673092 5.624484539 -1.852334857 0.9370880723 
14.59975529 6.181074142 -1.819718719 0.9381611943 
13.99261189 7.454223633 -1.819718719 0.9381611347 
11.70991707 7.646572113 -1.605211139 0.9452469945 
12.01462364 10.36835957 -1.821511626 0.9381021857 
11.03918934 11.38859367 -1.820461631 0.9381366968 
8.839282036 13.14967728 -1.818590045 0.938198328 
8.243764877 13.52673817 -1.818175197 0.9382119775 
7.632172585 13.87709904 -1.817782879 0.9382249117 
7.005951881 14.19996071 -1.817414403 0.9382370114 
4.378154278 15.20578575 -1.816188455 0.9382773638 
2.597275257 10.8078661 -1.275820851 0.9562324882 
2.314448118 15.64770031 -1.815545917 0.9382984638 
0.9143896103 15.78894997 -1.815255642 0.9383080602 
-0.4924951196 15.80619621 -1.815078855 0.9383138418 
-0.8431396484 6.983940125 -0.8074210882 0.9720739722 
-1.16913569 7.036615849 -0.8187193274 0.9716888666 
-1.493173838 7.03515625 -0.825466454 0.9714588523 
-2.93803215 7.206186295 -0.8932141066 0.969152987 
-3.211303711 6.971928596 -0.8810294867 0.9695672989 
-3.665815353 7.108359337 -0.9179864526 0.9683111906 
-4.068471432 7.095302582 -0.9387667775 0.9676055908 
-5.474257469 7.139599323 -1.032625675 0.9644249678 
-6.090546608 7.251122952 -1.086901069 0.9625905752 
-6.616235256 7.200610161 -1.122377872 0.9613932967 
-7.155649185 7.123881817 -1.158929944 0.9601613879 
-7.810297489 7.112485409 -1.212457418 0.9583602548 
-8.816401482 7.338608265 -1.316617966 0.9548650384 
-10.45635223 7.233388424 -1.459334731 0.9500965476 
-11.60352039 7.285786152 -1.572597623 0.9463291168 
-13.03184032 7.39563942 -1.71984601 0.9414537549 
-14.05034637 7.166845322 -1.810345769 0.9384696484 
-14.4295454 6.568637371 -1.819718719 0.9381611347 
-14.70746994 5.920190334 -1.819718719 0.9381611943 
-16.44638634 4.973955154 -1.972118735 0.9331591129 
-16.651371 4.237377644 -1.972118735 0.9331591725 
-17.06722069 1.983461857 -1.972118735 0.9331590533 
-17.13855362 1.222221613 -1.972118735 0.9331591129 
-17.175951 0.4587011635 -1.972118735 0.9331591129 
-17.17934608 -0.3058740199 -1.972118735 0.9331591725 
-17.08417511 -1.831547856 -1.972118735 0.9331591725 
-16.98579597 -2.589633703 -1.972118735 0.9331591725 
-16.85378456 -3.34272933 -1.972118735 0.9331591129 
-16.68841743 -4.089067459 -1.972118735 0.9331591129 
-15.99567318 -6.273945332 -1.972118735 0.9331591129 
-15.7007761 -6.979208946 -1.972118735 0.9331591129 
-15.01825619 -8.347202301 -1.972118735 0.9331591129 
-14.21692848 -9.64896965 -1.972118735 0.9331591129 
-12.60150337 -10.30088329 -1.868114471 0.9365698695 
-11.3346529 -11.08531189 -1.819718719 0.9381611943 
-10.83037567 -11.57849121 -1.819718719 0.9381611943 
-9.758407593 -12.4952631 -1.819718719 0.9381611943 
-9.19288063 -12.91703129 -1.819718719 0.9381611347 
-8.609209061 -13.31312943 -1.819718719 0.9381612539 
-5.46586895 -14.90263653 -1.821909904 0.9380890727 
-4.1064744 -12.95166016 -1.559494495 0.9467642903 
-3.485156059 -12.96827126 -1.541283488 0.9473692775 
-3.024116039 -13.64914513 -1.604608774 0.9452671409 
-2.395751953 -13.6659565 -1.592467427 0.9456697702 
-1.775488257 -13.68255329 -1.583617568 0.9459633827 
-1.160986304 -13.69898415 -1.5779742 0.9461507201 
-0.5495312214 -13.71533203 -1.575477719 0.9462335706 
0.6735156178 -13.74805164 -1.579861999 0.9460880756 
1.289985299 -13.76453114 -1.586784959 0.9458583593 
2.545659065 -13.79812431 -1.610444546 0.9450736642 
3.190278292 -13.81536102 -1.627425551 0.9445108771 
3.84982419 -13.83300781 -1.648062229 0.9438273311 
5.953276157 -13.88927746 -1.734447598 0.9409715533 
7.531586647 -13.9874897 -1.823393703 0.9380402565 
7.928373814 -13.27355957 -1.774593115 0.9396474361 
8.727353096 -13.23601055 -1.819718719 0.9381611347 
9.869208336 -12.40795422 -1.819718719 0.9381611347 
10.93296337 -11.48167896 -1.819718719 0.9381611347 
13.86452103 -10.14883041 -1.972118735 0.9331591129 
14.30230713 -9.521979332 -1.972118735 0.9331591129 
16.05090141 -6.131257057 -1.972118735 0.9331591129 
16.72413826 -3.940424681 -1.972118735 0.9331591129 
17.00817108 -2.438400745 -1.972118735 0.9331591129 
17.09981155 -1.679331064 -1.972118735 0.9331591129 
17.15758514 -0.917077601 -1.972118735 0.9331591129 
17.18139076 -0.152873531 -1.972118735 0.9331591725 
17.04888725 2.135244131 -1.972118735 0.9331591129 
16.93701363 2.891594172 -1.972118735 0.9331591129 
16.79163361 3.642082453 -1.972118735 0.9331591129 
16.40140915 5.120087624 -1.972118735 0.9331593513 
15.52682304 5.616555214 -1.895146012 0.9356821775 
14.3705225 6.696752548 -1.819718719 0.9381611943 
12.97932625 9.150497437 -1.822742105 0.9380616546 
12.10721207 10.26155758 -1.821620464 0.9380986094 
11.63528824 10.78684044 -1.821083307 0.9381162524 
10.62455082 11.77166939 -1.820061803 0.9381498694 
4.379990101 7.798578739 -1.026623726 0.9646282792 
7.132304668 14.13762188 -1.817486048 0.9382346272 
6.495034218 14.43815422 -1.817136765 0.9382461309 
4.51339817 15.16665936 -1.816239834 0.9382756948 
3.833676577 15.35035133 -1.81599319 0.9382838011 
2.453613281 15.62678719 -1.815580964 0.9382973313 
1.755957007 15.71903324 -1.815416336 0.9383027554 
0.3518701196 15.81075668 -1.815171361 0.938310802 
-0.4888818264 7.313827991 -0.8413380384 0.9709181786 
-0.7781786919 6.966200829 -0.8045377731 0.9721723199 
-2.403925657 6.93347168 -0.8422845006 0.9708859921 
-3.150668859 7.003588676 -0.8814536929 0.9695528746 
-3.526967764 6.991127968 -0.8987586498 0.9689645171 
-4.389194012 7.059863091 -0.9541523457 0.9670834541 
-4.86266613 7.096577168 -0.9874021411 0.9659561515 
-6.019365311 7.297235966 -1.085742593 0.9626296759 
-6.52752924 7.232304573 -1.118212819 0.9615337849 
-7.087202072 7.182412148 -1.158147693 0.9601877332 
-7.744550705 7.179819107 -1.212129831 0.9583712816 
-8.539926529 7.238066196 -1.284893751 0.9559281468 
-9.482201576 7.337626934 -1.376151681 0.9528729916 
-14.3705225 6.69674778 -1.819718719 0.9381611943 
-14.65422821 6.050805569 -1.819718719 0.9381611347 
-16.4014492 5.120087624 -1.972118735 0.9331592321 
-16.61301231 4.385498047 -1.972118735 0.9331589937 
-16.93701172 2.891591787 -1.972118735 0.9331591129 
-17.04888725 2.135224581 -1.972118735 0.9331591129 
-17.12698746 1.374799728 -1.972118735 0.9331591129 
-17.17120552 0.6114941239 -1.972118735 0.9331590533 
-16.30773354 -5.411250114 -1.972118735 0.9331591129 
-16.05084419 -6.131386757 -1.972118735 0.9331591725 
-15.44237232 -7.533705711 -1.972118735 0.9331591725 
-15.09200191 -8.213125229 -1.972118735 0.9331591129 
-14.71167469 -8.876396179 -1.972118735 0.9331591129 
-14.30228996 -9.521986961 -1.972118735 0.9331591129 
-13.86452579 -10.14882278 -1.972118735 0.9331591129 
-11.91856384 -10.4731636 -1.821218729 0.9381157756 
-10.41145992 -11.9566164 -1.819718719 0.9381610751 
-9.869203568 -12.40796375 -1.819718719 0.9381611347 
-9.307451248 -12.83472157 -1.819718719 0.9381611347 
-6.895610332 -14.29575157 -1.821743727 0.9380945563 
-4.232675552 -12.94828606 -1.563564062 0.946629107 
-3.60825181 -12.96498966 -1.544647813 0.9472574592 
-3.151103497 -13.64575672 -1.607444763 0.9451730847 
-2.520654202 -13.6626215 -1.594627976 0.9455980659 
-1.899077058 -13.67924786 -1.585129499 0.9459131956 
-1.283530235 -13.69570255 -1.578849196 0.9461216331 
-0.06107421592 -13.72839355 -1.575729609 0.9462252259 
1.166264653 -13.7612257 -1.585144281 0.9459127784 
1.78797853 -13.77785587 -1.594651103 0.9455973506 
4.390625 -13.84747028 -1.66736114 0.9431886077 
6.555444241 -13.90536118 -1.764493108 0.9399804473 
7.766298771 -13.26921844 -1.764696479 0.939973712 
8.593300819 -13.28845692 -1.81634748 0.9382721186 
9.19288063 -12.9170208 -1.819718719 0.9381611943 
9.758432388 -12.49526787 -1.819718719 0.9381611347 
10.83038521 -11.57849598 -1.819718719 0.9381611347 
11.3346529 -11.08531189 -1.819718719 0.9381611943 
12.60172844 -10.30087376 -1.868133187 0.9365692139 
14.63211918 -9.006933212 -1.972118735 0.9331591129 
15.01832962 -8.347060204 -1.972118735 0.9331591725 
15.70077133 -6.979213715 -1.972118735 0.9331591725 
16.25894737 -5.556130409 -1.972118735 0.9331591129 
17.08417702 -1.831550241 -1.972118735 0.9331591129 
17.17935181 -0.3058740199 -1.972118735 0.9331591129 
17.17595482 0.4586962759 -1.972118735 0.9331591129 
17.13854027 1.222368121 -1.972118735 0.9331591129 
17.06720924 1.983469248 -1.972118735 0.9331591129 
16.96207047 2.740800619 -1.972118735 0.9331591129 
16.44636917 4.973962307 -1.972118735 0.9331591725 
13.06104469 9.035234451 -1.822857499 0.9380578995 
12.64227962 9.604223251 -1.822286129 0.9380766749 
11.73156738 10.68341255 -1.821189404 0.9381127954 
11.24143505 11.19152832 -1.820665956 0.9381300211 
10.19668388 12.13976002 -1.819674373 0.9381626248 
9.072816849 12.99146938 -1.818762302 0.9381926656 
4.474243164 7.80297327 -1.032395124 0.964432776 
6.623608112 14.38027287 -1.817204714 0.9382439256 
2.512602568 8.176445007 -0.9817848802 0.9661464691 
3.970331907 15.31600094 -1.816040397 0.9382822514 
1.895776272 15.70305634 -1.815447092 0.9383017421 
0.492529273 15.80716801 -1.815190673 0.9383102059 
-0.2111816406 15.81268978 -1.815105081 0.9383130074 
-0.4541161954 7.841479301 -0.9015350342 0.9688701034 
-1.029907227 6.963134766 -0.8079077005 0.9720574021 
-1.365688443 7.049921513 -0.8242169023 0.9715014696 
-1.687963843 7.024042606 -0.8291561604 0.9713331461 
-1.988188386 6.905200005 -0.824763 0.971482873 
-2.33450675 6.932114124 -0.8395605087 0.9709787369 
-2.776489258 7.17247057 -0.8827700615 0.9695081115 
-3.083266497 7.020214558 -0.8800550699 0.9696004391 
-3.48312974 7.059726238 -0.9035581946 0.9688013792 
-4.772973537 7.100468636 -0.9819912314 0.966139555 
-5.2789011 7.144711971 -1.019610524 0.9648654461 
-5.831068993 7.198617935 -1.06330049 0.9633877873 
-6.480209827 7.309584618 -1.121202826 0.9614329338 
-8.42149353 7.267426491 -1.27675426 0.9562011361 
-11.26648903 7.357011318 -1.544427752 0.9472647309 
-14.31038094 6.82434082 -1.819718719 0.9381611347 
-14.59975052 6.181074142 -1.819718719 0.9381611943 
-15.12665939 5.624477386 -1.852333665 0.9370883107 
-16.57331467 4.533124924 -1.972118735 0.9331591129 
-16.91061974 3.042158127 -1.972118735 0.9331591129 
-15.89775848 -4.882812391e-06 -1.972118735 0.9379314184 
-15.88201618 -0.7072021365 -1.972118735 0.9379314184 
-15.83483887 -1.412983418 -1.972118735 0.9379314184 
-15.64657688 -2.814794779 -1.972118735 0.9379314184 
-15.50587845 -3.508027315 -1.972118735 0.9379314184 
-15.33448219 -4.194316387 -1.972118735 0.9379314184 
-14.90099049 -5.540629864 -1.972118735 0.937931478 
-14.63978004 -6.197992802 -1.972118735 0.937931478 
-13.68459415 -8.091410637 -1.972118735 0.9379313588 
-13.31127453 -8.692148209 -1.972118735 0.937930882 
-12.91125488 -9.275644302 -1.972118735 0.937931478 
-11.91837406 -10.28519058 -1.95288372 0.9385177493 
-10.91589355 -10.30202579 -1.861947298 0.9412950277 
-10.20989704 -10.53297806 -1.819718719 0.9425874352 
-9.731245041 -10.97673321 -1.819718719 0.9425874352 
-8.183667183 -12.17428684 -1.819718719 0.9425874352 
-7.069228172 -12.85347176 -1.819718719 0.9425874352 
-6.490463734 -13.15521908 -1.819718719 0.9425874352 
-5.898842812 -13.43090343 -1.819718719 0.9425874352 
-4.359438419 -12.9448967 -1.694434166 0.9464323521 
-3.278452158 -13.64234829 -1.740517735 0.9450162649 
-2.022802591 -13.67593765 -1.714959502 0.9458013177 
-0.1832372993 -13.72512627 -1.702758312 0.9461764097 
1.662963867 -13.77451134 -1.721139431 0.9456114769 
3.584008694 -13.82588863 -1.771794677 0.9440563917 
5.548671722 -13.60933113 -1.823165298 0.9424818754 
6.72357893 -13.03760719 -1.819718719 0.9425874352 
7.855761528 -12.38841724 -1.819718719 0.9425874352 
9.43474102 -11.23259735 -1.819718719 0.9425874352 
12.21870136 -10.17061996 -1.972118735 0.937931478 
13.82641602 -7.846542835 -1.972118735 0.937931478 
14.74776554 -5.936450005 -1.972118735 0.937931478 
15.21703053 -4.602184772 -1.972118735 0.937931478 
15.79146004 -1.835207462 -1.972118735 0.937931478 
15.85746098 -1.130930185 -1.972118735 0.937931478 
15.89207935 -0.4244067371 -1.972118735 0.937931478 
15.86690426 0.9897558093 -1.972118735 0.937931478 
15.25739479 4.466562271 -1.972118735 0.937931478 
14.31394005 5.614296913 -1.907345653 0.9399074912 
13.40452576 5.958551884 -1.819718719 0.9425874352 
13.12620068 6.548930645 -1.819718719 0.9425874352 
12.82188892 7.126364708 -1.819718719 0.9425874352 
12.16278267 8.254751205 -1.8234725 0.9424725175 
8.63557148 7.724633694 -1.437286973 0.9543731213 
9.538452148 11.15301704 -1.820506573 0.942563355 
8.505454063 11.9510498 -1.819654346 0.9425894022 
7.963671684 12.31489277 -1.819257617 0.9426015615 
7.406445026 12.65433598 -1.818881631 0.9426130652 
6.834858418 12.96875477 -1.818527222 0.9426239729 
5.653154373 13.52013111 -1.817884803 0.9426436424 
5.045346737 13.75604916 -1.817598224 0.9426524043 
2.513622999 7.927734375 -1.031685472 0.9670339227 
2.528793812 14.42484856 -1.816695094 0.9426800609 
1.884443283 14.52176189 -1.816532254 0.9426850677 
-0.9763720632 7.033017635 -0.8808150887 0.9717860818 
-1.641088843 7.106767654 -0.9047971964 0.9710291624 
-1.929614186 6.933320045 -0.8927713037 0.9714087248 
-3.835463762 7.123110294 -1.003578782 0.9679175615 
-4.659780025 7.067080021 -1.050093889 0.9664557576 
-5.230610371 7.212797642 -1.105259299 0.9647250175 
-5.682377815 7.144086838 -1.13237977 0.9638752341 
-7.379877567 7.090087891 -1.269513011 0.9595899582 
-8.986381531 7.213237286 -1.429465652 0.9546157122 
-11.96479988 7.219008446 -1.733468771 0.9452326894 
-12.88479996 7.011962891 -1.819718719 0.9425874352 
-13.45703602 5.839008808 -1.819718719 0.9425874352 
-14.67717266 5.60657692 -1.949022293 0.9386355877 
-15.08877373 5.006757736 -1.972118735 0.9379314184 
-15.29666996 4.330619812 -1.972118735 0.9379310012 
-15.62089825 2.953930616 -1.972118735 0.937931478 
-15.82162571 1.553837895 -1.972118735 0.937931478 
-15.87510204 0.8485058546 -1.972118735 0.9379314184 
-15.89712334 0.1414892524 -1.972118735 0.9379314184 
-15.88767052 -0.5658300519 -1.972118735 0.937931478 
-15.77451611 -1.97568357 -1.972118735 0.9379314184 
-15.37118626 -4.057670593 -1.972118735 0.937931478 
-14.9497118 -5.407797813 -1.972118735 0.937931478 
-14.40990162 -6.715112209 -1.972118735 0.937931478 
-13.38797379 -8.573329926 -1.972118735 0.9379312992 
-12.99329567 -9.160380363 -1.972118735 0.937931478 
-9.334399223 -11.31613731 -1.819718719 0.9425874352 
-8.821762085 -11.72014618 -1.819718719 0.9425874949 
-6.607280254 -13.09692383 -1.819718719 0.9425874352 
-6.018134594 -13.37788582 -1.819718719 0.9425874352 
-5.423608303 -13.64874935 -1.821909547 0.94252038 
-4.486908913 -12.94148922 -1.699146748 0.9462873936 
-3.37559557 -13.51593685 -1.728153467 0.9453959465 
-2.771645546 -13.65589809 -1.728557825 0.9453835487 
-1.529169917 -13.68914032 -1.708702683 0.9459936023 
-0.9161767364 -13.70552731 -1.70396924 0.9461391568 
-0.3053515553 -13.72187424 -1.702622652 0.9461805224 
0.919457972 -13.75462341 -1.710073471 0.9459515214 
1.538344741 -13.77118587 -1.71894455 0.9456788898 
2.164936543 -13.78794384 -1.731353402 0.9452976584 
3.452119112 -13.82236767 -1.767335415 0.9441931248 
4.11864233 -13.84018993 -1.791288733 0.9434586167 
4.814184666 -13.88543415 -1.823082209 0.9424844384 
7.183354378 -12.79003906 -1.819718719 0.9425874352 
7.745180607 -12.45784187 -1.819718719 0.9425874352 
8.291699409 -12.10097122 -1.819718719 0.9425874352 
9.33440876 -11.31611824 -1.819718719 0.9425874352 
9.828549385 -10.88968754 -1.819718719 0.9425874352 
10.30322266 -10.44169903 -1.819718719 0.9425874949 
11.10894012 -10.29883289 -1.879164219 0.9407685399 
12.12770748 -10.27894974 -1.972118735 0.937931478 
13.38791943 -8.573317528 -1.972118735 0.937931478 
13.75604248 -7.969289303 -1.972118735 0.937931478 
14.09692574 -7.349472523 -1.972118735 0.937931478 
14.40990448 -6.715109825 -1.972118735 0.937931478 
15.17547321 -4.737421989 -1.972118735 0.937931478 
15.37118816 -4.057675838 -1.972118735 0.937931478 
15.84677982 -1.27200675 -1.972118735 0.9379314184 
15.87508297 0.8485082984 -1.972118735 0.937931478 
15.62089825 2.953911066 -1.972118735 0.937931478 
15.29654026 4.330610275 -1.972118735 0.937931478 
15.08874226 5.006757736 -1.972118735 0.9379315376 
14.67720699 5.606574535 -1.949026704 0.9386354685 
12.88480473 7.011962891 -1.819718719 0.9425874352 
12.23648643 8.146674156 -1.823580265 0.9424691796 
11.85851002 8.680376053 -1.823046207 0.9424855709 
8.038344383 7.722709656 -1.382791877 0.9560647011 
6.173378944 7.76139164 -1.230224133 0.9608157277 
5.641044617 7.77877903 -1.191983819 0.9620102644 
8.073295593 12.24405289 -1.819335461 0.9425991774 
7.519072056 12.58843231 -1.818955183 0.9426108599 
6.368022442 13.20184994 -1.818259239 0.9426321387 
5.7734375 13.46973133 -1.817944884 0.9426417947 
3.927548647 14.11209965 -1.817142725 0.9426663518 
3.295493126 14.27112293 -1.816924214 0.9426730275 
2.657114267 14.40205574 -1.816730738 0.942678988 
2.013647318 14.50465775 -1.816562772 0.942684114 
1.366318345 14.57873058 -1.816420555 0.9426884651 
0.06514160335 14.64081478 -1.816214442 0.9426947832 
-0.586176753 14.62870598 -1.816151023 0.9426967502 
-0.9147509336 7.049194336 -0.8817867637 0.971755445 
-1.219116211 6.954125881 -0.8758180141 0.9719439149 
-2.955219746 7.067699909 -0.9503085017 0.9695942998 
-3.297036171 6.993608475 -0.9591354132 0.9693163037 
-4.105810642 7.015004635 -1.008309245 0.9677687883 
-4.516372204 6.984037876 -1.031741023 0.9670321941 
-5.100805759 7.167148113 -1.091264486 0.9651637673 
-7.28712368 7.12676239 -1.264418483 0.9597488046 
-8.898774147 7.274062157 -1.425769329 0.9547303915 
-9.878930092 7.367250919 -1.528738379 0.9515414834 
-11.0857029 7.523740292 -1.661992431 0.9474304318 
-15.25738716 4.466557503 -1.972118735 0.937931478 
-15.44099617 3.78343749 -1.972118735 0.9379314184 
-15.59400845 3.092827082 -1.972118735 0.9379314184 
-15.71614742 2.396083832 -1.972118735 0.9379314184 
-15.89207458 -0.4243994057 -1.972118735 0.937931478 
-15.85746574 -1.130937457 -1.972118735 0.937931478 
-15.79145432 -1.835209966 -1.972118735 0.937931478 
-15.5658493 -3.231479406 -1.972118735 0.937931478 
-15.40668392 -3.920722485 -1.972118735 0.937931478 
-14.7477684 -5.936445236 -1.972118735 0.937931478 
-14.46910572 -6.586616039 -1.972118735 0.9379314184 
-14.16177177 -7.223720551 -1.972118735 0.937931478 
-13.82645512 -7.846562386 -1.972118735 0.9379313588 
-13.46362782 -8.453818321 -1.972118735 0.9379317164 
-12.65902805 -9.617016792 -1.972118735 0.937931478 
-12.21870136 -10.17062473 -1.972118735 0.937931478 
-11.30559063 -10.2955513 -1.896850348 0.940228045 
-10.39635277 -10.34958935 -1.819718719 0.9425858259 
-9.925063133 -10.80178642 -1.819718719 0.9425874949 
-9.434726715 -11.23260212 -1.819718719 0.9425874949 
-8.925737381 -11.64117622 -1.819718719 0.9425874352 
-7.296869755 -12.72561455 -1.819718719 0.9425874352 
-5.544809341 -13.59984303 -1.821895361 0.9425207973 
-4.934545994 -13.83357906 -1.821966171 0.9425185919 
-2.897695303 -13.65252399 -1.731326818 0.9452985525 
-1.652255774 -13.68584442 -1.71006012 0.9459519386 
-1.038525343 -13.70226002 -1.704643965 0.9461184144 
-0.4274511635 -13.71860313 -1.702622294 0.946180582 
3.320868969 -13.81886196 -1.763037801 0.9443249702 
4.690375805 -13.92762184 -1.823068142 0.9424849153 
5.305492878 -13.70571709 -1.82313776 0.9424827695 
5.898842812 -13.43090343 -1.819718719 0.9425874352 
7.069233418 -12.85347176 -1.819718719 0.9425874352 
7.634003639 -12.52626419 -1.819718719 0.9425874949 
8.183681488 -12.17428684 -1.819718719 0.9425874352 
9.731249809 -10.97672844 -1.819718719 0.9425874352 
10.20989704 -10.53297806 -1.819718719 0.9425874352 
11.91834927 -10.28518009 -1.952883601 0.9385178685 
13.31109142 -8.692126274 -1.972118735 0.937931478 
14.03095913 -7.474645615 -1.972118735 0.937931478 
14.63977528 -6.197992802 -1.972118735 0.937931478 
15.50586891 -3.508024931 -1.972118735 0.937931478 
15.64656448 -2.814787626 -1.972118735 0.937931478 
15.75629616 -2.115988731 -1.972118735 0.937931478 
15.7562933 2.115978956 -1.972118735 0.937931478 
15.13269997 4.872287273 -1.972118735 0.9379315376 
13.24068832 6.314260006 -1.819718719 0.9425874352 
11.93599129 8.574990273 -1.823151946 0.9424822927 
11.53940868 9.09485817 -1.822628379 0.9424983263 
10.21791935 10.54123974 -1.821146965 0.9425436854 
8.717607498 11.79883766 -1.819818497 0.9425843954 
6.485487938 13.14512634 -1.818324804 0.9426301718 
5.893300533 13.41826153 -1.818005919 0.9426398873 
5.289692402 13.66491699 -1.817709923 0.9426489472 
2.597285032 10.8078661 -1.378896713 0.9561857581 
2.785234213 14.37812996 -1.816767335 0.9426778555 
2.142680645 14.48641586 -1.816594243 0.9426831603 
0.1954492182 14.63977528 -1.816230297 0.9426943064 
-0.5367626548 7.082167625 -0.8810653687 0.971778214 
-0.8417333961 6.972192287 -0.871183157 0.9720903039 
-1.496752858 7.051943302 -0.8942831159 0.9713609219 
-1.831572175 7.065556526 -0.9054563642 0.97100842 
-2.533666849 7.102910042 -0.9354986548 0.9700610042 
-3.694052696 7.163061142 -0.9997842312 0.96803689 
-4.467036247 7.044457912 -1.034753084 0.9669376016 
-5.02022934 7.188515663 -1.087671518 0.9652764797 
-6.092885494 7.25390625 -1.175159693 0.962536335 
-8.831596375 7.351230145 -1.425432682 0.9547408223 
-9.797182083 7.44286108 -1.526277542 0.9516175985 
-10.27719212 7.109418869 -1.550204158 0.9508780241 
-13.06739712 6.66549778 -1.819718719 0.9425874352 
-13.35098076 6.0776124 -1.819718719 0.9425873756 
-14.99714851 5.274516582 -1.972118735 0.9379318357 
-15.40668869 3.920698166 -1.972118735 0.937931478 
-15.56585407 3.231469631 -1.972118735 0.937931478 
-15.85746574 1.130927682 -1.972118735 0.937931478 
-15.89208508 0.4244091809 -1.972118735 0.9379314184 
-15.89523411 -0.2829785049 -1.972118735 0.9379314184 
-15.59398937 -3.09283185 -1.972118735 0.937931478 
-15.25741673 -4.466567516 -1.972118735 0.9379313588 
-15.04358864 -5.140854359 -1.972118735 0.937931478 
-14.8000536 -5.804945946 -1.972118735 0.9379313588 
-14.22551727 -7.097426414 -1.972118735 0.9379314184 
-13.89570236 -7.723203182 -1.972118735 0.9379314184 
-13.15428162 -8.927670479 -1.972118735 0.9379314184 
-12.30874443 -10.06148434 -1.972118735 0.9379314184 
-11.50592232 -10.29219246 -1.915023446 0.9396731257 
-10.02079582 -10.71304703 -1.819718719 0.9425874352 
-9.534311295 -11.1482029 -1.819718719 0.9425874352 
-7.409833908 -12.66016102 -1.819718719 0.9425874949 
-6.839355469 -12.97725105 -1.819718719 0.9425874352 
-5.665566444 -13.54986763 -1.821881533 0.9425212145 
-5.057416916 -13.78900337 -1.821951985 0.9425190687 
-4.106533051 -12.95165539 -1.685483098 0.9467076659 
-3.485156059 -12.96827126 -1.665799856 0.9473133087 
-2.395751953 -13.6659565 -1.72111845 0.9456120729 
-1.775546789 -13.68254852 -1.711554527 0.9459059834 
-1.160986304 -13.69898415 -1.70545423 0.9460934997 
0.06111327931 -13.73166943 -1.703434229 0.9461556077 
1.290014625 -13.76454067 -1.714977503 0.9458007812 
1.913212895 -13.7812109 -1.725957632 0.945463419 
3.190243959 -13.81535625 -1.758899808 0.9444519877 
3.849853516 -13.83300304 -1.781205535 0.9437677264 
4.566235065 -13.96870041 -1.823054194 0.9424853325 
5.183280945 -13.752285 -1.823123932 0.9424831867 
5.790117264 -13.50859356 -1.823192358 0.9424811006 
6.373129845 -13.21244144 -1.819718719 0.9425874949 
6.954555511 -12.91586399 -1.819718719 0.9425874949 
7.522241116 -12.59372044 -1.819718719 0.9425874352 
8.074985504 -12.24663544 -1.819718719 0.9425874949 
8.611791611 -11.87531185 -1.819718719 0.9425874352 
9.131504059 -11.48047829 -1.819718719 0.9425874352 
9.633178711 -11.06289005 -1.819718719 0.9425874352 
12.39783382 -9.951530457 -1.972118735 0.9379313588 
12.82819557 -9.390190125 -1.972118735 0.937931478 
13.61201668 -8.21286869 -1.972118735 0.937931478 
14.58404732 -6.328024864 -1.972118735 0.937931478 
14.85109329 -5.673012733 -1.972118735 0.937931478 
15.29653263 -4.330619812 -1.972118735 0.937931478 
15.62089825 -2.953938007 -1.972118735 0.937931478 
15.73683834 -2.256137609 -1.972118735 0.937931478 
15.82162285 -1.55384028 -1.972118735 0.937931478 
15.84677219 1.272001982 -1.972118735 0.937931478 
15.77450657 1.975659132 -1.972118735 0.937931478 
15.67099857 2.675412655 -1.972118735 0.937931478 
15.37119102 4.057680607 -1.972118735 0.937931478 
15.17546082 4.737429142 -1.972118735 0.9379315376 
13.63990402 5.632062912 -1.830601454 0.9422541857 
12.69303226 7.353432655 -1.819718719 0.9425873756 
12.38103199 7.928515434 -1.823797584 0.9424625635 
12.01251888 8.468930244 -1.823258281 0.942479074 
11.62054634 8.99230957 -1.822732091 0.9424951673 
11.20587349 9.497675896 -1.822219849 0.9425108433 
10.76936054 9.984013557 -1.821722507 0.9425261021 
9.337538719 11.31992626 -1.820330024 0.9425687194 
7.742548466 12.45364761 -1.819104671 0.9426062703 
6.012680531 13.36574173 -1.818067908 0.94263798 
5.411279202 13.61772442 -1.817767262 0.9426472187 
4.799428463 13.84284592 -1.81749022 0.9426556826 
4.178320408 14.04068375 -1.817237258 0.9426634312 
2.913134813 14.35307598 -1.816805124 0.9426766634 
1.625620127 14.5525341 -1.816474319 0.9426868558 
0.9765868783 14.60942841 -1.816347599 0.9426906705 
0.32573241 14.63759708 -1.816247225 0.9426937699 
-0.325717777 14.63700676 -1.816173196 0.9426960349 
-0.7771630883 6.957241058 -0.8684151769 0.9721776843 
-1.080112338 6.878945351 -0.8637905717 0.9723237753 
-1.433442354 7.062543869 -0.8939741254 0.971370697 
-2.054658175 6.904399395 -0.8936143517 0.9713820815 
-2.844033241 7.157138348 -0.9553759694 0.9694347382 
-3.145639658 6.992499828 -0.9511535168 0.9695677161 
-3.527739286 6.992665768 -0.9715805054 0.9689244032 
-3.973735332 7.075302601 -1.006648898 0.967821002 
-4.3687644 7.026987076 -1.026434779 0.9671989679 
-4.894936562 7.143705845 -1.074257612 0.9656972289 
-5.374828815 7.140693188 -1.108696222 0.9646172523 
-6.004575253 7.279350281 -1.170577884 0.9626796842 
-6.5703125 7.279667854 -1.216467381 0.9612452984 
-7.059389591 7.154257774 -1.246802092 0.9602982998 
-7.767270565 7.200844765 -1.313894272 0.95820719 
-8.540805817 7.238842487 -1.388842106 0.9558765292 
-10.14397907 7.151581764 -1.539650202 0.9512041807 
-12.28968239 7.119760513 -1.76189208 0.9443600774 
-13.29635239 6.196176529 -1.819718719 0.9425874352 
-13.64080524 5.632055759 -1.8306005 0.9422510862 
-15.17552185 4.737431526 -1.972118735 0.9379312992 
-15.37119579 4.057651043 -1.972118735 0.937931478 
-15.536479 3.369877815 -1.972118735 0.937931478 
-15.67100048 2.675415039 -1.972118735 0.937931478 
-15.84678173 1.271997094 -1.972118735 0.9379314184 
-15.89712334 -0.1414794922 -1.972118735 0.9379314184 
-15.82161617 -1.553867102 -1.972118735 0.937931478 
-15.62090302 -2.953940392 -1.972118735 0.937931478 
-15.4740324 -3.645893574 -1.972118735 0.937931478 
-15.08878899 -5.006786823 -1.972118735 0.9379312992 
-14.58404732 -6.328027248 -1.972118735 0.937931478 
-13.96387672 -7.599228382 -1.972118735 0.937931478 
-13.61205006 -8.212885857 -1.972118735 0.9379313588 
-10.11576653 -10.62341785 -1.819718719 0.9425874352 
-9.633149147 -11.06291008 -1.819718719 0.9425874352 
-8.611762047 -11.87530231 -1.819718719 0.9425874949 
-7.522202015 -12.5937252 -1.819718719 0.9425874949 
-6.95456028 -12.91587353 -1.819718719 0.9425874352 
-5.785912991 -13.49878407 -1.821867466 0.9425216913 
-3.151078939 -13.64575672 -1.737305164 0.945114851 
-2.520693302 -13.6626215 -1.723454714 0.945540309 
-1.283559561 -13.69570732 -1.706400394 0.9460644126 
-0.6717236042 -13.71207523 -1.703023911 0.9461681247 
-0.06110351533 -13.72840786 -1.703028321 0.9461680651 
0.5507763624 -13.74476528 -1.70641005 0.9460641146 
1.787919879 -13.77785587 -1.723477602 0.9455396533 
3.060239077 -13.81188488 -1.754920125 0.9445741177 
5.060629845 -13.79777336 -1.823109984 0.942483604 
5.66962862 -13.55949211 -1.823178768 0.9424815178 
8.505766869 -11.95148373 -1.819718719 0.9425873756 
9.028969765 -11.5612936 -1.819718719 0.9425874352 
10.54442406 -10.31236839 -1.829603791 0.9422847629 
12.30873966 -10.06146908 -1.972118735 0.937931478 
12.74412823 -9.50398159 -1.972118735 0.9379314184 
13.15427208 -8.927670479 -1.972118735 0.937931478 
13.53838634 -8.333679199 -1.972118735 0.937931478 
13.89569569 -7.723190784 -1.972118735 0.937931478 
14.2254982 -7.097416878 -1.972118735 0.937931478 
14.80002403 -5.804945946 -1.972118735 0.937931478 
15.25739002 -4.466569901 -1.972118735 0.937931478 
15.71613693 -2.396086454 -1.972118735 0.937931478 
15.80718517 -1.694614172 -1.972118735 0.9379314184 
15.89522457 -0.2829467654 -1.972118735 0.937931478 
15.89207458 0.4244116247 -1.972118735 0.937931478 
15.56584644 3.231474638 -1.972118735 0.937931478 
15.40669155 3.92070055 -1.972118735 0.937931478 
13.96576405 5.621669769 -1.86754632 0.9411237836 
13.35096645 6.077604771 -1.819718719 0.9425874352 
13.06739712 6.665493011 -1.819718719 0.9425874352 
12.4518404 7.81849575 -1.823906779 0.9424592257 
12.08813953 8.36216259 -1.823365092 0.9424757957 
11.70079517 8.889028549 -1.82283628 0.9424920082 
10.85836887 9.888319969 -1.821820736 0.9425230622 
10.40498543 10.35878849 -1.82133615 0.9425379038 
9.438359261 11.23692322 -1.820417881 0.9425660372 
7.853432655 12.38474083 -1.819180846 0.9426039457 
7.293217659 12.71925259 -1.818809032 0.9426153302 
6.718905926 13.02858353 -1.818458796 0.9426260591 
5.532421589 13.56946754 -1.817825556 0.9426454306 
4.92257309 13.79999447 -1.817543745 0.9426540732 
1.755087852 14.53771973 -1.81650269 0.9426859617 
1.106582046 14.6003418 -1.816370845 0.9426900148 
-0.1954492182 14.63942337 -1.816185832 0.9426956773 
-0.4305664003 7.434794903 -0.9238342047 0.9704287052 
-0.7199364901 7.00976038 -0.8741375804 0.971996963 
-1.365805626 7.05067873 -0.8908987045 0.971467793 
-1.698940396 7.069609165 -0.9019553661 0.9711188078 
-2.354829073 6.992406845 -0.9152798057 0.9706985354 
-2.767392635 7.149013519 -0.9509657025 0.969573617 
-3.071850538 6.994184494 -0.9476264715 0.9696788192 
-4.328120232 7.101806641 -1.0316962 0.9670336843 
-4.81176281 7.158144474 -1.069945455 0.9658325911 
-5.309257507 7.185800552 -1.108318806 0.9646290541 
-6.427035809 7.249599457 -1.20183754 0.9617023468 
-6.989194393 7.210336685 -1.245687723 0.9603331089 
-8.403276443 7.251752853 -1.37691927 0.9562469721 
-10.06704521 7.232324123 -1.537680984 0.9512649775 
-12.04615211 7.122617245 -1.735999703 0.9451549649 
-13.24071217 6.314267635 -1.819718719 0.942587316 
-13.50845146 5.719023228 -1.819718719 0.9425874949 
-15.1327095 4.872299671 -1.972118735 0.937931478 
-15.33446789 4.194316387 -1.972118735 0.937931478 
-15.75630379 2.115971565 -1.972118735 0.9379314184 
-15.89775848 -4.882812391e-06 -1.972118735 0.9379314184 
-15.88201141 -0.7071874738 -1.972118735 0.937931478 
-15.33446789 -4.194321156 -1.972118735 0.937931478 
-15.13269997 -4.872294903 -1.972118735 0.9379315376 
-14.03096199 -7.474633694 -1.972118735 0.937931478 
-13.68460464 -8.091430664 -1.972118735 0.9379312992 
-13.31101036 -8.692129135 -1.972118735 0.9379317164 
-12.48591805 -9.840815544 -1.972118735 0.9379312992 
-11.9183197 -10.28518486 -1.952883005 0.9385179281 
-10.91589355 -10.30202579 -1.861947298 0.9412950277 
-8.717119217 -11.79820251 -1.819718719 0.9425874352 
-8.183667183 -12.17428684 -1.819718719 0.9425874352 
-6.490463734 -13.15521908 -1.819718719 0.9425874352 
-2.645976543 -13.65927219 -1.725933909 0.9454641342 
-0.793915987 -13.70879364 -1.703429818 0.9461557865 
-0.1832421869 -13.72513676 -1.702758431 0.9461763501 
1.66297853 -13.77450657 -1.721139908 0.9456114769 
2.291420937 -13.79132271 -1.734270692 0.9452080727 
4.254199028 -13.84381294 -1.796587467 0.9432961941 
4.93760252 -13.8421526 -1.823096156 0.9424840212 
7.855766296 -12.38840771 -1.819718719 0.9425874352 
9.434736252 -11.23260212 -1.819718719 0.9425874352 
9.925063133 -10.80178642 -1.819718719 0.9425874949 
11.30560017 -10.2955513 -1.896853566 0.940228045 
12.21871567 -10.17061043 -1.972118735 0.937931478 
13.46369362 -8.453825951 -1.972118735 0.937931478 
14.1617775 -7.223725319 -1.972118735 0.937931478 
14.46910095 -6.586606503 -1.972118735 0.937931478 
14.7477808 -5.936425686 -1.972118735 0.937931478 
15.40669918 -3.92070055 -1.972118735 0.937931478 
15.56585217 -3.231477022 -1.972118735 0.937931478 
15.69419193 -2.535856962 -1.972118735 0.937931478 
15.79146004 -1.835217237 -1.972118735 0.937931478 
15.89207745 -0.42442137 -1.972118735 0.937931478 
15.86690426 0.9897655845 -1.972118735 0.937931478 
15.80702877 1.694611788 -1.972118735 0.9379319549 
15.71613503 2.396088839 -1.972118735 0.937931478 
15.59399128 3.092827082 -1.972118735 0.937931478 
15.44097614 3.783439875 -1.972118735 0.937931478 
15.04355907 5.140844822 -1.972118735 0.9379315972 
14.31388187 5.614296913 -1.907341123 0.93990767 
12.4921751 7.68967247 -1.819718719 0.9425874352 
11.7801218 8.785053253 -1.822940946 0.9424887896 
8.63557148 7.724614143 -1.437285781 0.9543731809 
10.49730492 10.26632786 -1.821431875 0.9425349832 
10.0276413 10.72034645 -1.820960522 0.9425494075 
9.53844738 11.15302753 -1.820506573 0.9425632954 
9.03071785 11.56352043 -1.820070863 0.9425766468 
7.963671684 12.31489277 -1.819257617 0.9426015615 
5.045346737 13.75604916 -1.817598224 0.9426524043 
2.513617992 7.927753925 -1.031690478 0.9670338035 
3.801699162 14.14613247 -1.817097068 0.9426677823 
1.884448171 14.52176189 -1.816532254 0.9426850677 
0.5862353444 14.62977982 -1.816284299 0.9426926374 
-0.7163231969 14.62283611 -1.816141605 0.9426969886 
-0.6576025486 7.016826153 -0.8742532134 0.9719932675 
-1.641103506 7.106757641 -0.9047967196 0.971029222 
-3.835463762 7.123110294 -1.003578782 0.9679175615 
-4.174091816 6.988271236 -1.009765625 0.9677229524 
-4.659780025 7.067080021 -1.050094008 0.9664557576 
-5.230610371 7.21280241 -1.105259538 0.9647249579 
-5.682373047 7.144086838 -1.132379293 0.9638752341 
-6.858867168 7.203100204 -1.23383975 0.9607028365 
-7.379872799 7.090102196 -1.269512892 0.9595899582 
-8.164047241 7.173032284 -1.348125577 0.957142055 
-8.986391068 7.213202953 -1.42946291 0.9546157718 
-9.934130669 7.271713734 -1.527200699 0.9515889287 
-11.96481895 7.218994141 -1.733468771 0.9452326894 
-14.6771822 5.606572151 -1.949024916 0.9386355877 
-15.73684978 2.256127834 -1.972118735 0.9379314184 
-15.82162571 1.553876877 -1.972118735 0.937931478 
