# .PCD v0.7 - Point Cloud Data file format
VERSION 0.7
FIELDS x y z intensities
SIZE 4 4 4 4
TYPE F F F F
COUNT 1 1 1 1
WIDTH 939
HEIGHT 1
VIEWPOINT 0 0 0 1 0 0 0
POINTS 939
DATA ascii
11.36311531 12.58998489 0.6981108189 0.9343577623 
11.03595638 13.37884712 0.713899374 0.9329240918 
10.3479147 13.74771976 0.708291769 0.9334329963 
18.38335991 32.73153305 1.545288563 0.8604585528 
16.60839844 32.92111588 1.517820001 0.8627606034 
13.08242607 32.92253494 1.458269477 0.8677719235 
11.41457939 32.92320633 1.434362054 0.869791925 
7.503163815 36.96787643 1.552733898 0.8598353863 
2.669521332 17.00179672 0.708420217 0.9334212542 
3.218530178 48.14915085 1.986390471 0.8243254423 
-1.07158196 48.15087128 1.982523561 0.8246350884 
-3.218686342 48.15173721 1.986495733 0.8243169188 
-5.379081726 48.15260315 1.994437337 0.8236804605 
-12.02652359 48.15527725 2.043107748 0.8197912574 
-16.74328613 48.29154205 2.103919506 0.8149568439 
-13.60547352 34.23885345 1.516574502 0.86286515 
-15.72250175 31.16514397 1.436860442 0.8695806265 
-16.88015366 30.05507469 1.418932319 0.8710981607 
-19.35437393 31.13086128 1.508905172 0.8635085821 
-26.68326187 32.34804916 1.726100922 0.84545964 
-29.19670296 32.34905624 1.793743372 0.8399158716 
-31.94694519 32.37618637 1.872270584 0.8335251212 
-76.84557343 54.176651 3.870292902 0.6863201261 
-29.8233242 12.31422138 1.328154683 0.8788229823 
-16.04500198 2.009509325 0.6656224132 0.9373146892 
-15.90954781 1.277080059 0.656993866 0.9381016493 
-15.7775631 0.5618749857 0.6498667598 0.9387521744 
-93.75020599 -13.4406395 3.898505688 0.6844388843 
-68.60101318 -16.16330528 2.901154041 0.7541556358 
-65.01261902 -18.4060688 2.781301737 0.7629974484 
-35.45598984 -15.38435555 1.590944648 0.8566464186 
-21.02488708 -15.39020443 1.072536111 0.9009446502 
-19.69681549 -15.81029224 1.039665341 0.9038293958 
-19.69743156 -17.30658722 1.079313159 0.9003513455 
-19.69962311 -22.62324142 1.23481667 0.8868370652 
-11.16352558 -15.39423752 0.7827555537 0.9266973138 
-9.195356369 -15.39502907 0.7381410003 0.930727005 
-8.289672852 -15.39539528 0.7197495699 0.9323933125 
-6.59913063 -15.39608383 0.6895139813 0.9351392984 
-2.840756655 -15.39760685 0.6445094347 0.9392412901 
-2.137670755 -15.39789009 0.6399043202 0.9396620989 
-0.7543652058 -15.39845181 0.6346092224 0.9401462078 
-0.06849609315 -15.39872551 0.6338636875 0.9402140975 
0.6169921756 -15.39899826 0.6343784928 0.940167129 
5.013735294 -22.62820816 0.9540391564 0.9113880396 
21.32679558 -79.35719299 3.382496357 0.7196644545 
5.23466301 -16.50943756 0.7129234076 0.9330127239 
27.05172729 -73.75630188 3.233793259 0.7301472425 
30.40023422 -72.70475006 3.243842125 0.729434967 
35.26894379 -54.5390358 2.673517942 0.7710384727 
41.84412003 -58.79563904 2.97050786 0.7490823269 
42.90800858 -54.94194794 2.869543314 0.7564772964 
50.522686 -49.41118622 2.908929348 0.7535856962 
49.65295792 -33.6986084 2.470133543 0.7864414454 
41.96274185 -23.3225193 1.976173162 0.8251447678 
24.49269485 -12.21993351 1.126713395 0.8962103128 
48.81545639 -21.69913483 2.198971272 0.8074574471 
49.57452011 -19.44449615 2.191997528 0.8080055118 
45.16432571 -15.43388653 1.964657068 0.826069653 
56.46493149 -16.5301075 2.421821594 0.790145278 
66.6390152 -16.32815361 2.824204683 0.7598202229 
94.77573395 -18.79753304 3.977253437 0.6792168617 
103.5132141 -15.78143978 4.310152531 0.6575779319 
59.60837936 12.3747406 2.50598073 0.7837042212 
88.17607117 31.01181984 3.847539663 0.6878399849 
57.29649353 26.08260155 2.591378689 0.7772223949 
52.03115082 32.67009354 2.528960705 0.7819547057 
50.89267349 35.20598984 2.547298431 0.7805610895 
15.04507732 13.70088863 0.837615788 0.9217662215 
49.51511765 49.29524612 2.876049042 0.7559989691 
11.33459949 12.33593273 0.6895884275 0.9351325631 
10.8282032 17.07606888 0.8323121667 0.9222417474 
18.67465782 32.56810379 1.54535687 0.86045295 
16.97744179 32.92097092 1.524715662 0.8621820211 
15.16384697 32.92169189 1.492002964 0.8649295568 
13.42273903 32.92239761 1.463492274 0.867331028 
11.74399853 32.923069 1.438853264 0.8694118857 
7.832128525 36.90136337 1.552810788 0.8598294258 
5.812763691 48.14810944 1.996319056 0.8235300779 
3.64948225 48.14897537 1.987648368 0.8242248297 
0.4514062405 14.48699951 0.5966190696 0.9436261654 
-2.788598537 48.15156174 1.985383153 0.824405849 
-9.328300476 48.15418243 2.019025087 0.8217133284 
-11.57231903 48.15509033 2.038650274 0.8201466799 
-13.86539555 48.15601349 2.062776327 0.8182238936 
-16.21767044 48.15696335 2.091672421 0.8159274459 
-18.79339027 30.8370533 1.486499786 0.8653922081 
-24.1835289 32.73117447 1.675175548 0.8496572375 
-26.20251465 32.34785461 1.713572145 0.8464906216 
-34.27882004 32.35108948 1.940187454 0.828037858 
-28.96788597 13.81424332 1.321053267 0.8794299364 
-16.40418816 2.951069355 0.6860850453 0.9354509711 
-16.0725956 2.158515692 0.6675376892 0.9371401072 
-16.07242584 4.882812391e-06 0.5144546628 0.9377024174 
-98.04927826 -13.16746521 3.16650939 0.6730601192 
-73.69436646 -13.25749493 2.39671731 0.7410680056 
-68.96322632 -15.60211849 2.263208389 0.7535429001 
-65.01348114 -20.93244171 2.18618989 0.7608334422 
-65.01480103 -24.17438507 2.220240593 0.7576020956 
-38.69676971 -16.3829155 1.34505868 0.8452070355 
-32.26287079 -15.38564873 1.144102931 0.8667125106 
-28.88366127 -15.3870163 1.047528148 0.8772413135 
-23.56692886 -15.38917923 0.9009269476 0.8934688568 
-21.42220116 -15.39004326 0.8443040252 0.8998174071 
-19.69724655 -16.99812889 0.8327869773 0.9011136293 
-19.69790077 -18.59015083 0.8669529557 0.897272408 
-19.69860268 -20.32197762 0.9059129357 0.892912209 
-19.6993885 -22.22066879 0.9505143762 0.8879472613 
-12.46934509 -15.3937006 0.6341038346 0.9237793088 
-9.382299423 -15.39495564 0.5770710707 0.9303898811 
-7.607172489 -15.41860771 0.550327599 0.9335062504 
-6.026772499 -15.56900311 0.5343760848 0.9353697896 
-3.016162157 -15.5702095 0.5076452494 0.9385012388 
-2.303027391 -15.57049274 0.5038125515 0.9389511347 
-0.9017577767 -15.57105446 0.4992414713 0.9394876957 
-0.2078710943 -15.57132816 0.4984606802 0.9395795465 
0.4852001965 -15.57160568 0.498665899 0.939555347 
1.180234313 -15.57188416 0.4998651147 0.9394147992 
1.87999022 -15.5721674 0.5020616055 0.9391565323 
4.840927601 -22.80799294 0.7463120818 0.9109092355 
20.64653206 -79.64726257 2.633658409 0.7194359303 
4.968388557 -16.16789055 0.5413933992 0.9345492721 
25.44648361 -71.33700562 2.424318552 0.7385151386 
13.09747028 -32.12435913 1.110432863 0.8703688979 
21.57055664 -41.82720184 1.506379485 0.828330338 
34.05532074 -59.39171219 2.191409111 0.7603389025 
34.7834549 -54.85308075 2.079022408 0.771097362 
37.94875717 -54.33925247 2.121486425 0.7670137882 
39.25566483 -46.73612595 1.953640223 0.7832799554 
48.62194061 -48.40603256 2.196083784 0.7598928809 
49.27922821 -41.019104 2.052298784 0.7736776471 
52.610672 -36.39434814 2.047657967 0.7741268873 
43.98147202 -22.43431664 1.580348372 0.8207045197 
44.06640625 -20.05983353 1.549773097 0.8238483071 
49.6372757 -19.98055077 1.712709188 0.8072347641 
74.85102081 -15.53913498 2.446957827 0.7364274859 
112.6206131 -13.08820724 3.629089355 0.6352436543 
62.74718475 9.566420555 2.031659126 0.7756770253 
60.28101349 11.95577621 1.967092752 0.7819638848 
52.01161957 15.22629356 1.734692812 0.8050191402 
68.84846497 27.00415421 2.367194653 0.7438087463 
57.55873108 28.71721077 2.058949947 0.773034811 
55.18839645 41.15698624 2.203634024 0.7591759562 
11.1191206 14.23762703 0.5782365203 0.930254519 
68.71586609 96.55302429 3.79329896 0.6223340034 
10.36243629 16.02429199 0.6108189225 0.9264726043 
17.35010719 32.92081451 1.191139698 0.8616309762 
15.52033138 32.92155838 1.164999843 0.8644508719 
13.76574707 32.9222641 1.142205358 0.866918385 
10.43896008 32.92359161 1.105540276 0.8709015846 
9.341366768 34.75926208 1.152070999 0.8658494949 
8.335341454 37.62026596 1.233372569 0.8570924997 
2.977255821 16.9829731 0.5518910289 0.9333236814 
6.248017311 48.14793396 1.554064751 0.8234058619 
1.420654297 35.45392609 1.135740519 0.8676193357 
-0.214277342 48.15052795 1.541242242 0.824727118 
-4.512802601 48.15225601 1.548038483 0.8240268826 
-8.896864891 48.22265625 1.569586277 0.8218096495 
-15.74191856 48.15677643 1.621695399 0.8164729476 
-20.64197159 48.15874481 1.677122593 0.8108339906 
-24.59460449 41.17629623 1.535207391 0.825350225 
-25.59422302 38.81646729 1.488235593 0.8302112222 
-25.7280407 35.47797012 1.402771115 0.839130342 
-26.89916229 33.81861115 1.383152604 0.8411915302 
-28.6823349 32.93927002 1.398038149 0.8396273851 
-31.36618805 32.94034576 1.455911398 0.8335729837 
-36.82161713 32.352108 1.568902969 0.8218796849 
-29.64063835 16.13055038 1.080144763 0.8736710548 
-32.22148514 10.69177818 1.086659312 0.8729597926 
-16.62832642 3.144435883 0.5416821241 0.9345157743 
-16.06682014 2.303425312 0.5195345879 0.9371071458 
-15.79787064 0.8443822861 0.5063906908 0.9386485815 
-77.6453476 -13.25597668 2.52127552 0.7296162844 
-68.30437469 -14.81533623 2.237170935 0.7560001016 
-65.43344879 -17.27304077 2.166175127 0.7627398372 
-38.90394974 -16.06384659 1.347239494 0.8449768424 
-33.01528549 -15.38534641 1.165885448 0.8643554449 
-29.51318741 -15.38676739 1.065352917 0.8752886653 
-24.03111839 -15.38898373 0.9134004116 0.8920765519 
-19.6971283 -16.69450188 0.8264692426 0.9018259645 
-19.69776344 -18.261343 0.8597605824 0.8980796933 
-19.69845581 -19.96322632 0.8977015615 0.8938295841 
-12.69781208 -15.39360809 0.6387260556 0.9232451916 
-8.646518707 -15.39524841 0.5651820302 0.9317740798 
-7.76693821 -15.39560509 0.5519508123 0.9333167076 
-4.633271217 -15.56956005 0.5199583173 0.9370574951 
-1.739355445 -15.57071781 0.5014944077 0.9392229915 
-0.3465039134 -15.5712738 0.4985388219 0.9395704865 
1.040937424 -15.57183075 0.4995432794 0.9394522309 
2.418017626 -15.39973068 0.4989631474 0.9395205379 
3.125649452 -15.40002441 0.5029814243 0.9390484095 
20.45048714 -68.72134399 2.295009851 0.7505524755 
24.6147747 -70.99567413 2.405175924 0.7402845025 
12.78211403 -32.16674423 1.107921004 0.8706421852 
30.39519501 -60.24927902 2.160004616 0.7633283734 
38.94845581 -47.21731949 1.95919168 0.7827368975 
40.60469818 -44.98856735 1.939812422 0.784635663 
44.60723495 -45.20677948 2.03284812 0.7755613327 
49.13427734 -41.64426041 2.061615467 0.7727768421 
43.46434402 -25.18018532 1.607833385 0.8178892136 
44.08428574 -20.54355431 1.556768894 0.8231278658 
49.30184555 -20.35728073 1.707316041 0.8077789545 
49.63809586 -17.95564461 1.689606428 0.8095703721 
58.18408966 -15.35937977 1.926182389 0.7859734893 
74.40823364 -16.13929176 2.43708539 0.7373373508 
89.33054352 12.80683041 2.888579607 0.6968671679 
47.61026382 9.003109932 1.550853133 0.8237276077 
52.55088806 14.87770939 1.748192906 0.8036614656 
67.26428223 22.31969261 2.268465042 0.7530468106 
50.38789749 33.54666519 1.937595963 0.7848532796 
15.81142998 12.69161129 0.6489756703 0.9220629334 
12.47153759 13.09745598 0.5788899064 0.9301785231 
11.47224617 13.17491627 0.5591795444 0.9324734211 
70.01821136 96.55247498 3.817610502 0.6204454303 
10.12416935 16.94988251 0.6319523454 0.9240273833 
18.94900322 35.19166565 1.279347301 0.8521798253 
15.87991619 32.92140961 1.169953704 0.8639159799 
14.11117649 32.92212296 1.146509171 0.8664517403 
9.58203125 34.42928696 1.143914938 0.8667328954 
6.684247971 48.14775467 1.555919886 0.8232151866 
-1.929423809 48.1512146 1.542491913 0.8245989084 
-4.080849648 48.15208054 1.546800613 0.824154079 
-8.488188744 48.4186554 1.573446751 0.8214132786 
-12.94156265 48.15564346 1.596087813 0.8190915585 
-18.19431877 49.60651779 1.691274524 0.8094018698 
-20.13647842 48.15853882 1.670815229 0.8114743829 
-15.05473137 31.93392944 1.130047679 0.8682365417 
-16.28722382 30.90409279 1.118168712 0.869527936 
-24.51531601 41.88579941 1.553465366 0.8234683871 
-25.55031776 35.90088272 1.410446644 0.8383255005 
-30.81170273 32.9401207 1.443728805 0.8348441124 
-33.68252945 32.94127274 1.508018017 0.8281601071 
-36.16696548 32.3518486 1.553220987 0.8234931231 
-29.76741219 16.54460526 1.090088606 0.8725856543 
-30.67014122 13.63342285 1.074334502 0.874306798 
-16.0945816 2.453786612 0.5211173892 0.9369216561 
-15.95745087 1.710690856 0.5137037635 0.9377907515 
-81.75067139 -13.20920372 2.6506598 0.7179082632 
-65.0142746 -22.86553192 2.205962658 0.7589547634 
-24.50841331 -15.38879395 0.926299572 0.8906390071 
-19.69700241 -16.39541435 0.8203077316 0.9025208354 
-19.69906616 -21.43916512 0.931932807 0.890012145 
-11.80313969 -15.3939743 0.62090832 0.9253045321 
-9.762152672 -15.394804 0.5834867954 0.9296438694 
-8.82762146 -15.39517498 0.5680387616 0.9314410686 
-7.939575195 -15.39553642 0.5544599891 0.9330239892 
-7.136752605 -15.49442387 0.5460352898 0.934007287 
-4.036074162 -15.56979942 0.5148406625 0.9376574159 
-1.180156231 -15.57094193 0.4998345971 0.9394183159 
-0.4851757586 -15.57122517 0.4986543059 0.9395567775 
0.2078906149 -15.5714941 0.4984651208 0.9395789504 
0.9018065929 -15.57177258 0.4992652833 0.9394850135 
1.599335909 -15.57205486 0.5010632277 0.9392740726 
2.277763605 -15.39967728 0.498285979 0.9396002293 
22.61138535 -78.53269958 2.615842819 0.7210406661 
12.49535656 -32.27925873 1.107921004 0.870642066 
31.46307564 -71.63738251 2.50442028 0.7311555743 
38.59900284 -47.65139389 1.962866902 0.7823770046 
47.02506638 -44.38049316 2.069685698 0.7719969749 
49.22151184 -32.14157104 1.881672144 0.7903606296 
44.10272217 -21.03186417 1.563965559 0.8223873377 
47.70598602 -20.19708443 1.658206344 0.812753737 
49.73282242 -16.01252937 1.672354579 0.8113179207 
57.72319031 -15.78849602 1.915503383 0.7870239615 
90.77375793 8.099994659 2.917078733 0.6943879128 
90.89196014 12.20629406 2.935445547 0.6927961111 
54.8247261 12.40343189 1.799208522 0.7985511422 
52.96358109 14.48672295 1.757562041 0.8027204275 
52.83312225 17.01071739 1.776605964 0.8008112311 
57.6259346 24.39684105 2.003021002 0.7784593105 
56.28180695 26.83987808 1.995854855 0.779156208 
62.98124695 33.55167389 2.28415513 0.7515713573 
50.94145584 33.26467133 1.94742167 0.7838898301 
57.23698044 45.11165237 2.332703114 0.7470229268 
14.88452148 12.8448925 0.6293113828 0.9243330956 
49.8506546 47.04715347 2.194051266 0.7600861788 
12.68138599 13.08266544 0.583201766 0.9296771288 
10.9138422 14.77135181 0.5878660679 0.9291351438 
53.14131546 96.62294769 3.529658079 0.6431898475 
16.24255371 32.92126465 1.175034046 0.8633669019 
12.74438477 32.92266083 1.13000536 0.8682414889 
11.08752918 32.9233284 1.11198318 0.870200336 
8.514452934 35.43043518 1.166364908 0.8643035293 
8.381649971 43.26836014 1.410700798 0.83829844 
4.95413065 48.23731232 1.552124739 0.8236055374 
-1.500371099 48.15104294 1.541994095 0.8246498704 
-3.649560452 48.15190887 1.545693159 0.8242684603 
-10.22067356 48.15454865 1.57569623 0.821182549 
-12.48310566 48.15546417 1.592336893 0.81947577 
-14.79844666 48.15639114 1.612557769 0.8174064755 
-17.7349987 49.71854401 1.689631104 0.8095667958 
-19.63476562 48.15834045 1.664674759 0.8120970726 
-15.97467995 30.97631454 1.11558795 0.869807899 
-25.62571716 40.41136551 1.531655073 0.8257166147 
-26.4260006 34.46548843 1.390146613 0.8404559493 
-27.66672516 32.93886566 1.376896501 0.8418495059 
-33.08793259 32.94103622 1.494467258 0.829564631 
-29.89706421 16.96669197 1.100324869 0.8714697957 
-31.65615082 11.13342762 1.074112058 0.8743309379 
-28.69040871 8.67697525 0.9594187737 0.8869588971 
-16.12252808 2.605068207 0.5227532983 0.936730206 
-15.98455524 1.85765624 0.5150872469 0.937628448 
-15.85053158 1.130437016 0.5086413622 0.9383842945 
-15.78259277 0.4214916825 0.5053576827 0.9387695789 
-19.31369019 -0.3438281119 0.6183018088 0.9256060123 
-70.78359222 -14.03883266 2.309810638 0.7491640449 
-65.01399994 -22.21722603 2.199167252 0.7596008778 
-65.01533508 -25.50067902 2.235402107 0.756166935 
-34.6097908 -15.38469219 1.212327123 0.8593507409 
-27.68546295 -15.38750458 1.013849616 0.8809432983 
-24.99938011 -15.38859844 0.9396445751 0.8891544342 
-20.63733864 -15.39036083 0.8240339756 0.9021003842 
-19.69750023 -17.6196537 0.8459220529 0.8996347189 
-19.69890976 -21.05971146 0.9230232239 0.8910042048 
-13.1649847 -15.39342785 0.6483421326 0.9221361279 
-10.95598602 -15.39431095 0.604801476 0.927169919 
-9.955322266 -15.3947258 0.5868177414 0.929256618 
-7.292978287 -15.46974564 0.547431469 0.9338442087 
-4.936542988 -15.56943798 0.5228071213 0.9367239475 
-4.184287071 -15.56974125 0.5160478354 0.937515676 
-3.449775219 -15.5700388 0.5104626417 0.9381708503 
-2.729599476 -15.57031727 0.5059835911 0.938696146 
-2.020546913 -15.57060528 0.5025701523 0.9390967488 
0.06931640208 -15.57143974 0.4984248281 0.9395837784 
0.762831986 -15.57171822 0.4990272522 0.9395130873 
2.841215849 -15.39990711 0.501247704 0.9392521381 
18.65326118 -80.7779541 2.653636932 0.71764189 
21.95934486 -78.90258026 2.621561289 0.7205264568 
30.93457985 -72.17172241 2.513366461 0.7303372025 
30.05838776 -62.31550217 2.214546919 0.758140564 
32.95901108 -61.21074677 2.225242138 0.7571279407 
38.30682373 -64.1333313 2.391128063 0.7415861487 
43.60139465 -54.81735611 2.24196887 0.7555452585 
39.93606186 -45.86313248 1.946555614 0.7839737535 
48.57418823 -42.67812347 2.069664955 0.7719996572 
47.3318634 -20.53730965 1.651497602 0.8134365678 
49.63768387 -18.96122551 1.700805426 0.8084369302 
57.51196289 -16.28226089 1.913229823 0.7872479558 
64.1163559 -15.10665035 2.108467102 0.7682631612 
109.2785797 -20.66473007 3.559915781 0.6407672763 
103.3111191 -14.8113718 3.340657949 0.6585705876 
88.03940582 11.02635193 2.840029955 0.7011098862 
60.80392456 10.3806982 1.97441113 0.7812492251 
60.76552582 13.18008232 1.99024117 0.7797036767 
25.77677727 9.324306488 0.8774009347 0.8961013556 
63.22800827 32.96406555 2.282367706 0.7517388463 
51.02475357 35.97293472 1.998311877 0.7789174318 
54.22537994 41.9611969 2.194668055 0.7600281835 
11.26958942 13.66215324 0.5668855309 0.9315756559 
10.98296833 14.5913868 0.5845710635 0.9295179844 
9.034647942 13.18522453 0.5116128325 0.9380358458 
14.8101263 32.92183685 1.155497909 0.8654785752 
13.08241653 32.92252731 1.133957624 0.8678131104 
9.936357498 33.38980865 1.115081668 0.8698634505 
8.36619091 41.22037125 1.346305013 0.8450753689 
3.233437538 48.37045288 1.551721334 0.8236472607 
-1.07147944 48.15087128 1.54161942 0.8246882558 
-9.77364254 48.15436935 1.572782755 0.8214817643 
-16.74305153 48.29150391 1.636014819 0.8150129914 
-15.72199154 31.16414261 1.117269993 0.8696251512 
-17.59144402 31.32185745 1.14986372 0.8660880327 
-26.18758202 34.79140854 1.393837452 0.8400682211 
-27.37259293 33.18387985 1.376902342 0.8418490291 
-29.87460327 17.30722809 1.105125904 0.8709471226 
-41.84811401 9.076889038 1.370649576 0.8425076604 
-16.0118103 2.005388021 0.5165208578 0.9374604821 
-15.74569988 0.5607714653 0.5043179393 0.9388918281 
-68.55106354 -16.15153694 2.254311562 0.7543817163 
-65.01246643 -18.40574265 2.162746191 0.7630671859 
-64.93473816 -24.80459404 2.224927425 0.757155478 
-31.53788567 -15.385952 1.123208761 0.8689799905 
-21.02498436 -15.39019966 0.834011972 0.9009758234 
-19.69675827 -15.81032181 0.8084507585 0.9038600326 
-19.69737244 -17.30645943 0.8392729163 0.9003834128 
-19.69802666 -18.92452621 0.8743373156 0.8964444399 
-19.69955063 -22.62336349 0.9602015615 0.8868724704 
-12.24412537 -15.39379883 0.6295927167 0.9243004322 
-11.16362286 -15.39423275 0.6086769104 0.9267207384 
-9.195453644 -15.39502907 0.5739854574 0.9307491183 
-6.671518326 -15.56495571 0.5420491099 0.9344728589 
-3.595419884 -15.56997967 0.5114871264 0.9380503893 
-2.161611319 -15.57054615 0.5031707883 0.9390263557 
-1.459296823 -15.57082939 0.5005836487 0.939330101 
-0.7627929449 -15.57110786 0.4990071058 0.9395154119 
0.6239794493 -15.57166004 0.4988267422 0.9395365715 
5.111328125 -23.06916046 0.7563191056 0.9097704887 
5.197006702 -16.3908596 0.5503904819 0.9334990382 
26.9906044 -73.58966827 2.508932352 0.7307429314 
30.35989189 -72.60870361 2.519086361 0.7298160791 
37.86905289 -64.70146942 2.399641275 0.7407963872 
35.42808533 -54.78539276 2.088315248 0.7702009678 
41.44319153 -48.45824051 2.040960073 0.7747744918 
40.43053436 -43.22328186 1.894430637 0.7891003489 
48.95172882 -36.50591278 1.954606771 0.783185482 
50.44029236 -31.04901314 1.895890951 0.7889567614 
49.63848495 -16.96293449 1.679065943 0.8106370568 
90.11800385 10.47302246 2.903964758 0.6955280304 
58.86818314 9.511869431 1.908722639 0.7876913548 
54.42784882 19.14230919 1.846770406 0.7938173413 
70.04828644 28.19668388 2.416976452 0.7391930223 
57.41644287 29.28734779 2.063096523 0.7726334929 
50.7421875 31.86091232 1.917820573 0.786796689 
51.35449982 35.52529526 1.998770833 0.7788736224 
11.30355453 13.4575386 0.5625461936 0.9320811033 
67.47311401 96.61542511 3.772019625 0.6239926815 
56.30018616 98.18656158 3.622819662 0.6357420087 
15.16375446 32.92169952 1.160183549 0.8649716377 
9.09723568 35.09399414 1.160436511 0.864944458 
2.761381865 16.61984825 0.5392696857 0.934797585 
0.4513476491 14.48543453 0.4638842642 0.9436503649 
-4.945522308 48.15242386 1.549395561 0.8238868713 
-9.328104973 48.15419006 1.569997072 0.8217673898 
-13.86530495 48.15601349 1.60402298 0.8182788491 
-16.21779251 48.15696335 1.626495481 0.8159828186 
-21.15136719 48.15894318 1.683618307 0.8101757169 
-17.20082283 31.27500916 1.142484307 0.8668881059 
-25.95449066 35.12804794 1.398014903 0.8396295309 
-31.9301548 32.94057465 1.468425751 0.8322700262 
-35.05294037 33.08166122 1.542764425 0.8245700598 
-37.48955917 32.35237122 1.585035205 0.8202238679 
-29.51665497 15.72421455 1.070487499 0.8747269511 
-33.49797821 15.97462749 1.187903523 0.8619791865 
-16.31977654 2.93588376 0.5307590961 0.9357929826 
-16.03922844 2.153967142 0.5180041194 0.9372867346 
-15.90371037 1.419125915 0.5110792518 0.9380984902 
-16.07242584 4.882812391e-06 0.5144546628 0.9377024174 
-23.10577011 -1.028835416 0.7403178215 0.9115926623 
-73.69436646 -13.25756359 2.396718502 0.741067946 
-65.01221466 -17.78228951 2.157389402 0.7635785937 
-32.26290512 -15.38564873 1.144104123 0.8667123914 
-28.88367081 -15.3870163 1.047528148 0.8772412539 
-19.69664001 -15.52402782 0.8027406335 0.9045053124 
-19.69790077 -18.59015083 0.8669529557 0.897272408 
-19.69861221 -20.32196808 0.9059129357 0.892912209 
-12.46936512 -15.3937006 0.6341047287 0.9237793088 
-6.826035023 -15.54202557 0.5433442593 0.9343215823 
-6.026782036 -15.56900311 0.5343763828 0.9353697896 
-5.243261814 -15.56931591 0.5258533955 0.9363671541 
-3.016152382 -15.5702095 0.5076452494 0.9385012388 
-2.303017616 -15.57049274 0.5038123727 0.9389511943 
-1.599199176 -15.57077599 0.5010206699 0.9392789006 
-0.9017577767 -15.57105446 0.4992414713 0.9394876957 
1.879999995 -15.5721674 0.5020619035 0.9391565323 
2.558666945 -15.39979458 0.4996833801 0.9394359589 
4.840937614 -22.80798721 0.7463120818 0.9109092355 
25.44646454 -71.33700562 2.424320698 0.7385151386 
13.09747028 -32.12435913 1.110432506 0.8703688979 
21.57061386 -41.82720184 1.506379843 0.8283302784 
34.05535889 -59.39167404 2.191404581 0.7603389025 
34.78351593 -54.85308075 2.0790236 0.7710972428 
37.94880676 -54.33927917 2.121489763 0.767013669 
42.39632797 -55.29440689 2.230265379 0.7566520572 
48.62179565 -48.40595245 2.196077108 0.7598933578 
43.24742889 -39.38370895 1.872271895 0.7912895083 
49.27925491 -41.0190239 2.052296877 0.7736777663 
52.61079025 -36.39438248 2.047661543 0.7741265297 
49.81663895 -31.27977943 1.882843137 0.7902454138 
43.59075165 -24.73789978 1.60429883 0.8182504773 
43.98144531 -22.43432045 1.580348372 0.8207045794 
49.63829041 -17.45770454 1.684249997 0.8101119995 
50.52828979 -15.28150368 1.68968451 0.8095616102 
61.32313156 -15.60555172 2.025423765 0.7762814164 
74.8510437 -15.53909588 2.446958303 0.7364274263 
60.28104401 11.95581532 1.967092752 0.7819637656 
57.20101547 14.01573658 1.885081291 0.7900231481 
54.10041809 18.48770905 1.829996109 0.7954831719 
56.5151062 25.12202644 1.979640603 0.7807381749 
52.91117096 32.56991577 1.988764405 0.7798485756 
51.66160202 35.06214142 1.998491645 0.7789000273 
15.63744068 12.78242207 0.6464778185 0.9223509431 
14.33367634 12.82164001 0.6155729294 0.9259220362 
11.11911106 14.23763657 0.5782365203 0.930254519 
15.52029228 32.92155838 1.164999843 0.8644509315 
12.07520962 32.92293549 1.122464061 0.8690610528 
9.341352463 34.75927734 1.152071357 0.8658494949 
8.335341454 37.62026596 1.233372569 0.8570924997 
-0.2141894549 48.15052795 1.541242242 0.824727118 
-8.89696312 48.22260666 1.569585443 0.8218097687 
-13.40233898 48.15583038 1.599979997 0.818692565 
-18.33556938 48.64789963 1.664077282 0.8121576905 
-20.64201355 48.158741 1.677122951 0.8108339906 
-15.30786324 31.73548698 1.127811432 0.8684803843 
-25.59422302 38.81650925 1.488236785 0.830211103 
-31.36610603 32.94034576 1.455910206 0.8335731626 
-34.28782272 32.94151688 1.521935582 0.8267202973 
-29.640625 16.13050652 1.080143809 0.873671174 
-16.62833786 3.144450665 0.5416824222 0.9345157146 
-15.9305172 1.564570308 0.5123648047 0.9379473925 
-15.7978735 0.8444042802 0.50639081 0.9386485815 
-77.64450073 -13.25597668 2.521249294 0.7296187282 
-65.43320465 -17.27304649 2.166167498 0.7627404928 
-38.90391922 -16.06384659 1.347236395 0.8449769616 
-33.01528549 -15.38534641 1.165885448 0.8643554449 
-29.51318741 -15.38676739 1.065352917 0.8752886653 
-26.56167984 -15.38796329 0.9825693965 0.8843951225 
-24.03115654 -15.38898373 0.9134013057 0.8920764327 
-19.88904762 -15.3906641 0.804967165 0.9042535424 
-19.69712448 -16.69445229 0.8264680505 0.9018260837 
-19.69776726 -18.26127434 0.8597590327 0.8980798721 
-19.69922256 -21.82614708 0.9410948157 0.8889932036 
-12.69777298 -15.39360809 0.6387248039 0.9232452512 
-11.58708477 -15.39406681 0.6167268157 0.9257884026 
-10.54840755 -15.39448738 0.5973331928 0.9280357361 
-6.186625957 -15.56894016 0.5362420678 0.9351515174 
-5.397978306 -15.56925297 0.5274517536 0.9361798763 
-4.633290768 -15.56956005 0.5199584961 0.9370574951 
-3.888554573 -15.56986332 0.5136758089 0.9377937317 
-1.73938477 -15.57071781 0.5014945865 0.9392229915 
-1.040898442 -15.57099533 0.4995181262 0.93945539 
-0.3464648426 -15.5712738 0.4985388219 0.9395704865 
2.418036938 -15.3997364 0.4989631474 0.9395205379 
24.6147747 -70.99567413 2.405175924 0.7402845025 
12.78211403 -32.16674423 1.107921004 0.8706421852 
32.03221512 -71.20530701 2.499185562 0.7316345572 
33.99776459 -54.68426132 2.061067104 0.7728298306 
36.47864151 -53.2374115 2.065707922 0.7723814249 
42.06423569 -55.8845253 2.238886118 0.7558379173 
38.94838715 -47.21742249 1.959192634 0.7827367783 
47.36450195 -43.91037369 2.067347288 0.7722233534 
48.65637589 -37.6515274 1.969253063 0.7817517519 
51.13604355 -36.05124283 2.002671957 0.7784933448 
43.5916214 -22.7265873 1.573540449 0.8214028478 
44.08428574 -20.54355431 1.556768894 0.8231278658 
49.63809586 -17.95571327 1.689607024 0.8095703125 
46.10434341 -14.3927145 1.546016335 0.8242399693 
58.18400192 -15.35942364 1.926179647 0.7859737277 
74.40817261 -16.13934135 2.437085152 0.7373375297 
91.03959656 8.941088676 2.928068161 0.6934349537 
89.330513 12.80692863 2.888579607 0.6968671679 
53.99618912 12.72218227 1.77566421 0.8009054065 
67.26428223 22.31969261 2.268465042 0.7530468106 
57.45175552 24.92831421 2.00459075 0.7783058286 
63.22930527 34.40959549 2.304171562 0.7496933937 
53.10170746 32.03894806 1.985127926 0.7802032828 
50.38808441 33.5466156 1.937598109 0.7848528624 
15.81138611 12.69163036 0.6489750743 0.922062993 
11.18619156 14.06370068 0.5751923919 0.9306085706 
10.41561031 15.79642582 0.6056410074 0.9270724058 
10.12416935 16.94988251 0.6319523454 0.9240273833 
15.87991619 32.92140961 1.169953704 0.8639159799 
14.11124039 32.92211914 1.146509886 0.8664516807 
10.76235771 32.92346191 1.108711123 0.8705565929 
6.684140682 48.14775848 1.55591929 0.8232151866 
4.524355412 48.27607346 1.552024364 0.8236168623 
2.37160635 48.41402054 1.551519275 0.8236681223 
0.2149121016 48.30597687 1.546220779 0.82421422 
-4.080893517 48.15208054 1.546801209 0.824154079 
-2.502382755 19.28363228 0.622417748 0.9251298904 
-8.488188744 48.4186554 1.573446751 0.8214132786 
-10.66942406 48.15473175 1.5787462 0.8208693862 
-12.94156265 48.15564346 1.596087813 0.8190915585 
-15.26883221 48.15658188 1.61704576 0.8169474602 
-20.13640785 48.15853882 1.670814276 0.8114745021 
-25.60974312 39.60225677 1.509570122 0.8279999495 
-25.55031395 35.90071106 1.410440207 0.8383259773 
-33.68257141 32.94127655 1.50801897 0.8281600475 
-30.67012596 13.63344479 1.074334502 0.8743068576 
-16.09458542 2.453757286 0.5211167932 0.9369216561 
-15.82413578 0.9870727062 0.5074942112 0.9385191202 
-15.96432114 0.2841772437 0.5110759139 0.9380986691 
-81.75067139 -13.20920372 2.6506598 0.7179082632 
-70.78385925 -14.69476032 2.314000607 0.7487722039 
-67.87179565 -17.27206421 2.241723776 0.755569458 
-65.0142746 -22.86543465 2.20596242 0.758954823 
-30.16436005 -15.38650322 1.083877683 0.8732640743 
-27.11462784 -15.38773441 0.99792099 0.8826993704 
-19.69763184 -17.93793869 0.8527534008 0.8988668919 
-19.69832039 -19.61087418 0.8897074461 0.8947235942 
-12.92965794 -15.39351559 0.6434724331 0.9226975441 
-11.80313969 -15.3939743 0.62090832 0.9253045321 
-10.75095654 -15.39440441 0.6010206342 0.9276081324 
-7.939594746 -15.39553642 0.5544602871 0.9330239296 
-6.347631931 -15.56887627 0.5381660461 0.9349267483 
-5.553603172 -15.56919384 0.5291036963 0.9359866977 
-4.784462929 -15.56950188 0.5213558674 0.9368935823 
-3.304677725 -15.57009697 0.5094801188 0.9382861257 
-1.879785061 -15.57065868 0.5020126104 0.9391622543 
-1.180136681 -15.57094193 0.4998345971 0.9394183159 
0.9018065929 -15.57177258 0.4992652833 0.9394850135 
2.98316884 -15.39996529 0.50209409 0.9391527772 
19.3210144 -80.39916229 2.646738768 0.7182612419 
30.00588799 -60.81719208 2.170711756 0.7623075843 
35.95911026 -59.00334167 2.211709499 0.758409977 
47.02506638 -44.38049316 2.069685698 0.7719969749 
48.9880867 -42.27524948 2.071183205 0.7718526721 
49.70872879 -39.17824936 2.025896788 0.7762364149 
49.96788788 -35.89774323 1.969358325 0.7817426324 
44.27284241 -23.58529663 1.605650425 0.8181122541 
44.10274506 -21.03196335 1.563967705 0.8223871589 
47.70604324 -20.19700623 1.658207178 0.8127536774 
57.7232132 -15.78844738 1.915504217 0.7870239615 
74.27977753 -9.975277901 2.398932219 0.7408627272 
90.89203644 12.20620537 2.935447931 0.6927959323 
59.63669968 10.72846127 1.939525008 0.784663558 
54.82484436 12.40339375 1.799213409 0.7985507846 
52.96369171 14.48662567 1.757564783 0.8027201891 
25.65332413 9.538715363 0.8760529757 0.8962522149 
57.62588882 24.39698601 2.00302124 0.7784592509 
56.28174591 26.83998489 1.995853662 0.779156208 
50.94139481 33.26470947 1.947419882 0.7838899493 
50.37397385 36.18946838 1.985358119 0.7801799178 
49.8506546 47.04715347 2.194051266 0.7600861788 
12.68138599 13.08266544 0.583201766 0.9296771288 
10.91385746 14.7713232 0.5878657103 0.9291352034 
10.46806622 15.57257271 0.6006065011 0.9276561141 
10.19826603 16.73377419 0.6272572279 0.9245702624 
53.14102554 96.62294769 3.529653311 0.6431902051 
14.45923328 32.921978 1.150939822 0.8659719229 
11.08748055 32.92333603 1.111982822 0.870200336 
8.514418602 35.43047714 1.166365743 0.8643034101 
4.95413065 48.23731232 1.552124739 0.8236055374 
2.802651405 48.39405823 1.551620007 0.8236579895 
0.1935449243 14.49625969 0.4640452564 0.9436311722 
-1.500292897 48.15104294 1.541994095 0.82464993 
-5.813305378 48.15277863 1.552497387 0.8235681057 
-8.041571617 48.40026093 1.570461869 0.8217200041 
-10.22057629 48.15454865 1.575695634 0.8211826086 
-14.79854965 48.15638733 1.612558365 0.8174064159 
-19.63481903 48.15834427 1.664675355 0.812097013 
-14.94304943 32.44238663 1.143297195 0.8668002486 
-15.97470379 30.97628784 1.115587592 0.8698079586 
-24.16281891 42.13930893 1.554820061 0.8233277798 
-25.62571716 40.41136551 1.531655073 0.8257166147 
-25.55644989 36.59453964 1.428707957 0.8364137411 
-26.4260006 34.46548843 1.390146613 0.8404559493 
-27.66672516 32.93886566 1.376896501 0.8418495059 
-33.08793259 32.94103622 1.494467258 0.829564631 
-35.63312531 32.44981384 1.542629242 0.82458359 
-29.89702988 16.96659088 1.100322127 0.8714700937 
-31.65615082 11.13342762 1.074112058 0.8743309379 
-15.98455524 1.85765624 0.5150872469 0.937628448 
-15.85053158 1.130437016 0.5086413622 0.9383842945 
-15.78259277 0.4214916825 0.5053576827 0.9387695789 
-70.78359222 -14.0389986 2.309812069 0.7491639853 
-68.90776062 -16.88435555 2.270884752 0.7528192997 
-65.01399994 -22.21737671 2.199168444 0.7596006989 
-34.6097908 -15.38469219 1.212327123 0.8593507409 
-30.8389492 -15.38623047 1.103147984 0.8711621165 
-27.68546295 -15.38750458 1.013849616 0.8809432983 
-24.99938011 -15.38859844 0.9396445751 0.8891544342 
-22.67536163 -15.3895359 0.8771799803 0.8961259127 
-20.63733864 -15.39036083 0.8240339756 0.9021003842 
-19.69688034 -16.10071754 0.81430161 0.9031987786 
-19.69750023 -17.6196537 0.8459220529 0.8996347189 
-19.6981678 -19.26466179 0.881919384 0.8955951333 
-8.113769531 -15.39547348 0.5570350289 0.9327235222 
-6.509740829 -15.56880856 0.5401440263 0.9346955419 
-4.936542988 -15.56943798 0.5228071213 0.9367239475 
-4.184287071 -15.56974125 0.5160478354 0.937515676 
-2.729599476 -15.57031727 0.5059835911 0.938696146 
1.459453106 -15.57199669 0.5006213188 0.9393256903 
2.137919903 -15.3996191 0.4976463318 0.9396750927 
2.841244936 -15.39990711 0.5012478232 0.9392521381 
18.65342712 -80.77785492 2.653635263 0.7176420689 
21.95949173 -78.90250397 2.621560097 0.7205265164 
12.11587334 -32.14580917 1.099599123 0.8715487719 
30.05838776 -62.31550217 2.214546919 0.758140564 
35.881073 -54.41765976 2.086391687 0.7703866363 
39.30920792 -54.20595932 2.143266678 0.7649284601 
43.60139465 -54.81735611 2.24196887 0.7555452585 
39.93595505 -45.86323547 1.946555018 0.7839737535 
49.33602524 -39.60113144 2.024972916 0.776324749 
48.76041794 -32.46299362 1.875009537 0.7910188437 
49.66249084 -16.47905731 1.674852371 0.8110643625 
57.51196289 -16.28226089 1.913229823 0.7872479558 
64.1163559 -15.10665035 2.108467102 0.7682631612 
103.3111191 -14.8113718 3.340657949 0.6585705876 
88.03965759 11.02660656 2.840040207 0.7011091113 
60.80369949 10.38078594 1.974395514 0.7812498808 
60.76550674 13.18021965 1.990242124 0.7797036767 
54.68371964 14.43541431 1.810307145 0.7974439263 
52.37530136 16.35037613 1.756249189 0.8028520942 
63.22800827 32.96406555 2.282367706 0.7517388463 
54.22550583 41.96115494 2.194670439 0.7600280046 
15.16978931 12.85725594 0.6365040541 0.92350173 
13.80719185 12.80025864 0.602648735 0.927419126 
9.034608841 13.1852293 0.5116119385 0.938035965 
10.25377464 16.49285126 0.6216205955 0.9252219796 
55.05992126 98.03505707 3.598990917 0.6376375556 
16.60837936 32.92111588 1.180260181 0.8628032207 
14.8101263 32.92183685 1.155497909 0.8654785752 
13.08241653 32.92252731 1.133957624 0.8678131104 
9.936357498 33.38980865 1.115081668 0.8698634505 
8.36627388 41.22027206 1.346301675 0.8450756669 
2.526010752 16.08738327 0.521243751 0.9369069338 
-3.218876839 48.1517334 1.544709325 0.8243701458 
-9.77364254 48.15436935 1.572782755 0.8214817643 
-12.02675247 48.15527344 1.588727832 0.8198455572 
-14.33063698 48.15620041 1.608209014 0.8178502321 
-19.13658714 48.15814209 1.658715606 0.8127025366 
-14.72584915 32.73451996 1.148922801 0.8661903143 
-29.73003769 32.93968964 1.420296431 0.8372940421 
-76.84318542 54.17496109 3.009446383 0.6864145398 
-41.84822083 9.076992989 1.370652556 0.8425072432 
-16.15067101 2.757343769 0.5244401693 0.936532557 
-16.01180077 2.005358934 0.5165208578 0.9374605417 
-15.74569035 0.560734868 0.5043172836 0.9388918877 
-93.75 -13.44064903 3.031480074 0.6845262051 
-70.7833252 -13.38522911 2.305829048 0.7495375872 
-68.55106354 -16.15153694 2.254311562 0.7543817163 
-65.01246643 -18.40574265 2.162746191 0.7630671859 
-65.01374054 -21.57295418 2.192573071 0.7602269053 
-64.93473816 -24.80459404 2.224927425 0.757155478 
-35.45596695 -15.38436031 1.237125993 0.8566907644 
-23.11526871 -15.38936043 0.8888633251 0.8948178291 
-19.69675827 -15.81037045 0.8084519506 0.9038599133 
-19.69803619 -18.92460442 0.8743391037 0.8964442611 
-19.69955063 -22.62336349 0.9602015615 0.8868724704 
-9.195453644 -15.39502907 0.5739854574 0.9307491183 
-8.289668083 -15.39540005 0.5596827865 0.9324151278 
-7.449775219 -15.44450188 0.5488609076 0.9336771369 
-5.86802721 -15.569067 0.5325655937 0.9355816245 
-5.089472771 -15.56937981 0.5243021846 0.9365484118 
-3.595380783 -15.56997967 0.5114869475 0.9380504489 
-2.161572218 -15.57054615 0.5031706095 0.9390264153 
-1.459257722 -15.57082939 0.5005836487 0.9393301606 
0.6239794493 -15.57166004 0.4988267422 0.9395365715 
2.020761728 -15.57222652 0.5026243329 0.9390905499 
26.9906044 -73.58966827 2.508932352 0.7307429314 
30.35977554 -72.60881042 2.519087315 0.7298159599 
29.6309948 -62.85305023 2.224199533 0.7572271228 
32.05104446 -60.81520844 2.200391531 0.7594829202 
35.42821121 -54.78535461 2.088316679 0.7702008486 
38.69711685 -54.37325668 2.136173725 0.7656061053 
41.44276428 -48.45754242 2.040931225 0.7747769952 
40.43053436 -43.22328186 1.894430637 0.7891003489 
16.64035034 -13.60222149 0.6879398823 0.9175818563 
48.95172882 -36.50591278 1.954606771 0.783185482 
50.44029236 -31.04901314 1.895890951 0.7889567614 
24.49276352 -12.21996784 0.8761408925 0.896242857 
49.63748932 -19.46919823 1.706667304 0.80784446 
66.05742645 -16.18566895 2.176949024 0.7617131472 
103.3897934 -15.76264095 3.347600698 0.6579988599 
112.9167862 -12.10499477 3.635014057 0.6347730756 
90.11800385 10.47302246 2.903964758 0.6955280304 
58.21570969 12.08562946 1.903135538 0.7882423401 
54.42781067 19.14219284 1.846768618 0.7938175797 
70.04841614 28.19656754 2.416978598 0.7391928434 
62.3633194 35.39160538 2.295203447 0.7505335808 
54.88680649 41.69740677 2.206320286 0.7589206696 
15.46184063 12.87016582 0.6439289451 0.9226449132 
14.06744099 12.81072235 0.6090113521 0.9266818762 
11.05138206 14.41350555 0.5813618302 0.9298910499 
10.30849552 16.25635719 0.6161412001 0.9258560538 
13.42290974 32.92239761 1.138016224 0.867372036 
11.74384212 32.92306519 1.118853927 0.8694527745 
10.17698193 33.11769867 1.108973503 0.8705279231 
9.097182274 35.09406281 1.160438657 0.8649442196 
8.372841835 39.4489212 1.290829539 0.8509572744 
5.812763691 48.14810562 1.552343011 0.8235836029 
0.4513476491 14.48543453 0.4638842642 0.9436503649 
-0.6428515315 48.1506958 1.541373134 0.824714005 
-4.945522308 48.15242386 1.549395561 0.8238868713 
-13.86518002 48.15601349 1.604022384 0.8182789683 
-16.21767998 48.15696335 1.626493931 0.8159829378 
-18.69327354 48.29003906 1.657464981 0.8128296733 
-21.15148926 48.15894318 1.683619857 0.8101755381 
-4.240293026 8.594416618 0.3067544401 0.9623724222 
-25.5811367 38.05517578 1.467722893 0.8323435187 
-25.95449066 35.12804794 1.398014903 0.8396295309 
-31.9301548 32.94057465 1.468425751 0.8322700262 
-35.05294037 33.08166122 1.542764425 0.8245700598 
-37.48955917 32.35237122 1.585035205 0.8202238679 
-33.49775314 15.97444916 1.187894702 0.8619801402 
-15.77173042 0.702285111 0.5053312778 0.9387727976 
-16.07242584 4.882812391e-06 0.5144546628 0.9377024174 
-23.10577011 -1.028835416 0.7403178215 0.9115926623 
-98.05001831 -13.16746521 3.166533232 0.6730581522 
-73.69436646 -13.25738716 2.396717072 0.7410680652 
-68.96321106 -15.60202599 2.263208389 0.7535430789 
-65.01221466 -17.7821331 2.15738821 0.7635787129 
-65.01348877 -20.932621 2.18619132 0.7608332634 
-23.56687927 -15.38916492 0.9009253979 0.8934690356 
-21.42215729 -15.39004326 0.8443031311 0.8998175263 
-19.69724655 -16.99813843 0.8327872753 0.9011136293 
-19.6993885 -22.22064972 0.9505140185 0.8879473209 
-11.37401295 -15.39415455 0.6126490831 0.9262601733 
-10.34839821 -15.39457035 0.5937412977 0.9284527302 
-9.382328987 -15.39495564 0.5770716667 0.9303898215 
-8.467177391 -15.39533138 0.5623939633 0.9320987463 
-7.607119083 -15.4186182 0.550327301 0.93350631 
-6.82600069 -15.54203129 0.5433439612 0.9343215823 
-5.24323225 -15.56931591 0.5258530974 0.9363672137 
-3.741669893 -15.56991673 0.5125588775 0.9379247427 
-3.016152382 -15.5702095 0.5076452494 0.9385012388 
-1.599199176 -15.57077599 0.5010206699 0.9392789006 
-0.2078808546 -15.57132816 0.4984606802 0.9395795465 
2.558637619 -15.39979458 0.4996833801 0.9394360185 
4.840883732 -22.80799294 0.7463117838 0.9109092355 
20.64672852 -79.64714813 2.633668661 0.7194361091 
4.968427658 -16.16789055 0.5413938761 0.9345492125 
25.44666862 -71.33703613 2.424325705 0.7385148406 
13.09752941 -32.12435532 1.110433817 0.8703688383 
34.78351593 -54.85308075 2.0790236 0.7710972428 
39.25565338 -46.7361412 1.95364058 0.7832799554 
48.62179565 -48.40595245 2.196077108 0.7598933578 
44.06639481 -20.05974579 1.549771547 0.8238484859 
49.63728333 -19.9804821 1.712708592 0.8072348237 
49.63829041 -17.45770454 1.684249997 0.8101119995 
61.32313156 -15.60555172 2.025423765 0.7762814164 
74.8510437 -15.53909588 2.446958303 0.7364274263 
117.7733841 -19.02975082 3.818656445 0.6203645468 
112.620575 -13.08821774 3.62908864 0.6352437735 
90.77137756 9.730893135 2.922110558 0.6939516664 
62.74702835 9.566576958 2.031655312 0.7756774426 
57.20064163 14.01577568 1.885069728 0.7900242805 
52.01146317 15.22636223 1.73468852 0.8050195575 
54.10063171 18.48791504 1.830004334 0.7954823375 
56.5151062 25.12202644 1.979640603 0.7807381749 
57.55889511 28.71739769 2.058956146 0.7730341554 
55.18839645 41.15695572 2.203633785 0.7591760159 
50.09823227 48.99565887 2.242975473 0.7554507256 
12.13235283 12.97039032 0.5684791207 0.9313899875 
11.11909676 14.23768044 0.5782371163 0.9302543998 
10.36242199 16.0243454 0.6108195186 0.9264724851 
9.998925209 17.08381271 0.6336060762 0.9238367677 
17.35005379 32.92081833 1.191138744 0.8616310954 
12.07520962 32.92293549 1.122464061 0.8690610528 
10.43894958 32.9235878 1.105540276 0.8709015846 
8.335341454 37.62026596 1.233372569 0.8570924997 
1.420693278 35.45400238 1.135742903 0.8676190972 
-4.512934685 48.15225601 1.548038721 0.824026823 
-6.685087681 48.15312958 1.556096315 0.8231972456 
-11.12003899 48.15490723 1.581934929 0.8205422163 
-13.40233898 48.15583038 1.599979997 0.818692565 
-18.33556938 48.64789963 1.664077282 0.8121576905 
-20.64201355 48.158741 1.677122951 0.8108339906 
-16.56579399 30.76562119 1.118443131 0.8694974184 
-24.59460449 41.17629623 1.535207391 0.825350225 
-25.59422302 38.81650925 1.488236785 0.830211103 
-26.8991394 33.81864548 1.383152604 0.8411914706 
-34.28811264 32.94151688 1.5219419 0.8267196417 
-29.640625 16.13050652 1.080143809 0.873671174 
-32.22148514 10.69177818 1.086659312 0.8729597926 
-16.62833786 3.144450665 0.5416824222 0.9345157146 
-16.06682014 2.30344224 0.5195351839 0.9371071458 
-15.9305172 1.564570308 0.5123648047 0.9379473925 
-15.7978735 0.8444042802 0.50639081 0.9386485815 
-105.748764 -13.24468231 3.411321878 0.6527780294 
-33.01528549 -15.38534641 1.165885448 0.8643554449 
-21.82940292 -15.38987732 0.854916513 0.8986238241 
-19.88904762 -15.3906641 0.804967165 0.9042535424 
-19.69712448 -16.69445229 0.8264680505 0.9018260837 
-19.69846153 -19.9633255 0.8977037072 0.8938293457 
-19.69922256 -21.82614708 0.9410948157 0.8889932036 
-8.646513939 -15.39525318 0.5651820302 0.9317740798 
-7.766918659 -15.39560986 0.5519502163 0.9333167076 
-6.186625957 -15.56894016 0.5362420678 0.9351515174 
-3.160185575 -15.5701561 0.5085400343 0.9383962154 
-1.73938477 -15.57071781 0.5014945865 0.9392229915 
-1.040839791 -15.57100105 0.4995179772 0.93945539 
-0.3464648426 -15.5712738 0.4985388219 0.9395704865 
2.418036938 -15.3997364 0.4989631474 0.9395205379 
3.125668764 -15.40001965 0.5029814243 0.9390484095 
20.00538063 -80.10179138 2.642704487 0.7186233997 
24.6147747 -70.99567413 2.405175924 0.7402845025 
12.78211403 -32.16674423 1.107921004 0.8706421852 
33.99776459 -54.68426132 2.061067104 0.7728298306 
36.47864151 -53.2374115 2.065707922 0.7723814249 
42.06423569 -55.8845253 2.238886118 0.7558379173 
47.36429596 -43.9105835 2.067348242 0.772223413 
48.65647507 -37.65194702 1.969258547 0.781750679 
49.44051743 -31.66082382 1.879205704 0.7906047106 
44.08428574 -20.54355431 1.556768894 0.8231278658 
49.63809586 -17.95571327 1.689607024 0.8095703125 
46.10451889 -14.39254856 1.546019673 0.824239552 
74.40834045 -16.13904762 2.437088013 0.7373372316 
112.6027451 -14.10262203 3.632412672 0.6349797249 
89.330513 12.80692863 2.888579607 0.6968671679 
47.61005783 9.002914429 1.550976396 0.8237283826 
52.55069351 14.87789536 1.748188019 0.8036618829 
69.73831177 26.63984871 2.389541388 0.7417328954 
57.45175552 24.92831421 2.00459075 0.7783058286 
58.55254745 42.86036682 2.322645664 0.7479633689 
15.81147385 12.69158173 0.6489762664 0.9220628738 
14.6058445 12.83299732 0.6223304868 0.9251397848 
46.6216507 44.79066849 2.069706202 0.7720257044 
12.47150898 13.09744644 0.5788893104 0.9301786423 
70.01883698 96.55249786 3.817622662 0.6204444766 
18.94900322 35.19166565 1.279347301 0.8521798253 
14.11124039 32.92211914 1.146509886 0.8664516807 
12.4085741 32.92279816 1.126171947 0.8686575294 
9.58194828 34.42939758 1.14391768 0.8667325974 
8.31166935 35.99335861 1.182416558 0.8625708818 
8.344443321 45.22887039 1.472145796 0.8318834305 
2.37183094 48.41401291 1.551519275 0.8236681223 
-8.488188744 48.4186554 1.573446751 0.8214132786 
-10.6696434 48.15473557 1.578747988 0.8208692074 
-20.13666725 48.15853882 1.670817733 0.8114741445 
-24.51522827 41.885849 1.553465366 0.8234683871 
-25.55032158 35.90103531 1.410451531 0.8383250833 
-28.1704998 32.93906784 1.38733077 0.8407523036 
-30.81178665 32.9401207 1.443730235 0.8348439336 
-29.7673645 16.54445457 1.090085268 0.8725860715 
-31.9685154 10.92451859 1.081365228 0.8735380769 
-15.96386433 0.2842309475 0.5110616684 0.9381003976 
-67.87063599 -17.27206421 2.241687536 0.7555728555 
-64.93265533 -19.63792419 2.171382904 0.7622443438 
-33.79679489 -15.38503361 1.188604832 0.8619039059 
-30.1646862 -15.38650322 1.083886862 0.873263061 
-24.50852013 -15.38879395 0.9263023138 0.8906387091 
-22.24686432 -15.38971138 0.865868032 0.8973941207 
-19.69906616 -21.43935013 0.9319373965 0.8900116682 
-11.80303192 -15.39397907 0.6209031343 0.9253047705 
-10.75095654 -15.39440441 0.6010206342 0.9276081324 
-7.939516544 -15.39553642 0.5544590354 0.9330240488 
-7.136767387 -15.49441814 0.5460352898 0.934007287 
-6.34755373 -15.5688715 0.5381649733 0.9349268675 
-1.180205107 -15.57094193 0.4998348951 0.9394183159 
-0.4851757586 -15.57122517 0.4986543059 0.9395567775 
0.2079687417 -15.5714941 0.4984651208 0.9395789504 
0.9018065929 -15.57177258 0.4992652833 0.9394850135 
1.599394441 -15.57205486 0.5010635257 0.9392740726 
22.61161041 -78.53257751 2.615840435 0.7210408449 
26.69832993 -79.27831268 2.677615404 0.7154926062 
12.49535656 -32.27904129 1.107914805 0.8706427813 
31.46293831 -71.63749695 2.504422426 0.7311553955 
35.95911026 -59.00334167 2.211709499 0.758409977 
39.73254776 -53.77591324 2.140162468 0.7652253509 
38.59882736 -47.65149307 1.96286571 0.7823771238 
47.02506638 -44.38049316 2.069685698 0.7719969749 
48.98815155 -42.27494431 2.071178675 0.7718531489 
49.96820068 -35.89767075 1.969364405 0.7817419767 
44.27284241 -23.58529663 1.605650425 0.8181122541 
47.70592499 -20.19717789 1.65820539 0.8127537966 
49.63787842 -18.45668411 1.695116401 0.8090122938 
49.73276138 -16.01262093 1.672354579 0.8113180399 
57.7232132 -15.78844738 1.915504217 0.7870239615 
74.27959442 -9.975581169 2.398928404 0.7408631444 
90.77371216 8.099897385 2.917078733 0.6943880916 
90.89174652 12.2065773 2.935440063 0.6927965879 
59.63669968 10.72846127 1.939525008 0.784663558 
54.82444382 12.40354919 1.799201488 0.7985519171 
52.96369171 14.48662567 1.757564783 0.8027201891 
52.83322144 17.01088333 1.776609898 0.8008107543 
25.65328979 9.538578987 0.8760508299 0.8962525129 
62.98129654 33.5517807 2.28415823 0.7515711188 
53.25346375 31.48737717 1.980238199 0.7806797624 
50.94139481 33.26470947 1.947419882 0.7838899493 
