# .PCD v0.7 - Point Cloud Data file format
VERSION 0.7
FIELDS x y z intensities
SIZE 4 4 4 4
TYPE F F F F
COUNT 1 1 1 1
WIDTH 921
HEIGHT 1
VIEWPOINT 0 0 0 1 0 0 0
POINTS 921
DATA ascii
11.62518501 -4.322587967 -2.001413107 0.9509887695 
11.96337414 -3.272236347 -2.001413107 0.9509887695 
12.39053917 0.5517235994 -2.001413107 0.9509887695 
12.35372543 1.102358341 -2.001413107 0.9509887695 
12.29245853 1.650805593 -2.001413107 0.9509887695 
11.80596161 3.80117178 -2.001413107 0.9509887695 
11.19499493 5.338710785 -2.001413107 0.9509887695 
8.674828529 7.486123085 -1.849013209 0.954634726 
8.349740982 7.880160809 -1.852674961 0.954546988 
7.989321232 8.242123604 -1.852300882 0.9545559883 
4.609760761 10.49582481 -1.849841237 0.9546149373 
-0.5375732183 7.092748642 -1.147823691 0.9715909362 
-0.8406396508 6.96312952 -1.131784081 0.9719823003 
-1.164052725 7.00607872 -1.146053314 0.9716340899 
-1.502499938 7.079032898 -1.167774677 0.9711043239 
-1.781591773 6.87275362 -1.145700336 0.9716427922 
-2.124941349 6.914877892 -1.167339444 0.9711149931 
-3.244760752 7.044569969 -1.251558304 0.96906358 
-3.691191435 7.157504559 -1.299536586 0.9678968787 
-4.077031136 7.110258579 -1.322604895 0.9673364162 
-5.486987114 7.156264305 -1.455169916 0.9641219974 
-7.206166744 7.17416954 -1.640859127 0.9596371651 
-7.854955673 7.153222561 -1.714367986 0.957867682 
-9.124067307 6.931513309 -1.849013209 0.9546347857 
-9.965229034 5.655434608 -1.849013209 0.9546355605 
-10.98707485 5.604355335 -1.99029243 0.9512544274 
-11.50543404 4.631396294 -2.001413107 0.9509894848 
-11.70028782 4.114990234 -2.001413107 0.9509887695 
-11.87173843 3.590429544 -2.001413107 0.9509888291 
-12.14389133 2.521079063 -2.001413107 0.9509887695 
-12.24400806 1.978374004 -2.001413107 0.9509887695 
-12.31990719 1.431762695 -2.001413107 0.9509887099 
-12.40084457 -0.2207666039 -2.001413107 0.9509887695 
-12.33214283 -1.322075129 -2.001413107 0.9509887695 
-12.26112747 -1.869340777 -2.001413107 0.9509887695 
-12.16583443 -2.412909985 -2.001413107 0.9509887695 
-11.33351994 -5.037959099 -2.001413107 0.9509887695 
-11.09819794 -5.537133694 -2.001413107 0.9509887695 
-10.84087849 -6.025341511 -2.001413107 0.9509888291 
-10.56212425 -6.50162077 -2.001413107 0.9509887695 
-10.26245594 -6.96502924 -2.001413107 0.9509887695 
-9.602748871 -7.849570274 -2.001413107 0.9509889483 
-9.244135857 -8.268974304 -2.001413107 0.9509887099 
-8.867128372 -8.672026634 -2.001413107 0.9509887099 
-4.420229435 -10.57148457 -1.849013209 0.954634726 
-3.463159084 -10.92250443 -1.849013209 0.9546347857 
-1.32442379 -5.977592468 -0.9879829884 0.9754981399 
-0.7824364901 -6.029516697 -0.98112607 0.9756660461 
-0.5111962557 -6.031830788 -0.9768313169 0.9757713079 
-0.2417431623 -6.032978535 -0.9743088484 0.975833118 
0.2953564525 -6.029169559 -0.9740798473 0.9758387208 
0.5649999976 -6.02859354 -0.9770845771 0.9757651091 
0.836176753 -6.023134708 -0.981259644 0.9756627679 
1.109721661 -6.014912128 -0.9869929552 0.9755223393 
1.386918902 -6.006059647 -0.9946879148 0.9753338695 
1.667329073 -5.990912914 -1.003482103 0.9751185775 
4.978901386 -10.32198715 -1.849282384 0.9546282887 
6.781039715 -10.28414536 -1.987807274 0.9513135552 
7.72069788 -9.70674324 -2.001413107 0.9509887099 
8.943964958 -8.592748642 -2.001413107 0.9509887695 
9.317343712 -8.18638134 -2.001413107 0.9509887695 
10.00807571 -7.325869083 -2.001413107 0.9509887099 
10.61957455 -6.407372952 -2.001413107 0.9509887695 
11.14704609 -5.438119888 -2.001413107 0.9509887695 
11.58626461 -4.425868988 -2.001413107 0.9509887695 
11.77167416 -3.906098604 -2.001413107 0.9509887695 
12.07224846 -2.844379902 -2.001413107 0.9509887695 
12.34342957 -1.21224606 -2.001413107 0.9509887695 
12.40232372 -0.1103808582 -2.001413107 0.9509887695 
12.36304665 0.9923681617 -2.001413107 0.9509887695 
12.30666924 1.541337848 -2.001413107 0.9509887695 
11.8393259 3.695961714 -2.001413107 0.9509887695 
11.66319752 4.21895504 -2.001413107 0.9509887695 
11.46397877 4.733598709 -2.001413107 0.9509887695 
11.24206543 5.238867283 -2.001413107 0.9509887695 
10.76102543 5.610282898 -1.958307862 0.9520186186 
9.365004539 6.602397442 -1.849013209 0.954634726 
8.741098404 7.408622742 -1.849013209 0.9546347857 
8.062670708 8.171030045 -1.852374673 0.9545542002 
7.689702034 8.519921303 -1.852011085 0.9545629025 
7.301708698 8.85188961 -1.851661325 0.9545713067 
5.851816177 7.774414062 -1.570211411 0.9613410234 
4.379946232 7.798578739 -1.443338275 0.9644085169 
4.703100681 10.45466328 -1.849889755 0.9546137452 
3.754379749 10.82864189 -1.849437237 0.9546245933 
2.52560544 8.487011909 -1.428868175 0.9647584558 
2.279018402 11.22874451 -1.848900437 0.9546374679 
1.777133703 11.31815434 -1.848760843 0.9546408057 
1.271816373 11.38526344 -1.848641157 0.9546436667 
-0.2548291087 11.45178223 -1.848405242 0.9546493292 
-1.076298833 6.854648113 -1.119671941 0.9722779393 
-1.429379821 7.042485237 -1.159601212 0.9713036418 
-1.746035099 6.991137505 -1.162797928 0.9712257385 
-2.85708499 7.189965725 -1.248478293 0.9691385627 
-3.595156193 7.126284122 -1.288007736 0.9681771398 
-4.037216663 7.188324928 -1.330390692 0.9671472907 
-4.311645508 6.935102463 -1.317753673 0.9674542546 
-4.89835453 7.148686409 -1.398394704 0.9654973149 
-5.388373852 7.158696175 -1.445855379 0.9643474817 
-6.494145393 7.195278168 -1.564065814 0.9614893198 
-7.096879959 7.19224596 -1.630484223 0.9598872066 
-7.77571249 7.208676815 -1.711005688 0.9579485059 
-9.649414062 6.179262638 -1.849013209 0.9546347857 
-10.7610302 5.610282898 -1.958308339 0.952018559 
-11.24206543 5.238872051 -2.001413107 0.9509887695 
-11.66320324 4.218959808 -2.001413107 0.9509887695 
-12.12099075 2.629047871 -2.001413107 0.9509887099 
-12.30666447 1.541337848 -2.001413107 0.9509887695 
-12.36304665 0.9923730493 -2.001413107 0.9509887695 
-12.39495087 0.4414355457 -2.001413107 0.9509887695 
-12.40231895 -0.1103808582 -2.001413107 0.9509887695 
-12.34342289 -1.212270498 -2.001413107 0.9509887695 
-11.93377399 -3.37857914 -2.001413107 0.9509887695 
-11.77166462 -3.906088829 -2.001413107 0.9509887695 
-11.58625984 -4.425868988 -2.001413107 0.9509887695 
-11.1470356 -5.438149452 -2.001413107 0.9509887695 
-10.61956978 -6.40735817 -2.001413107 0.9509888291 
-10.00811958 -7.325888634 -2.001413107 0.9509885907 
-9.672260284 -7.76380825 -2.001413107 0.9509888291 
-9.317401886 -8.186396599 -2.001413107 0.9509885907 
-7.720664024 -9.706738472 -2.001413107 0.9509888291 
-6.780986309 -10.28413582 -1.987807751 0.9513137341 
-4.979272366 -10.32198715 -1.849282384 0.9546276927 
-4.514145374 -10.53172302 -1.849013209 0.954634726 
-1.675893545 -6.021665096 -1.008631706 0.9749924541 
-1.379941344 -5.975839615 -0.9896833301 0.9754564762 
-0.8368700743 -6.028149128 -0.9820783138 0.9756428003 
-0.2955322266 -6.0328269 -0.9746707082 0.9758242369 
-0.02685546875 -6.032919884 -0.9735280275 0.9758522511 
0.2416259646 -6.029887676 -0.9738100171 0.9758453369 
1.054760695 -6.016645432 -0.9856984019 0.9755541086 
1.3310498 -6.007494926 -0.9929251075 0.9753770828 
1.609501958 -5.988974571 -1.000717878 0.9751862288 
1.922685504 -6.063998699 -1.026542544 0.9745541215 
3.94560051 -10.75764656 -1.849013209 0.954634726 
4.420248985 -10.57147408 -1.849013209 0.9546347857 
6.025995731 -10.29576111 -1.92505157 0.9528138638 
8.472601891 -9.057861328 -2.001413107 0.9509887695 
9.602807045 -7.849575043 -2.001413107 0.9509887695 
10.84089375 -6.025336742 -2.001413107 0.9509887695 
11.7364397 -4.010693073 -2.001413107 0.9509887695 
11.90323257 -3.484648466 -2.001413107 0.9509887695 
12.04645729 -2.951699257 -2.001413107 0.9509887695 
12.1658392 -2.412905216 -2.001413107 0.9509887695 
12.26113224 -1.86933589 -2.001413107 0.9509887695 
12.37875462 -0.7721533179 -2.001413107 0.9509887695 
12.31989002 1.431762695 -2.001413107 0.9509887695 
12.24401093 1.978374004 -2.001413107 0.9509887695 
12.14388371 2.521079063 -2.001413107 0.9509887695 
11.50564957 4.631391525 -2.001413107 0.9509887695 
9.12408638 6.931508541 -1.849013209 0.954634726 
8.806689262 7.330541611 -1.849013209 0.9546347857 
8.13539505 8.099282265 -1.85244894 0.954552412 
7.76552248 8.451478958 -1.852082729 0.9545612335 
7.380468369 8.786889076 -1.851730108 0.9545696378 
5.704213619 9.948046684 -1.850470424 0.9545998573 
5.255253792 10.19043446 -1.850196004 0.9546064138 
4.796088696 10.41267109 -1.849939108 0.9546125531 
4.327578068 10.61434078 -1.849699974 0.9546183348 
3.850683451 10.79504871 -1.849479198 0.95462358 
3.366308451 10.95445251 -1.849277139 0.9546284676 
2.875395536 11.09226036 -1.849094152 0.9546328187 
2.378920794 11.20819283 -1.848930717 0.9546367526 
-0.1529199183 11.45366192 -1.848415136 0.9546490908 
-0.4182958901 7.222885609 -1.167494178 0.9711111784 
-0.7217626572 7.027504921 -1.139977217 0.9717823267 
-1.022094727 6.910273075 -1.127227306 0.9720935225 
-1.366347671 7.053461552 -1.159359932 0.9713095427 
-1.687055588 7.02014637 -1.165080547 0.9711700678 
-1.989125967 6.908505917 -1.160101295 0.9712914824 
-2.758066416 7.124907017 -1.232869267 0.9695184827 
-3.079262733 7.011054516 -1.235670805 0.969450295 
-3.458198071 7.009238243 -1.261238694 0.9688280821 
-4.26286602 6.994726181 -1.321820021 0.9673554897 
-4.780854225 7.112163067 -1.382870436 0.9658737183 
-5.844995022 7.215761662 -1.498474836 0.9630742073 
-6.436025143 7.259740829 -1.565568566 0.9614530802 
-6.938745022 7.158295631 -1.608725548 0.960411787 
-8.270185471 7.13692379 -1.762763143 0.9567043781 
-8.919067383 7.029619217 -1.832537532 0.955029726 
-9.305839539 6.685483456 -1.849013209 0.9546347857 
-11.1949358 5.338715553 -2.001413107 0.9509889483 
-11.62518978 4.322587967 -2.001413107 0.9509887695 
-11.80601978 3.801181555 -2.001413107 0.9509885907 
-12.20686531 2.195976496 -2.001413107 0.9509887695 
-12.29246521 1.650795817 -2.001413107 0.9509887695 
-12.35372543 -1.102348566 -2.001413107 0.9509887695 
-12.20685005 -2.19601059 -2.001413107 0.9509887695 
-12.097085 -2.736835957 -2.001413107 0.9509887695 
-11.96336365 -3.272250891 -2.001413107 0.9509887695 
-11.80597115 -3.801176786 -2.001413107 0.9509887695 
-11.62520981 -4.322582722 -2.001413107 0.9509887099 
-10.67618656 -6.312607288 -2.001413107 0.9509887099 
-10.07287121 -7.236508846 -2.001413107 0.9509887695 
-9.740951538 -7.677426815 -2.001413107 0.9509888887 
-8.228061676 -9.280810356 -2.001413107 0.9509880543 
-7.370444298 -9.975380898 -2.001413107 0.9509884715 
-6.911596298 -10.28202629 -1.999209523 0.9510415196 
-5.665268421 -10.30094242 -1.89705503 0.953484118 
-3.657021284 -10.85913086 -1.849013209 0.9546347857 
-1.161845684 -5.997758865 -0.9858358502 0.9755507112 
-0.8914111257 -6.026733398 -0.9831013083 0.9756177068 
-0.6194238067 -6.031088829 -0.9783421755 0.9757342935 
-0.349370122 -6.032636642 -0.9751036763 0.9758136272 
0.1879003793 -6.030570984 -0.9736111164 0.9758502245 
0.4569335878 -6.028686523 -0.9756247997 0.9758008718 
0.7275195122 -6.026103497 -0.979478538 0.9757064581 
1.27548337 -6.009423733 -0.991328001 0.9754161835 
1.553618073 -5.993344784 -0.9990978837 0.9752259254 
3.849711895 -10.7923336 -1.849013209 0.954634726 
4.793676853 -10.40746593 -1.849013209 0.954634726 
6.523989201 -10.28820801 -1.96583569 0.9518386126 
7.101401329 -10.16857433 -2.001413107 0.9509887695 
7.97709465 -9.497162819 -2.001413107 0.9509887099 
9.170175552 -8.350908279 -2.001413107 0.9509887695 
10.7868309 -6.121576786 -2.001413107 0.9509888291 
11.04848099 -5.635673523 -2.001413107 0.9509887695 
11.28824234 -5.138622761 -2.001413107 0.9509887695 
11.70028782 -4.114975452 -2.001413107 0.9509887695 
11.87175274 -3.59043932 -2.001413107 0.9509887695 
12.01971912 -3.058784008 -2.001413107 0.9509887695 
12.14388371 -2.521074057 -2.001413107 0.9509887695 
12.37138844 -0.8823119998 -2.001413107 0.9509887695 
12.39838886 -0.3311157227 -2.001413107 0.9509887695 
12.37875748 0.77218014 -2.001413107 0.9509887695 
12.33215046 1.322065353 -2.001413107 0.9509887695 
12.26113701 1.869340777 -2.001413107 0.9509887695 
11.54641056 4.52881813 -2.001413107 0.9509887695 
11.33346176 5.037959099 -2.001413107 0.9509889483 
11.09819794 5.537128925 -2.001413107 0.9509887695 
10.12386227 5.626816273 -1.869037151 0.9541549087 
9.185420036 6.850039005 -1.849013209 0.954634726 
8.540224075 7.639321327 -1.849013209 0.9546347857 
8.207475662 8.026889801 -1.852523804 0.9545506239 
7.458657265 8.721186638 -1.851799607 0.9545679688 
6.228232384 9.631235123 -1.850821614 0.9545913935 
5.792709827 9.897182465 -1.850527287 0.9545984864 
4.888691425 10.36985779 -1.849989176 0.954611361 
4.421982288 10.57567406 -1.849746346 0.9546172023 
3.946689367 10.76060009 -1.849521875 0.9546225667 
2.974042892 11.06644058 -1.849129319 0.9546319842 
1.978359342 11.28505325 -1.848814249 0.954639554 
1.474301696 11.36110306 -1.848686576 0.9546425939 
0.9674072266 11.41477489 -1.848579168 0.9546451569 
0.4586523473 11.44597149 -1.848492384 0.954647243 
-0.05096191168 11.45463848 -1.848425984 0.9546488523 
-0.3560156226 7.267773151 -1.174189448 0.9709479213 
-0.6634325981 7.078999043 -1.147327662 0.9716030359 
-0.9640673399 6.944257736 -1.131325841 0.9719934464 
-1.627861261 7.049379826 -1.167481184 0.971111536 
-1.918271422 6.892514706 -1.154503703 0.9714280367 
-3.011030197 7.024838924 -1.2333287 0.969507277 
-3.86140132 7.171274185 -1.314308643 0.9675379992 
-4.68134737 7.099784851 -1.372309685 0.966129899 
-5.222719669 7.201933384 -1.435579896 0.9645962715 
-6.368051529 7.313183308 -1.56480515 0.961471498 
-7.499540806 7.205078125 -1.678194523 0.958738029 
-9.53791523 6.350014687 -1.849013209 0.9546347857 
-9.810961723 5.919447899 -1.849013209 0.954634726 
-11.14704609 5.438119888 -2.001413107 0.9509887695 
-11.77169418 3.906093597 -2.001413107 0.9509886503 
-12.07224083 2.844370127 -2.001413107 0.9509888291 
-12.18684101 2.304550648 -2.001413107 0.9509887099 
-12.40232849 0.1104052737 -2.001413107 0.9509887099 
-12.39495087 -0.4414648414 -2.001413107 0.9509887695 
-12.36305141 -0.9923974276 -2.001413107 0.9509887695 
-12.22591305 -2.087290049 -2.001413107 0.9509887695 
-11.463974 -4.733608246 -2.001413107 0.9509887695 
-10.99788094 -5.733778954 -2.001413107 0.9509887695 
-9.808964729 -7.590429306 -2.001413107 0.9509886503 
-8.711366653 -8.828475952 -2.001413107 0.9509887695 
-7.892035961 -9.567792892 -2.001413107 0.9509891868 
-5.200668812 -10.30816841 -1.863096714 0.9542967677 
-3.753515482 -10.82616234 -1.849013209 0.9546347857 
-1.493959904 -5.981811523 -0.9949201941 0.975328207 
-0.1342431605 -6.033164024 -0.9737982154 0.9758456349 
0.4030126929 -6.028671741 -0.9750034213 0.975816071 
0.673325181 -6.027519226 -0.9786962867 0.9757255912 
0.9452392459 -6.019985199 -0.9833317995 0.9756120443 
1.220073223 -6.011298656 -0.9898074269 0.9754534364 
1.497905254 -5.9976511 -0.9975549579 0.9752637148 
2.152690411 -6.208954811 -1.060433984 0.9737251401 
5.200844765 -10.30817318 -1.863096595 0.9542964697 
5.784418583 -10.29926777 -1.906149745 0.9532662034 
7.010605335 -10.23137665 -2.001413107 0.9509887695 
7.458705902 -9.909399033 -2.001413107 0.9509889483 
8.310053825 -9.207211494 -2.001413107 0.9509887695 
8.711400986 -8.828432083 -2.001413107 0.9509887695 
9.095493317 -8.432182312 -2.001413107 0.9509887695 
9.461586952 -8.019238472 -2.001413107 0.9509887695 
9.808959961 -7.590409756 -2.001413107 0.9509887099 
10.13688946 -7.146567345 -2.001413107 0.9509887099 
10.44476509 -6.688564301 -2.001413107 0.9509887099 
10.99790001 -5.733774185 -2.001413107 0.9509887099 
11.66319752 -4.218964577 -2.001413107 0.9509887695 
11.99201679 -3.165649414 -2.001413107 0.9509887695 
12.12096119 -2.629072189 -2.001413107 0.9509887695 
12.22591782 -2.087285042 -2.001413107 0.9509887695 
12.36305428 -0.9923486114 -2.001413107 0.9509887695 
12.40232182 0.1103930622 -2.001413107 0.9509887695 
12.34342957 1.212270498 -2.001413107 0.9509887695 
12.27728939 1.760146499 -2.001413107 0.9509887099 
12.07225037 2.844379902 -2.001413107 0.9509887695 
11.93377399 3.378583908 -2.001413107 0.9509887695 
11.77167416 3.906088829 -2.001413107 0.9509887695 
11.14707947 5.438124657 -2.001413107 0.9509886503 
10.32986832 5.621499062 -1.897740126 0.9534672499 
9.810947418 5.919453144 -1.849013209 0.9546347857 
9.537919998 6.350019455 -1.849013209 0.9546347857 
8.935775757 7.172641277 -1.849013209 0.954634726 
7.536254883 8.654789925 -1.851869464 0.9545662999 
6.173359394 7.76139164 -1.600304484 0.9606148601 
6.734755516 9.286967278 -1.851196289 0.9545824528 
5.436127663 10.0958643 -1.850303769 0.9546038508 
4.980932713 10.32621574 -1.85003984 0.9546101689 
4.516059399 10.53616142 -1.849793553 0.9546160698 
3.560903311 10.89326668 -1.849355698 0.9546265602 
2.578125 11.16445732 -1.848993778 0.9546352625 
0.5604736209 11.44153309 -1.848508 0.9546468854 
-0.601904273 7.102109432 -1.150159717 0.9715339541 
-0.9040136337 6.966405869 -1.133579016 0.9719384909 
-1.235722661 7.04884243 -1.154801965 0.9714207053 
-2.615014553 7.129819393 -1.225469351 0.9696986079 
-2.960522413 7.080400467 -1.238407135 0.969383657 
-3.762592793 7.139291763 -1.302257061 0.9678307772 
-4.157470703 7.103300571 -1.328140974 0.9672019482 
-4.567866325 7.063637733 -1.357413411 0.9664913416 
-5.531645298 7.083032131 -1.450234056 0.9642414451 
-6.692865849 7.155165672 -1.580997109 0.9610806704 
-9.185424805 6.850039005 -1.849013209 0.9546346664 
-9.757861137 6.006542683 -1.849013209 0.9546347857 
-11.09819794 5.537138462 -2.001413107 0.9509887695 
-11.33355904 5.037963867 -2.001413107 0.9509886503 
-11.54642105 4.528813362 -2.001413107 0.9509887099 
-11.73641109 4.010712624 -2.001413107 0.9509888291 
-12.04646492 2.951669931 -2.001413107 0.9509887695 
-12.33215809 1.322045922 -2.001413107 0.9509887695 
-12.37875462 0.7721582055 -2.001413107 0.9509887695 
-12.24400806 -1.978374004 -2.001413107 0.9509887695 
-11.5056591 -4.631376743 -2.001413107 0.9509887695 
-10.50383759 -6.595385551 -2.001413107 0.9509887695 
-10.20006847 -7.056098461 -2.001413107 0.9509887695 
-9.87610817 -7.502846718 -2.001413107 0.9509887099 
-9.532660484 -7.934760571 -2.001413107 0.9509884119 
-9.170219421 -8.35093689 -2.001413107 0.9509885907 
-8.789604187 -8.750590324 -2.001413107 0.9509887099 
-7.54677248 -9.842621803 -2.001413107 0.9509885907 
-7.101371765 -10.16856956 -2.001413107 0.9509888291 
-6.523906231 -10.28821278 -1.965836287 0.9518387914 
-5.314814568 -10.30574226 -1.871134162 0.9541046023 
-4.793696404 -10.40744591 -1.849013209 0.9546347857 
-4.32600069 -10.61039066 -1.849013209 0.954634726 
-3.365795851 -10.95289516 -1.849013209 0.9546347857 
-1.269135714 -5.979570389 -0.9864034653 0.9755368233 
-0.9986767173 -6.010771275 -0.9832410812 0.9756143093 
-0.7280029058 -6.030200005 -0.9801446795 0.9756901264 
0.08052734286 -6.031826019 -0.9734269977 0.9758546948 
0.6191552877 -6.028515339 -0.9779233932 0.9757445455 
1.442338824 -6.001909256 -0.9960871935 0.9752996564 
2.064184427 -6.12941885 -1.043671012 0.9741350412 
4.607719421 -10.4911232 -1.849013209 0.954634726 
5.089282036 -10.31516552 -1.856103301 0.9544648528 
5.665405273 -10.30094242 -1.897056937 0.9534838796 
6.272417068 -10.29207516 -1.944933176 0.9523383975 
6.911737919 -10.28202152 -1.99921155 0.9510412812 
7.370239258 -9.97536087 -2.001413107 0.9509890079 
7.806811333 -9.637631416 -2.001413107 0.9509887099 
9.020072937 -8.512812614 -2.001413107 0.9509887695 
9.389828682 -8.103134155 -2.001413107 0.9509887695 
10.07286072 -7.236513615 -2.001413107 0.9509887695 
10.94642067 -5.831445217 -2.001413107 0.9509887695 
11.19498062 -5.338735104 -2.001413107 0.9509887695 
11.80597591 -3.801157236 -2.001413107 0.9509887695 
12.29245853 -1.650800705 -2.001413107 0.9509887695 
12.35372734 -1.102358341 -2.001413107 0.9509887695 
12.39053917 -0.5517260432 -2.001413107 0.9509887695 
12.402812 -4.882812391e-06 -2.001413107 0.9509887695 
12.35372734 1.102348566 -2.001413107 0.9509887695 
12.29246044 1.650800705 -2.001413107 0.9509887695 
12.20686531 2.195976496 -2.001413107 0.9509887695 
12.09708977 2.736806631 -2.001413107 0.9509887695 
11.62518024 4.322607517 -2.001413107 0.9509887695 
11.19498539 5.338730335 -2.001413107 0.9509887695 
10.54199219 5.615995884 -1.927469254 0.9527560472 
9.863226891 5.83192873 -1.849013209 0.9546347857 
7.989321232 8.242123604 -1.852300882 0.9545559883 
7.613286018 8.587690353 -1.851939917 0.954564631 
6.399106503 9.519476891 -1.850944042 0.9545884728 
5.525903225 10.04739761 -1.850358486 0.9546025395 
2.537192345 8.812074661 -1.479752779 0.9635270238 
2.597275257 10.8078661 -1.793689847 0.9559617043 
2.178969622 11.24839783 -1.848870993 0.9546381831 
1.170429707 11.39600086 -1.848619819 0.9546442032 
0.6623046994 11.4362011 -1.84852457 0.9546464682 
0.1529150307 11.4538765 -1.848449945 0.9546482563 
-0.3567382693 11.44900894 -1.848396301 0.9546495676 
-0.5375732183 7.092753887 -1.147823572 0.9715908766 
-0.8406396508 6.963134766 -1.131783724 0.9719823003 
-1.16404295 7.00607872 -1.146053791 0.9716340899 
-1.502490163 7.079032898 -1.16777432 0.9711043239 
-1.781606436 6.872744083 -1.145699382 0.9716427922 
-2.445419788 6.85546875 -1.174527884 0.9709396958 
-3.691200972 7.157509804 -1.299537778 0.9678968787 
-4.077035904 7.110234261 -1.322603464 0.9673364758 
-4.960317135 7.102724552 -1.397983789 0.9655072689 
-6.630190372 7.215859413 -1.581302881 0.9610732794 
-7.206166744 7.17416954 -1.640859127 0.9596371651 
-8.432050705 7.018701077 -1.770355701 0.9565219879 
-9.42339325 6.518798828 -1.849013209 0.9546346664 
-9.704057693 6.09311533 -1.849013209 0.954634726 
-12.14389133 2.521079063 -2.001413107 0.9509887695 
-12.24400806 1.978374004 -2.001413107 0.9509887695 
-12.37875462 -0.7721484303 -2.001413107 0.9509887695 
-12.26113224 -1.869316339 -2.001413107 0.9509887695 
-12.04646015 -2.951723576 -2.001413107 0.9509887695 
-11.90322685 -3.484672785 -2.001413107 0.9509887695 
-11.73640633 -4.010712624 -2.001413107 0.9509888887 
-11.54640579 -4.52881813 -2.001413107 0.9509887695 
-11.33351994 -5.037959099 -2.001413107 0.9509887695 
-11.09819794 -5.537133694 -2.001413107 0.9509887695 
-10.84087849 -6.025341511 -2.001413107 0.9509888291 
-9.942440987 -7.414628506 -2.001413107 0.9509888887 
-9.602748871 -7.849570274 -2.001413107 0.9509889483 
-9.244135857 -8.268974304 -2.001413107 0.9509887099 
-8.061264038 -9.42578125 -2.001413107 0.9509888291 
-7.633984089 -9.775082588 -2.001413107 0.9509887099 
-6.651674747 -10.28620625 -1.976682544 0.9515795708 
-5.430517673 -10.30418396 -1.879549265 0.9539031386 
-4.886034966 -10.36439419 -1.849013209 0.9546348453 
-3.945595503 -10.75764656 -1.849013209 0.954634726 
-1.052329063 -6.002729416 -0.9834191799 0.9756099582 
0.2953466773 -6.029164791 -0.9740798473 0.9758387208 
0.8361865282 -6.02312994 -0.9812597632 0.9756628275 
1.109731436 -6.014906883 -0.986993134 0.9755223989 
1.386928678 -6.006059647 -0.9946886897 0.9753338695 
1.988349557 -6.082641602 -1.032653213 0.974404633 
4.041196346 -10.72209454 -1.849013209 0.9546347857 
4.514155388 -10.53171825 -1.849013209 0.954634726 
4.978901386 -10.32198715 -1.849282384 0.9546282887 
5.547436237 -10.30257797 -1.888190269 0.9536961913 
6.148569107 -10.29393578 -1.93486619 0.9525791407 
6.781039715 -10.28414536 -1.987807274 0.9513135552 
8.144877434 -9.353686333 -2.001413107 0.9509886503 
8.552856445 -8.982113838 -2.001413107 0.9509887695 
9.672294617 -7.763783932 -2.001413107 0.9509887695 
10.89410591 -5.928603172 -2.001413107 0.9509887695 
11.14704609 -5.438119888 -2.001413107 0.9509887695 
11.37791443 -4.936879635 -2.001413107 0.9509887695 
11.58626461 -4.425868988 -2.001413107 0.9509887695 
11.77167416 -3.906098604 -2.001413107 0.9509887695 
12.07224846 -2.844379902 -2.001413107 0.9509887695 
12.18682575 -2.304545879 -2.001413107 0.9509887695 
12.27728271 -1.760156155 -2.001413107 0.9509887695 
12.39495373 0.44145751 -2.001413107 0.9509887695 
12.36304951 0.9923974276 -2.001413107 0.9509887695 
12.30666733 1.541372061 -2.001413107 0.9509887695 
12.12096405 2.629067421 -2.001413107 0.9509887695 
11.99201107 3.165654182 -2.001413107 0.9509887695 
11.8393259 3.695961714 -2.001413107 0.9509887695 
11.66319752 4.21895504 -2.001413107 0.9509887695 
11.46397877 4.733598709 -2.001413107 0.9509887695 
11.24206543 5.238867283 -2.001413107 0.9509887695 
10.76102543 5.610282898 -1.958307862 0.9520186186 
9.649418831 6.179262638 -1.849013209 0.9546347857 
9.062055588 7.01243639 -1.849013209 0.9546346664 
8.741127968 7.408603191 -1.849013209 0.954634726 
7.301694393 8.851899147 -1.851661325 0.9545713067 
6.483759403 9.462485313 -1.85100615 0.9545869827 
6.055414677 9.739941597 -1.850702047 0.9545943141 
4.379946232 7.798578739 -1.443338275 0.9644085169 
5.164218426 10.2365036 -1.850143194 0.9546076655 
4.703100681 10.45466328 -1.849889755 0.9546137452 
4.232851505 10.65216732 -1.849654317 0.9546194077 
3.754379749 10.82864189 -1.849437237 0.9546245933 
2.279037952 11.22873974 -1.848900437 0.9546374679 
1.777153254 11.31814384 -1.848760843 0.9546408057 
-0.2548535168 11.45178223 -1.848405242 0.9546493292 
-0.7817626595 6.998232365 -1.136313915 0.9718717337 
-1.429379821 7.042485237 -1.159601212 0.9713036418 
-2.85708499 7.189965725 -1.248478293 0.9691385627 
-3.155336857 7.014062405 -1.241101027 0.9693180919 
-3.595156193 7.126284122 -1.288007736 0.9681771398 
-4.037216663 7.188324928 -1.330390692 0.9671472907 
-4.311640739 6.935122013 -1.317755818 0.967454195 
-4.898329735 7.148691177 -1.398394704 0.9654973745 
-5.38833952 7.158681393 -1.445850134 0.9643476009 
-6.494145393 7.195243835 -1.564063668 0.961489439 
-7.096928596 7.192260742 -1.630491257 0.9598870277 
-7.775742054 7.20867157 -1.711008549 0.9579484463 
-9.365014076 6.60238266 -1.849013209 0.954634726 
-11.24206543 5.238872051 -2.001413107 0.9509887695 
-11.66320324 4.218959808 -2.001413107 0.9509887695 
-11.9920063 3.165649414 -2.001413107 0.9509887695 
-12.12097168 2.629067421 -2.001413107 0.9509887099 
-12.22591305 2.087285042 -2.001413107 0.9509887695 
-12.39495564 0.44140625 -2.001413107 0.9509887695 
-12.40231895 -0.1104003862 -2.001413107 0.9509887695 
-12.34342289 -1.212270498 -2.001413107 0.9509887695 
-11.77166462 -3.906088829 -2.001413107 0.9509887695 
-11.37791443 -4.936889648 -2.001413107 0.9509887695 
-11.14704037 -5.438124657 -2.001413107 0.9509887695 
-10.32404804 -6.873403072 -2.001413107 0.9509887695 
-8.144833565 -9.353691101 -2.001413107 0.9509887695 
-7.281254768 -10.04058075 -2.001413107 0.9509887695 
-6.780986309 -10.28413582 -1.987807751 0.9513137341 
-5.547475338 -10.30259228 -1.888190269 0.9536960721 
-4.514145374 -10.53172302 -1.849013209 0.954634726 
-4.041205883 -10.72209454 -1.849013209 0.9546347857 
-3.560239077 -10.89124489 -1.849013209 0.9546347857 
-0.8368603587 -6.028154373 -0.982077837 0.9756427407 
-0.565258801 -6.031479359 -0.9775503278 0.975753665 
0.7817968726 -6.024633884 -0.980332911 0.9756855369 
1.3310498 -6.007494926 -0.9929251075 0.9753770828 
1.922685504 -6.063998699 -1.026542544 0.9745541215 
5.430541992 -10.30418968 -1.879549384 0.953903079 
6.026020527 -10.29575157 -1.925053716 0.9528138638 
6.651879787 -10.28620052 -1.976687551 0.9515792131 
7.19163084 -10.10496521 -2.001413107 0.9509887695 
7.634018421 -9.775048256 -2.001413107 0.9509887695 
9.602807045 -7.849575043 -2.001413107 0.9509887695 
10.26247025 -6.965024471 -2.001413107 0.9509887695 
10.56213379 -6.50162077 -2.001413107 0.9509887695 
11.33351994 -5.037963867 -2.001413107 0.9509887695 
11.90324688 -3.484623909 -2.001413107 0.9509887695 
12.04646015 -2.951669931 -2.001413107 0.9509887695 
12.16584206 -2.412885666 -2.001413107 0.9509887695 
12.33215332 -1.322045922 -2.001413107 0.9509887695 
12.40085411 -0.2207421809 -2.001413107 0.9509887695 
12.31989002 1.431762695 -2.001413107 0.9509887695 
12.14388371 2.521079063 -2.001413107 0.9509887695 
12.01971436 3.05877924 -2.001413107 0.9509887695 
11.50566864 4.631367207 -2.001413107 0.9509887099 
11.28817844 5.138593674 -2.001413107 0.9509890079 
10.98703575 5.604364872 -1.990284681 0.9512545466 
8.806689262 7.330541611 -1.849013209 0.9546347857 
8.13539505 8.099282265 -1.85244894 0.954552412 
7.76552248 8.451478958 -1.852082729 0.9545612335 
7.380468369 8.786889076 -1.851730108 0.9545696378 
6.567954063 9.404716492 -1.851068974 0.9545854926 
4.941879749 7.79327631 -1.489113092 0.9633005857 
5.70423317 9.948032379 -1.850470424 0.9545998573 
5.255278111 10.19042015 -1.850196004 0.9546064138 
4.327602386 10.61433125 -1.849699974 0.9546183348 
3.366284132 10.95445824 -1.849277139 0.9546284676 
2.875370979 11.09226513 -1.849094152 0.9546328187 
2.3788867 11.20820332 -1.848930717 0.9546367526 
0.8657470345 11.422822 -1.848560095 0.9546456337 
-0.7217626572 7.027504921 -1.139977217 0.9717823267 
-1.366347671 7.053461552 -1.159359932 0.9713095427 
-1.989116192 6.908539772 -1.16010654 0.9712913632 
-3.924399376 7.135365963 -1.314077377 0.9675435424 
-4.262876034 6.994716644 -1.321819782 0.9673554897 
-5.844995022 7.215761662 -1.498474836 0.9630742073 
-7.62643528 7.197548866 -1.692186594 0.9584012628 
-9.305839539 6.685483456 -1.849013209 0.9546347857 
-11.1950922 5.338681698 -2.001413107 0.9509884715 
-11.62520981 4.322553635 -2.001413107 0.9509887099 
-11.80600071 3.801162004 -2.001413107 0.9509886503 
-11.96334934 3.272216797 -2.001413107 0.9509888887 
-12.09711361 2.736806631 -2.001413107 0.9509887099 
-12.29246521 1.650795817 -2.001413107 0.9509887695 
-12.35372543 1.102353454 -2.001413107 0.9509887695 
-12.39053726 0.551728487 -2.001413107 0.9509887695 
-12.39053726 -0.5517187119 -2.001413107 0.9509887695 
-12.35372543 -1.102348566 -2.001413107 0.9509887695 
-12.20686054 -2.195981503 -2.001413107 0.9509887695 
-12.09709454 -2.736811399 -2.001413107 0.9509887695 
-11.96337414 -3.272216797 -2.001413107 0.9509887695 
-11.80595207 -3.80121088 -2.001413107 0.9509887695 
-11.62517071 -4.322597504 -2.001413107 0.9509888291 
-11.19498539 -5.338745117 -2.001413107 0.9509887695 
-10.67618656 -6.312607288 -2.001413107 0.9509887099 
-10.38479424 -6.781274319 -2.001413107 0.9509887695 
-10.07287121 -7.236508846 -2.001413107 0.9509887695 
-9.389872551 -8.103144646 -2.001413107 0.9509886503 
-9.020072937 -8.512812614 -2.001413107 0.9509887695 
-8.632480621 -8.90562439 -2.001413107 0.9509887695 
-7.806547642 -9.637631416 -2.001413107 0.950989306 
-6.911625862 -10.28202629 -1.999212265 0.95104146 
-6.272426605 -10.29208469 -1.944933534 0.9523383379 
-5.665453911 -10.30094242 -1.897052765 0.9534837604 
-4.607670784 -10.49114704 -1.849013209 0.954634726 
-4.13643074 -10.68571758 -1.849013209 0.9546347857 
-3.657006741 -10.8591404 -1.849013209 0.9546347857 
-1.747499943 -6.069335938 -1.019182086 0.9747342467 
-1.436440349 -5.977343559 -0.9920114875 0.9753994942 
-1.161845684 -5.997758865 -0.9858358502 0.9755507112 
-0.6194238067 -6.031088829 -0.9783421755 0.9757342935 
-0.349370122 -6.032636642 -0.9751036763 0.9758136272 
0.1879003793 -6.030570984 -0.9736111164 0.9758502245 
0.4569238126 -6.028681278 -0.9756247401 0.9758008718 
0.9999267459 -6.018339634 -0.9844780564 0.9755839705 
1.275473595 -6.009423733 -0.9913275838 0.9754161835 
1.553637624 -5.993349552 -0.9990983605 0.9752258658 
3.849731445 -10.7923193 -1.849013209 0.9546347857 
4.325995922 -10.61039543 -1.849013209 0.954634726 
5.314750671 -10.30574703 -1.871134043 0.9541046619 
7.101401329 -10.16857433 -2.001413107 0.9509887695 
7.546645164 -9.842617035 -2.001413107 0.9509888887 
8.391645432 -9.132919312 -2.001413107 0.9509887695 
8.789604187 -8.750580788 -2.001413107 0.9509887695 
10.20009232 -7.056054592 -2.001413107 0.9509887695 
10.50387192 -6.595336914 -2.001413107 0.9509887695 
10.78683567 -6.121552467 -2.001413107 0.9509888291 
11.28824234 -5.13860321 -2.001413107 0.9509887695 
11.87175274 -3.59043932 -2.001413107 0.9509887695 
12.01971912 -3.058784008 -2.001413107 0.9509887695 
12.14388371 -2.521074057 -2.001413107 0.9509887695 
12.24400806 -1.978378892 -2.001413107 0.9509887695 
12.26113033 1.869360328 -2.001413107 0.9509887695 
12.16583252 2.412929535 -2.001413107 0.9509887695 
12.04645252 2.951723576 -2.001413107 0.9509887695 
11.90322685 3.484667778 -2.001413107 0.9509887695 
11.33346176 5.037959099 -2.001413107 0.9509889483 
10.12386227 5.626816273 -1.869037151 0.9541549087 
9.481024742 6.434658051 -1.849013209 0.9546347857 
9.185420036 6.850039005 -1.849013209 0.954634726 
8.871596336 7.25186491 -1.849013209 0.954634726 
8.540224075 7.639321327 -1.849013209 0.9546347857 
8.207494736 8.026869774 -1.852523804 0.9545506239 
7.840751648 8.382348061 -1.85215497 0.9545594454 
7.458666801 8.721171379 -1.851799607 0.9545679688 
6.651601315 9.346225739 -1.851132274 0.9545840025 
6.228208065 9.631254196 -1.850821614 0.9545913935 
3.463725567 10.92429638 -1.849316001 0.9546275139 
2.974042892 11.06644058 -1.849129319 0.9546319842 
0.9674072266 11.41477489 -1.848579168 0.9546451569 
-0.05096191168 11.45463848 -1.848425984 0.9546488523 
-0.3560156226 7.267773151 -1.174189448 0.9709479213 
-0.6634619236 7.078989029 -1.147326589 0.9716030359 
-0.9640673399 6.944257736 -1.131325841 0.9719934464 
-1.627861261 7.049379826 -1.167481184 0.971111536 
-1.918271422 6.892514706 -1.154503703 0.9714280367 
-2.680644512 7.112260818 -1.226505518 0.9696733952 
-3.011030197 7.024838924 -1.2333287 0.969507277 
-3.393950224 7.036127567 -1.260593176 0.9688438177 
-3.86140132 7.171274185 -1.314308643 0.9675379992 
-6.368051529 7.313183308 -1.56480515 0.961471498 
-6.819096565 7.161333084 -1.595701575 0.9607259035 
-7.499594688 7.205068111 -1.678199172 0.9587379098 
-8.752104759 7.025160789 -1.81100297 0.9555462599 
-9.24601078 6.768002987 -1.849013209 0.9546347857 
-9.810961723 5.919447899 -1.849013209 0.954634726 
-10.32979012 5.621499062 -1.897740602 0.9534674883 
-11.14704609 5.438119888 -2.001413107 0.9509887695 
-11.58625984 4.42586422 -2.001413107 0.9509887695 
-11.77169418 3.906093597 -2.001413107 0.9509886503 
-11.93376446 3.378574133 -2.001413107 0.9509888291 
-12.07224083 2.844370127 -2.001413107 0.9509888291 
-12.38514137 0.6619873047 -2.001413107 0.9509887099 
-12.36305141 -0.9923974276 -2.001413107 0.9509887695 
-12.30666924 -1.541362286 -2.001413107 0.9509887695 
-12.12096119 -2.629072189 -2.001413107 0.9509887695 
-11.99201679 -3.165649414 -2.001413107 0.9509887695 
-11.463974 -4.733608246 -2.001413107 0.9509887695 
-10.99788094 -5.733778954 -2.001413107 0.9509887695 
-10.73193836 -6.217329025 -2.001413107 0.9509887695 
-10.44474125 -6.688573837 -2.001413107 0.9509887695 
-10.13687992 -7.146562576 -2.001413107 0.9509887695 
-9.808964729 -7.590429306 -2.001413107 0.9509886503 
-9.461693764 -8.019257545 -2.001413107 0.9509884119 
-9.095454216 -8.432230949 -2.001413107 0.9509887695 
-7.458823204 -9.909399033 -2.001413107 0.9509887099 
-7.010624886 -10.23138618 -2.001413107 0.9509887099 
-5.784301758 -10.29925251 -1.906149864 0.9532664418 
-4.700561523 -10.44970703 -1.849013209 0.9546352625 
-4.231381893 -10.6484766 -1.849013209 0.9546347857 
-1.827465773 -6.140956879 -1.033900023 0.9743741155 
-1.493959904 -5.981811523 -0.9949201941 0.975328207 
-0.9450536966 -6.018769264 -0.983134985 0.9756168723 
-0.6736767292 -6.030659199 -0.9792062044 0.9757131338 
-0.4032324255 -6.032412052 -0.9756078124 0.9758012891 
0.1342236251 -6.031215668 -0.9734835625 0.9758533239 
0.4030126929 -6.028671741 -0.9750034213 0.975816071 
0.673325181 -6.027519226 -0.9786962867 0.9757255912 
0.9452392459 -6.019985199 -0.9833317995 0.9756120443 
1.793598652 -6.027172565 -1.014743328 0.974842906 
2.152690411 -6.208954811 -1.060433984 0.9737251401 
4.231381893 -10.6484766 -1.849013209 0.9546347857 
4.700869083 -10.44970703 -1.849013209 0.9546347857 
5.200844765 -10.30817318 -1.863096595 0.9542964697 
5.784418583 -10.29926777 -1.906149745 0.9532662034 
6.397455692 -10.29017067 -1.955250978 0.9520917535 
7.010605335 -10.23137665 -2.001413107 0.9509887695 
7.458705902 -9.909399033 -2.001413107 0.9509889483 
7.892333984 -9.56775856 -2.001413107 0.9509885907 
8.711400986 -8.828432083 -2.001413107 0.9509887695 
9.095454216 -8.432226181 -2.001413107 0.9509887695 
9.80892086 -7.59045887 -2.001413107 0.9509887099 
10.44474602 -6.688612938 -2.001413107 0.9509887099 
10.99791527 -5.733730316 -2.001413107 0.9509887695 
11.24206543 -5.238872051 -2.001413107 0.9509887695 
11.83933067 -3.695922852 -2.001413107 0.9509887695 
12.12097168 -2.629018545 -2.001413107 0.9509887695 
12.22591782 -2.087285042 -2.001413107 0.9509887695 
12.34343719 1.212211847 -2.001413107 0.9509887695 
12.27728939 1.760146499 -2.001413107 0.9509887099 
12.18684292 2.304492235 -2.001413107 0.9509887695 
11.93375969 3.378627777 -2.001413107 0.9509887695 
11.58623505 4.425908089 -2.001413107 0.9509888291 
11.37791443 4.936874866 -2.001413107 0.9509887695 
9.246001244 6.768051624 -1.849013209 0.9546346664 
8.607851028 7.563036919 -1.849013209 0.9546347857 
8.038393021 7.722714901 -1.798766851 0.9558398724 
6.173359394 7.76139164 -1.600304484 0.9606148601 
6.734789848 9.286943436 -1.851196408 0.9545824528 
6.313906193 9.575741768 -1.85088253 0.954589963 
5.880698204 9.845571518 -1.850584865 0.9545971155 
5.436127663 10.0958643 -1.850303769 0.9546038508 
4.980893612 10.32623482 -1.85003984 0.9546101689 
4.042367935 10.72531223 -1.849565268 0.9546215534 
3.072446108 11.03976536 -1.849164963 0.9546310902 
2.578125 11.16445732 -1.848993778 0.9546352625 
2.078715801 11.26717758 -1.848842144 0.9546388388 
1.068935513 11.40584469 -1.848599076 0.95464468 
-0.601904273 7.102109432 -1.150159717 0.9715339541 
-0.9040429592 6.966405869 -1.133580089 0.9719384909 
-1.235722661 7.04884243 -1.154801965 0.9714207053 
-4.157470703 7.103300571 -1.328140974 0.9672019482 
-5.531645298 7.083032131 -1.450234056 0.9642414451 
-6.331665039 7.403437138 -1.571995854 0.9612979293 
-7.38710928 7.224594593 -1.667358637 0.9589989185 
-9.185424805 6.850039005 -1.849013209 0.9546346664 
-9.481019974 6.434623718 -1.849013209 0.9546348453 
-10.12392998 5.626811504 -1.869052649 0.9541547298 
-11.09819794 5.537138462 -2.001413107 0.9509887695 
-11.54642105 4.528813362 -2.001413107 0.9509887099 
-11.73641586 4.010663986 -2.001413107 0.9509888887 
-12.04646492 2.951669931 -2.001413107 0.9509887695 
-12.16584492 2.412934542 -2.001413107 0.9509887099 
-12.26113701 1.869301677 -2.001413107 0.9509887695 
-12.33215332 1.322094679 -2.001413107 0.9509887099 
-12.37875462 0.7721582055 -2.001413107 0.9509887695 
-12.31989765 -1.431762695 -2.001413107 0.9509887695 
-12.1438818 -2.521083832 -2.001413107 0.9509887695 
-11.87175274 -3.590434551 -2.001413107 0.9509887695 
-11.70026875 -4.115029335 -2.001413107 0.9509887695 
-11.04849052 -5.635653973 -2.001413107 0.9509887695 
-9.876117706 -7.502802372 -2.001413107 0.9509887695 
-9.532660484 -7.934760571 -2.001413107 0.9509884119 
-9.170122147 -8.350878716 -2.001413107 0.9509890079 
-7.97705555 -9.497172356 -2.001413107 0.9509887695 
-7.101371765 -10.16856956 -2.001413107 0.9509888291 
-5.904633522 -10.29753399 -1.915481806 0.9530428648 
-5.314619064 -10.30574226 -1.87112999 0.9541049004 
-4.793696404 -10.40744591 -1.849013209 0.9546347857 
-3.849736214 -10.7923193 -1.849013209 0.9546347857 
-1.551811457 -5.986293793 -0.9979227781 0.9752546549 
-1.269135714 -5.979570389 -0.9864034653 0.9755368233 
-0.9987011552 -6.010766506 -0.9832410812 0.9756143093 
-0.7280029058 -6.030200005 -0.9801446795 0.9756901264 
-0.4572119117 -6.032138348 -0.9761841297 0.9757871628 
-0.1879882812 -6.033090591 -0.9740181565 0.9758402109 
0.08055175841 -6.031811237 -0.9734271169 0.9758547544 
0.619179666 -6.028510571 -0.9779236913 0.9757445455 
0.8906493783 -6.021582127 -0.9822590351 0.97563833 
1.164838791 -6.013124943 -0.988362968 0.9754888415 
1.442338824 -6.001909256 -0.9960871935 0.9752996564 
1.730146408 -6.008984089 -1.009048939 0.9749822617 
4.607675552 -10.4911375 -1.849013209 0.9546347857 
5.089282036 -10.31516552 -1.856103301 0.9544648528 
5.665346622 -10.30094242 -1.897052884 0.9534839988 
7.806777 -9.637665749 -2.001413107 0.9509886503 
8.227773666 -9.280815125 -2.001413107 0.9509887695 
9.020072937 -8.512812614 -2.001413107 0.9509887695 
9.389867783 -8.103100777 -2.001413107 0.9509887695 
9.740990639 -7.677431583 -2.001413107 0.9509887695 
10.07290459 -7.236469746 -2.001413107 0.9509887695 
10.3845892 -6.781289101 -2.001413107 0.9509894252 
10.94642067 -5.831445217 -2.001413107 0.9509887695 
11.42139149 -4.835453987 -2.001413107 0.9509887695 
11.96337414 -3.27223134 -2.001413107 0.9509887695 
12.20686245 -2.195971727 -2.001413107 0.9509887695 
12.29245377 -1.650854468 -2.001413107 0.9509887695 
12.35372734 -1.102358341 -2.001413107 0.9509887695 
12.402812 -4.882812391e-06 -2.001413107 0.9509887695 
12.29245377 1.650849581 -2.001413107 0.9509887695 
12.20686531 2.195976496 -2.001413107 0.9509887695 
11.96337414 3.272216797 -2.001413107 0.9509887695 
11.80595207 3.801201105 -2.001413107 0.9509887695 
11.62518978 4.322553635 -2.001413107 0.9509888291 
11.42139149 4.835453987 -2.001413107 0.9509887695 
11.19500446 5.338686466 -2.001413107 0.9509887695 
9.594033241 6.264906883 -1.849013209 0.9546347857 
9.305908203 6.685444355 -1.849013209 0.9546346664 
8.999281883 7.092822075 -1.849013209 0.9546346664 
8.349740982 7.880160809 -1.852674961 0.954546988 
7.9892869 8.242157936 -1.852300882 0.9545559883 
7.22234869 8.916215897 -1.851593137 0.954572916 
6.817397118 9.226977348 -1.8512609 0.9545809031 
5.968334675 9.793114662 -1.850643158 0.954595685 
5.525903225 10.04739761 -1.850358486 0.9546025395 
5.072787762 10.28175735 -1.850091219 0.9546089172 
4.609741211 10.49583435 -1.849841237 0.9546149373 
2.537231445 8.81207943 -1.479754567 0.9635269642 
2.597275257 10.8078661 -1.793689847 0.9559617043 
2.179013729 11.24838829 -1.848870993 0.9546381831 
1.6763134 11.33336926 -1.848735332 0.9546414018 
0.6623046994 11.4362011 -1.84852457 0.9546464682 
-0.5375927687 7.092753887 -1.147824764 0.9715908766 
-0.8406396508 6.963134766 -1.131783724 0.9719823003 
-1.502490163 7.079032898 -1.16777432 0.9711043239 
-1.781606436 6.872744083 -1.145699382 0.9716427922 
-2.124926805 6.914897442 -1.167340994 0.9711149335 
-4.077035904 7.110234261 -1.322603464 0.9673364758 
-4.475776196 7.058158875 -1.348654628 0.9667038918 
-4.960317135 7.102724552 -1.397983789 0.9655072689 
-6.630224228 7.215834618 -1.581304312 0.9610732794 
-9.12408638 6.931493759 -1.849013209 0.9546347857 
-9.42339325 6.518798828 -1.849013209 0.9546346664 
-9.704057693 6.09311533 -1.849013209 0.954634726 
-11.50581551 4.631367207 -2.001413107 0.9509882331 
-11.70027828 4.11502409 -2.001413107 0.9509887099 
-11.87173843 3.590429544 -2.001413107 0.9509888291 
-12.01975536 3.058735371 -2.001413107 0.9509886503 
-12.24401855 1.978330016 -2.001413107 0.9509887695 
-12.39839363 0.3311083913 -2.001413107 0.9509887695 
-12.37875462 -0.7721484303 -2.001413107 0.9509887695 
-12.33214283 -1.322094679 -2.001413107 0.9509887695 
-12.26113224 -1.869316339 -2.001413107 0.9509887695 
-12.04646015 -2.9516747 -2.001413107 0.9509887695 
-11.73641586 -4.010659218 -2.001413107 0.9509888887 
-11.54640579 -4.52881813 -2.001413107 0.9509887695 
-9.244135857 -8.268974304 -2.001413107 0.9509887099 
-8.86710453 -8.672045708 -2.001413107 0.9509887695 
-8.472621918 -9.057866096 -2.001413107 0.9509887099 
-8.061244965 -9.425825119 -2.001413107 0.9509887695 
-4.886034966 -10.36439419 -1.849013209 0.9546348453 
-4.420268536 -10.57146454 -1.849013209 0.9546347857 
-3.945595503 -10.75764656 -1.849013209 0.954634726 
-3.463110209 -10.92251396 -1.849013209 0.9546347857 
-1.324399352 -5.977597713 -0.9879823923 0.9754981399 
-0.5111962557 -6.031830788 -0.9768313169 0.9757713079 
-0.2417236269 -6.032983303 -0.9743087292 0.975833118 
0.2953661978 -6.029174805 -0.9740798473 0.9758387208 
0.5649853349 -6.028598309 -0.9770843387 0.9757651091 
0.8361865282 -6.02312994 -0.9812597632 0.9756628275 
1.109711885 -6.014906883 -0.9869927168 0.9755223989 
1.667309523 -5.990912914 -1.003480792 0.9751185775 
4.041152477 -10.72210884 -1.849013209 0.9546347857 
4.978950024 -10.32199192 -1.849285483 0.9546282291 
5.547436237 -10.30257797 -1.888190269 0.9536961913 
6.148627758 -10.29393578 -1.934870601 0.9525790215 
7.281293869 -10.04054642 -2.001413107 0.9509887695 
8.552856445 -8.982113838 -2.001413107 0.9509887695 
8.943979263 -8.592734337 -2.001413107 0.9509887695 
9.317338943 -8.186396599 -2.001413107 0.9509887695 
9.672294617 -7.763783932 -2.001413107 0.9509887695 
10.32405758 -6.873403072 -2.001413107 0.9509887695 
11.14702129 -5.438169003 -2.001413107 0.9509887695 
11.58627892 -4.425820351 -2.001413107 0.9509887695 
11.77167416 -3.906098604 -2.001413107 0.9509887695 
12.18683815 -2.304497004 -2.001413107 0.9509887695 
12.27728271 -1.760156155 -2.001413107 0.9509887695 
12.3949604 0.4414013624 -2.001413107 0.9509887695 
12.36304951 0.9923974276 -2.001413107 0.9509887695 
11.99201107 3.165654182 -2.001413107 0.9509887695 
11.83933544 3.695917845 -2.001413107 0.9509887695 
11.66319752 4.21895504 -2.001413107 0.9509887695 
11.24206543 5.238867283 -2.001413107 0.9509887695 
10.76091766 5.610288143 -1.958292246 0.9520189762 
9.914565086 5.743901253 -1.849013209 0.9546353817 
9.649398804 6.179301739 -1.849013209 0.954634726 
9.365014076 6.602377892 -1.849013209 0.954634726 
9.062021255 7.012470722 -1.849013209 0.954634726 
8.741127968 7.408603191 -1.849013209 0.954634726 
5.851791859 7.774408817 -1.570206523 0.9613411427 
5.164218426 10.2365036 -1.850143194 0.9546076655 
4.703056335 10.45468235 -1.849889755 0.9546137452 
3.754330873 10.82865715 -1.849437237 0.9546245933 
2.279037952 11.22873974 -1.848900437 0.9546374679 
1.271835923 11.38526344 -1.848641157 0.9546436667 
0.7640331984 11.42996025 -1.848541975 0.9546460509 
0.2548584044 11.45214844 -1.848463297 0.9546478987 
-0.4732861221 7.080370903 -1.145092487 0.9716575146 
-0.7817626595 6.998232365 -1.136313915 0.9718717337 
-1.076274395 6.854687214 -1.11967659 0.9722778201 
-1.746005774 6.991147518 -1.162798882 0.9712257385 
-2.061537981 6.927519321 -1.166329741 0.9711396098 
-2.384135723 6.876386642 -1.174431443 0.97094208 
-2.85708499 7.189965725 -1.248478293 0.9691385627 
-4.037231445 7.188281059 -1.330385447 0.9671474099 
-4.898364067 7.148671627 -1.398394465 0.9654973149 
-6.49413538 7.195297718 -1.564067483 0.9614892602 
-7.096928596 7.192260742 -1.630491257 0.9598870277 
-8.333374023 7.063017368 -1.762763143 0.9567044377 
-9.914751053 5.743901253 -1.849013209 0.954634726 
-10.76112747 5.61027813 -1.958323479 0.952018261 
-11.66320324 4.218959808 -2.001413107 0.9509887695 
-11.9920063 3.165649414 -2.001413107 0.9509887695 
-12.12099075 2.629018545 -2.001413107 0.9509887099 
-12.22591305 2.087285042 -2.001413107 0.9509887695 
-12.30667973 1.541323185 -2.001413107 0.9509887099 
-12.36305141 0.9924023151 -2.001413107 0.9509887695 
-12.27728462 -1.760156155 -2.001413107 0.9509887695 
-11.77166462 -3.906088829 -2.001413107 0.9509887695 
-11.58624458 -4.425922871 -2.001413107 0.9509887695 
-10.89408684 -5.928603172 -2.001413107 0.9509888291 
-10.00811958 -7.325908184 -2.001413107 0.9509885311 
-9.317470551 -8.186420441 -2.001413107 0.9509882927 
-8.9439888 -8.592729568 -2.001413107 0.9509887695 
-8.552865982 -8.982118607 -2.001413107 0.9509887099 
-7.720664024 -9.706738472 -2.001413107 0.9509888291 
-6.148500919 -10.29394531 -1.934861064 0.9525792599 
-5.547475338 -10.30259228 -1.888190269 0.9536960721 
-4.978388786 -10.32199669 -1.849279165 0.9546291232 
-3.560239077 -10.89124489 -1.849013209 0.9546347857 
-1.675873995 -6.021659851 -1.008630395 0.9749925137 
-1.379956007 -5.975839615 -0.9896836877 0.9754564762 
-0.8368798494 -6.02814436 -0.9820783734 0.9756428003 
0.5109277368 -6.028662205 -0.9763185382 0.9757838845 
1.054760695 -6.016645432 -0.9856984019 0.9755541086 
1.609501958 -5.988974571 -1.000717878 0.9751862288 
4.420268536 -10.57146454 -1.849013209 0.9546347857 
4.886215687 -10.36438942 -1.849013209 0.9546346068 
5.430600643 -10.30418396 -1.879553318 0.9539030194 
6.025961876 -10.29576683 -1.925049067 0.9528139234 
6.651879787 -10.28620052 -1.976687551 0.9515792131 
7.634018421 -9.775048256 -2.001413107 0.9509887695 
8.472601891 -9.057861328 -2.001413107 0.9509887695 
9.244125366 -8.268964767 -2.001413107 0.9509887695 
