# .PCD v0.7 - Point Cloud Data file format
VERSION 0.7
FIELDS x y z intensities
SIZE 4 4 4 4
TYPE F F F F
COUNT 1 1 1 1
WIDTH 923
HEIGHT 1
VIEWPOINT 0 0 0 1 0 0 0
POINTS 923
DATA ascii
18.33962059 -16.70115662 0.3401734829 0.905536294 
19.01883507 -13.15660381 0.3171528578 0.9116376042 
20.97514343 -13.17026138 0.3396597207 0.9056720734 
24.80650902 -14.07777786 0.3911636174 0.8921672106 
31.30723572 -14.25165462 0.4717434645 0.8714413643 
34.7580719 -13.99115658 0.5138444304 0.8608048558 
105.3983765 11.29921627 1.453726172 0.6543917656 
42.407547 8.410892487 0.5929104686 0.8411791325 
113.8522797 33.32996368 1.626912236 0.6221542358 
78.97776031 30.97725105 1.163444519 0.7122158408 
70.93829346 35.39266205 1.087215543 0.7282296419 
71.17355347 43.81155014 1.146184683 0.7158105373 
71.24584961 53.13178253 1.218854904 0.7007964849 
24.02271843 89.38864136 1.269391775 0.6905435324 
-0.1532665938 34.45262527 0.4724914432 0.8712512851 
-0.6951806545 14.19141579 0.1948559582 0.9447460771 
-1.288608313 9.28194809 0.1285136342 0.9632065296 
-2.14872551 9.304955482 0.1309670955 0.9625176191 
-2.592993021 9.316840172 0.1326281726 0.9620513916 
-9.758720398 25.89183998 0.3794668615 0.8952164054 
-9.673354149 22.56836319 0.3367373645 0.9064442515 
-10.35475063 15.70413494 0.2579711974 0.9275118709 
-10.55660629 14.55716801 0.2466073483 0.9305915236 
-10.9811182 9.648144722 0.2004676759 0.9432013035 
-12.3438673 9.908207893 0.217074573 0.9386428595 
-20.03211403 13.33669376 0.3300364614 0.9082174301 
-20.2332077 9.870829582 0.3087393045 0.9138774872 
-22.80323219 9.894330978 0.3408953846 0.9053456187 
-55.14455414 21.06477928 0.8095565438 0.7896655202 
-55.88555908 18.54397011 0.8075131178 0.7901364565 
-59.23585129 16.77023888 0.8442950249 0.781703949 
-67.57322693 15.92116642 0.9520818591 0.7575087547 
-108.0027161 -18.43894958 1.502590895 0.6451303363 
-58.54013062 -21.17586327 0.8537353277 0.7795541883 
-54.99909592 -25.62992668 0.8321413994 0.7844801545 
-55.08165359 -28.71697617 0.8518930078 0.7799732685 
-55.0187149 -31.87394905 0.8720058799 0.7754106522 
-56.65979004 -36.28358841 0.9227077961 0.7640269399 
-56.06486511 -39.52606964 0.9407494664 0.760016799 
-53.32456589 -59.08204269 1.091473103 0.7273259163 
-53.28015137 -64.59194946 1.148298979 0.7153696418 
-8.976830482 -15.98340321 0.2514033318 0.9292905331 
-6.378930569 -16.05288124 0.2368951291 0.9332315922 
-3.375585794 -13.51590347 0.1910554469 0.9457949996 
-2.771665096 -13.65589809 0.1910969466 0.9457825422 
-2.146840811 -13.67262173 0.1898049861 0.9461390376 
-0.9161962867 -13.70552254 0.1883782893 0.9465328455 
-0.3053173721 -13.72186947 0.1882298291 0.9465739131 
0.9194872975 -13.7546339 0.1890533417 0.9463464618 
1.538364172 -13.77118587 0.1900341809 0.9460757971 
2.164951086 -13.78793907 0.1914059371 0.9456973076 
4.118652344 -13.84019947 0.1980319172 0.9438712001 
6.251772404 -13.89725113 0.208985135 0.9408603311 
7.459863186 -13.28240681 0.2089192122 0.9408783913 
8.257787704 -13.28236771 0.2144889832 0.9393508434 
8.558867455 -12.49093246 0.2076580822 0.9412246943 
9.419228554 -12.51393986 0.2148005664 0.9392658472 
11.34096146 -12.56534195 0.2321316451 0.9345293641 
18.33176422 -16.99489784 0.3428195119 0.9048376083 
18.36989021 -15.56953049 0.3302401602 0.9081638455 
20.68574333 -14.5835886 0.3471001983 0.9037085772 
24.27563477 -14.06356907 0.3847506642 0.8938376904 
63.42287827 -22.94214249 0.9249459505 0.763528645 
66.40660858 -17.53003883 0.9419066906 0.759760797 
105.9543991 10.40596676 1.460059762 0.6531838179 
72.94583893 10.45799541 1.010615468 0.7446846366 
74.66886902 14.12000084 1.042164564 0.7378627658 
71.09361267 38.6893692 1.110009074 0.7234038711 
73.32139587 48.81485367 1.208001733 0.7030185461 
70.9249115 51.91692734 1.205411077 0.7035493851 
76.65293121 88.02979279 1.600789428 0.6269131899 
68.71350098 94.75328064 1.605176687 0.6261110902 
32.60186768 99.73326111 1.438998699 0.6572136283 
4.911987305 100.273407 1.376806259 0.6692401171 
0.2144335955 48.2004776 0.6610326767 0.8246287704 
-0.6445410252 16.08488655 0.220766902 0.9376324415 
-2.071669817 9.350136757 0.131338492 0.9624134302 
-2.957138538 9.326577187 0.1341809034 0.9616158009 
-9.968632698 18.91496086 0.2932215929 0.9180235267 
-6.071879864 10.37419891 0.1648499966 0.9530514479 
-10.54948711 14.82308578 0.2495121658 0.9298033714 
-10.17432117 13.02779293 0.2266937196 0.9360128045 
-10.52584934 12.30749035 0.2220936567 0.9372690916 
-10.64166451 11.37676239 0.2136387527 0.9395839572 
-12.33910656 10.08628368 0.218561098 0.9382359385 
-13.01023388 9.702421188 0.2225771993 0.9371378422 
-20.03153229 11.13345718 0.3142950237 0.9123979807 
-26.25390053 7.685830116 0.3751614392 0.8963418007 
-69.71709442 17.08239746 0.9843905568 0.7504032254 
-47.33198547 9.387465477 0.6617596149 0.8244540691 
-108.9383011 11.67849064 1.502551556 0.6451379061 
-48.16111755 -12.25605965 0.6815392971 0.8197112083 
-60.0777092 -21.12923241 0.8733822703 0.7750995159 
-55.00104904 -31.21346092 0.86729002 0.7764780521 
-18.08950233 -13.74255371 0.3115508854 0.913128376 
-53.0603447 -44.16658783 0.9467785358 0.7586813569 
-49.53290558 -45.10780716 0.9187655449 0.7649062276 
-53.589077 -63.80091095 1.142670274 0.7165449262 
-8.252753258 -16.00276756 0.2469287068 0.9305042624 
-6.543198109 -16.04848671 0.2376806587 0.9330178499 
-5.732324123 -16.07016563 0.2339892536 0.9340230227 
-2.897685528 -13.6525383 0.1914030463 0.9456980824 
-1.65224123 -13.68583965 0.1890519708 0.9463469386 
-0.4274511635 -13.71860313 0.1882296652 0.9465739131 
0.1833740175 -13.73493576 0.1883792132 0.9465326667 
2.038867235 -13.78456974 0.1910995394 0.9457817674 
4.665849686 -13.85482407 0.200491786 0.9431942701 
5.370483398 -13.87367153 0.2040228248 0.9422232509 
6.864687443 -13.91365242 0.2127734274 0.9398211837 
10.15256786 -12.53354931 0.2212037593 0.937513113 
18.32378197 -17.29331589 0.3455354273 0.9041211009 
18.39847374 -14.50087357 0.3212669194 0.9105440974 
18.88397408 -13.56656265 0.3188804686 0.9111781716 
33.8217926 -14.31890583 0.5036910772 0.8633580804 
63.40592575 -23.5760498 0.9277200103 0.7629107833 
40.64681625 -13.08701134 0.5856167674 0.8429709077 
69.38417816 -18.97795296 0.9864938259 0.7499428391 
99.60218811 -17.91812897 1.387881398 0.6670819521 
104.507164 14.03462887 1.446087956 0.6558514237 
113.7933044 31.12472534 1.617893696 0.6237928271 
90.08761597 33.49741364 1.318113685 0.6807969213 
70.65135193 33.69262695 1.073456049 0.7311584353 
71.05418396 37.85243988 1.104091167 0.7246536613 
72.18865204 47.1391983 1.182384014 0.7082919478 
71.10852051 56.0446167 1.241668701 0.6961483359 
33.51457596 99.51847076 1.440119267 0.6569939256 
24.01518059 99.9325943 1.409484506 0.6628878713 
14.79819775 100.0490799 1.387017488 0.6672514677 
5.196044922 89.7220459 1.232520461 0.6980089545 
-0.7434179783 9.808661461 0.1349032521 0.9614133239 
-9.428798676 26.43265152 0.3848718107 0.8938060403 
-9.464028358 23.21244621 0.3437797427 0.9045841694 
-9.751605988 18.90915489 0.2917751968 0.9184109569 
-9.951498985 15.69334888 0.2548435926 0.928358376 
-10.542202 15.09549809 0.2525082231 0.9289911985 
-9.985024452 13.02272892 0.2250497341 0.9364616871 
-10.33326626 12.3023386 0.2203321755 0.9377508163 
-10.63633728 11.57590771 0.2155923396 0.9390488267 
-11.61124992 9.66500473 0.2071844488 0.941354692 
-12.76270485 9.695800781 0.219808802 0.9378944635 
-14.06633759 9.730669022 0.2345661819 0.9338657856 
-19.88848495 12.48788548 0.3220622241 0.9103329182 
-19.20902824 9.798202515 0.2957260013 0.9173531532 
-55.73580551 19.60218239 0.8102618456 0.7895029783 
-96.37776947 15.57259274 1.338876605 0.6766860485 
-109.2652283 12.69831562 1.508560777 0.6440081596 
-69.37554169 -16.99896049 0.9795702696 0.7514594197 
-59.97422409 -17.55744553 0.8570132256 0.7788093686 
-54.74046326 -21.47070694 0.8063970804 0.7903934121 
-55.09249496 -24.48962402 0.8268252611 0.7856970429 
-55.16762924 -37.44168472 0.9143661261 0.7658883929 
-55.41897964 -41.32884979 0.9480935335 0.758390367 
-53.40187073 -43.6520462 0.9459008574 0.7588754892 
-49.6035881 -44.37096024 0.9127138853 0.7662575841 
-56.21556091 -54.97843933 1.078351736 0.7301149964 
-53.67458344 -57.38220978 1.077554345 0.7302848697 
-45.62277603 -58.41863632 1.016526103 0.7434017658 
-42.95907593 -60.36225891 1.016054988 0.7435038686 
-9.349038124 -15.97344685 0.2538241446 0.928634584 
-5.892514706 -16.06588364 0.2346813977 0.9338344932 
-3.485151291 -12.96828079 0.1841581613 0.9476985931 
-3.02417469 -13.64914513 0.1917253137 0.9456092119 
-2.395751953 -13.6659565 0.1902743429 0.9460095167 
-1.160991192 -13.69897938 0.1885427833 0.9464874864 
1.913242102 -13.78120041 0.1908096224 0.945861876 
2.545717716 -13.79813004 0.1924227923 0.9454168677 
3.190273285 -13.81536579 0.1944512874 0.9448575974 
5.227597713 -13.86985302 0.2032745332 0.9424289465 
6.709350586 -13.90949631 0.2117881775 0.9400913715 
7.445287704 -13.82723141 0.2153701782 0.9391096234 
7.928300381 -13.27355957 0.212033987 0.9400237203 
9.417167664 -14.28220177 0.2346134931 0.9338530302 
9.068080902 -12.5045557 0.2118351758 0.9400786161 
9.965126991 -12.52853966 0.2195410132 0.9379679561 
10.93189907 -12.55440426 0.2282974124 0.935575068 
18.27304459 -19.19016075 0.3634020984 0.8994213343 
18.31567574 -17.5965271 0.3483224511 0.9033863544 
18.35498238 -16.12692833 0.3350799382 0.9068827033 
18.39147758 -14.76251411 0.323425591 0.9099709392 
18.52044868 -13.5568409 0.3147662282 0.9122723341 
19.64294434 -13.07759285 0.3236265481 0.9099176526 
21.94065857 -13.23792458 0.3514227271 0.9025698304 
25.92350578 -14.10764599 0.4047524929 0.8886377811 
29.09147072 -14.19237804 0.4439083636 0.8785457611 
32.94647217 -14.29549313 0.4925309718 0.8661732078 
63.47318268 -21.06175232 0.9171435237 0.7652670145 
105.7322998 8.487253189 1.454687476 0.6542083025 
89.05606079 27.80123901 1.279451609 0.6885181069 
89.87527466 32.51080322 1.310720205 0.6822667122 
75.26234436 31.07662201 1.11668241 0.7219970226 
71.91439056 50.70005417 1.206697702 0.7032859921 
71.0587616 54.98706818 1.232204199 0.6980729699 
33.10756302 111.2535324 1.591786742 0.6285469532 
-0.4881201088 21.93313408 0.3008657694 0.9159783721 
-0.718349576 10.74582005 0.1476974487 0.9578316212 
-1.045019507 9.354799271 0.1290908754 0.9630446434 
-1.89680171 9.345463753 0.1307775825 0.9625707865 
-2.774008751 9.321679115 0.133378908 0.9618407488 
-10.25566387 25.8088665 0.3808660805 0.8948511481 
-9.53659153 18.90340233 0.2903651297 0.9187888503 
-10.44837856 18.60350609 0.292614907 0.9181860685 
-9.753432274 15.68805122 0.2533380091 0.9287662506 
-10.5347414 15.37455082 0.2555969059 0.9281544089 
-9.798441887 13.0177393 0.2234475613 0.9368994832 
-10.14378357 12.29727554 0.2186184675 0.9382203221 
-10.63091755 11.77863789 0.2175977975 0.9384996295 
-10.65708923 10.8002634 0.2080837935 0.9411077499 
-10.39005852 9.632343292 0.194304198 0.9448984861 
-12.52135181 9.68934536 0.2171282917 0.9386281371 
-20.01911545 11.59765625 0.3172883391 0.9116014838 
-54.14057922 22.35518074 0.8032979965 0.7911090255 
-55.60750198 20.11499405 0.8109676838 0.7893404961 
-101.436348 17.31781769 1.411235929 0.6625528932 
-109.1741409 13.67323685 1.508923292 0.6439400911 
-108.0658569 -20.43541527 1.508292198 0.6440585256 
-70.00157928 -16.49326706 0.9862960577 0.7499862313 
-59.95864487 -16.97490692 0.8545980453 0.7793583274 
-60.97361755 -20.23232841 0.8810311556 0.7733719945 
-55.61899948 -21.24604034 0.8165206909 0.7880627513 
-56.35271835 -24.45146942 0.8424364924 0.7821267247 
-55.03165436 -26.84739685 0.8397314548 0.7827452421 
-59.49431992 -35.89599991 0.9529177547 0.7573239803 
-55.14821625 -36.71578598 0.9085909724 0.7671796083 
-56.92463303 -45.69279861 1.001057744 0.7467634678 
-65.74053192 -57.76100922 1.200129628 0.7046342492 
-47.77933121 -45.90331268 0.9086557031 0.7671656013 
-54.50242615 -57.23786545 1.083907485 0.7289327979 
-55.72997284 -64.0014267 1.163843989 0.7121329904 
-9.537919998 -15.96840286 0.2550828457 0.9282936454 
-7.725863934 -16.01684952 0.243875429 0.9313334227 
-4.232670784 -12.94829082 0.18682082 0.9469629526 
-3.608305693 -12.96498966 0.1845608503 0.9475874901 
-3.151044846 -13.64575195 0.1920637488 0.9455158114 
-2.520659208 -13.66261673 0.1905326843 0.9459382296 
-1.899018526 -13.67924786 0.1893975735 0.946251452 
-1.283530235 -13.69570255 0.188647151 0.9464586377 
-0.06107421592 -13.72839355 0.1882745326 0.9465615749 
1.166264653 -13.7612257 0.1893994063 0.9462509751 
1.787919879 -13.77785587 0.1905352771 0.9459375143 
2.418325186 -13.7947216 0.1920671016 0.9455148578 
3.060239077 -13.81188488 0.1940112263 0.9449788928 
4.390561581 -13.84746552 0.1992228627 0.9435434341 
6.555439472 -13.90538025 0.2108285427 0.940354526 
7.766376972 -13.26922321 0.2108544856 0.9403477311 
9.23272419 -14.27727032 0.2331735194 0.9342452884 
9.780556679 -12.52360821 0.2179208398 0.9384112954 
10.73245621 -12.5490675 0.2264553756 0.936078012 
18.26407433 -19.52568817 0.3666641116 0.898565948 
18.34736061 -16.4119091 0.3375943005 0.9062178135 
19.22647667 -13.04881096 0.3186663687 0.9112352133 
21.44952583 -13.20345402 0.3454249501 0.9041502476 
25.35540009 -14.092453 0.3978253007 0.8904352188 
92.37507629 -18.32097054 1.291516662 0.6860992908 
64.34714508 7.478137016 0.8884045482 0.7717108727 
74.94574738 15.55876923 1.049729586 0.7362366319 
89.00939178 31.30447388 1.293976665 0.6856069565 
71.70677948 32.64209366 1.080490351 0.7296596766 
70.97653961 36.20436096 1.092697978 0.72706604 
70.47894287 39.9972496 1.111372709 0.7231199741 
29.93424797 20.70758057 0.4991752505 0.8644961715 
14.87075138 89.50335693 1.244300246 0.6956174374 
-0.3578515649 26.80361176 0.3676200807 0.8983153701 
-0.9640282989 9.386288643 0.1294018477 0.9629573226 
-1.380239248 9.331645012 0.1293675154 0.9629669189 
-9.914901733 22.5748291 0.3381379545 0.9060742259 
-10.52709484 15.66040039 0.2587817311 0.9272925854 
-9.637172699 13.04341793 0.2224081308 0.9371837378 
-9.957133293 12.29227543 0.2169464082 0.9386783242 
-10.20095634 9.627280235 0.1923629791 0.9454337358 
-13.52443314 9.716176987 0.2283805758 0.9355531931 
-19.09121513 12.46656704 0.3126963675 0.9128233194 
-20.01281738 11.83316422 0.3188452125 0.9111875296 
-20.04372597 10.67782211 0.3114538491 0.9131541848 
-23.40904808 9.910531998 0.3486193717 0.9033080935 
-53.60003281 19.92988777 0.7842459083 0.7955171466 
-65.72425842 17.97694778 0.9344583154 0.7614129186 
-67.92420959 15.36699677 0.9550619125 0.7568505406 
-95.83106995 12.86949635 1.326034188 0.6792256832 
-61.53958511 -19.81409645 0.8866283894 0.7721107006 
-58.24304199 -21.65658569 0.852180779 0.7799078226 
-56.44942856 -23.89889145 0.840675652 0.7825298309 
-26.05051231 -12.42313004 0.395804882 0.8909603953 
-59.47480011 -35.16627502 0.94755584 0.7585093379 
-55.37767029 -39.78422165 0.9351272583 0.7612649798 
-55.48317719 -43.72940826 0.9688241482 0.7538178563 
-48.58769989 -45.8552475 0.9162276983 0.7654725313 
-56.34212112 -63.55318832 1.164767742 0.7119412422 
-54.78790283 -67.63681793 1.193715811 0.7059547901 
-7.899990082 -16.01220703 0.2448649555 0.9310645461 
-6.21574688 -16.05724525 0.2361337245 0.9334388971 
-4.359414101 -12.9448967 0.187324211 0.9468239546 
-2.645976543 -13.65926266 0.1908068806 0.9458625913 
-2.022792816 -13.67592716 0.1895935088 0.9461973906 
-1.406284094 -13.69242668 0.1887670904 0.9464255571 
-0.793915987 -13.70879364 0.188318789 0.9465492964 
-0.1832421869 -13.72513676 0.1882446259 0.9465697408 
0.4281640649 -13.74148941 0.1885436922 0.9464872479 
1.042734385 -13.75791931 0.1892187446 0.9463008642 
1.662949204 -13.77452087 0.1902767867 0.9460088015 
2.291391611 -13.79132271 0.1917283535 0.9456083775 
4.254228592 -13.84382248 0.1986178607 0.9437099695 
4.94481945 -13.8622942 0.2018418908 0.9428228736 
5.659638405 -13.8814106 0.2055857778 0.9417937398 
6.40297842 -13.90130329 0.2098947167 0.9406107068 
7.179721355 -13.92206955 0.2148228437 0.9392595887 
7.606156826 -13.26494122 0.2096983343 0.9406638145 
8.42548275 -13.28686523 0.2157693505 0.9390015006 
8.726391792 -12.49541473 0.2090158015 0.940852046 
9.598588943 -12.5187397 0.2163406312 0.9388439059 
18.25492859 -19.86749458 0.3700161576 0.8976876736 
18.2990551 -18.21783638 0.3541174233 0.9018605947 
20.9752655 -13.17026138 0.3396609426 0.9056717157 
24.80663109 -14.07777596 0.3911651671 0.892166853 
63.43974304 -22.31170273 0.9222579598 0.7641273141 
69.33094788 -20.96810532 0.9933437705 0.7484457493 
66.71200562 -16.97691917 0.94405514 0.7592843175 
110.6748047 -17.88273811 1.537491083 0.6385961175 
105.3984756 11.29903316 1.453727126 0.6543915272 
87.96495056 30.06042099 1.27485466 0.6894419193 
72.11170197 32.05501938 1.082252741 0.7292848825 
70.93829346 35.39266205 1.087215543 0.7282296419 
70.84368896 39.37472534 1.111543536 0.7230818272 
71.17355347 43.81155014 1.146184683 0.7158105373 
71.24584961 53.13178253 1.218854904 0.7007964849 
24.02271843 89.38864136 1.269391775 0.6905435324 
24.73505402 111.6375351 1.568106294 0.6329126954 
-0.1532665938 34.45262527 0.4724914432 0.8712512851 
-9.758720398 25.89183998 0.3794668615 0.8952164054 
-9.697890282 16.23619652 0.2593609691 0.9271359444 
-9.773300171 12.28736305 0.2153152376 0.9391249418 
-10.9811182 9.648144722 0.2004676759 0.9432013035 
-20.03211403 13.33669376 0.3300364614 0.9082174301 
-20.03765488 10.90454102 0.3128549159 0.9127811193 
-59.23585129 16.77023888 0.8442950249 0.781703949 
-86.17050934 16.29496574 1.202695251 0.7041078806 
-98.95845795 -21.46439934 1.388683796 0.6669259071 
-63.6782341 -16.80978966 0.9032034278 0.7683859468 
-60.7016716 -18.9496727 0.8720870614 0.7753917575 
-58.54013062 -21.17586327 0.8537353277 0.7795541883 
-54.77600861 -22.61759186 0.8127227426 0.788936317 
-56.06486511 -39.52606964 0.9407494664 0.760016799 
-55.46146011 -42.9175148 0.9617361426 0.7553780079 
-49.17759323 -45.59158707 0.9196658134 0.7647053003 
-53.32456589 -59.08204269 1.091473103 0.7273259163 
-53.28015137 -64.59194946 1.148298979 0.7153696418 
-8.976830482 -15.98340321 0.2514033318 0.9292905331 
-8.075624466 -16.00750923 0.2458825558 0.930788219 
-7.211484432 -16.03062057 0.241066277 0.9320967793 
-6.378930569 -16.05288124 0.2368951291 0.9332315922 
-3.856240034 -12.958354 0.1854142696 0.9473516345 
-2.771665096 -13.65589809 0.1910969466 0.9457825422 
-2.146840811 -13.67262173 0.1898049861 0.9461390376 
0.9194872975 -13.7546339 0.1890533417 0.9463464618 
1.538364172 -13.77118587 0.1900341809 0.9460757971 
2.801923752 -13.80497551 0.1931829751 0.9452071786 
4.804868221 -13.85854912 0.2011566162 0.9430113435 
6.251772404 -13.89725113 0.208985135 0.9408603311 
8.558867455 -12.49093246 0.2076580822 0.9412246943 
11.34096146 -12.56534195 0.2321316451 0.9345293641 
18.29053497 -18.53627396 0.3571298122 0.901068449 
18.36989021 -15.56953049 0.3302401602 0.9081638455 
20.51623917 -13.13823986 0.334109962 0.9071395397 
24.27563477 -14.06356907 0.3847506642 0.8938376904 
27.12147903 -14.13969231 0.4194595218 0.8848336339 
63.42287827 -22.94214249 0.9249459505 0.763528645 
66.40660858 -17.53003883 0.9419066906 0.759760797 
80.22024536 -17.39964294 1.125729322 0.7200943232 
105.9547043 10.40555668 1.460063696 0.6531831026 
74.6687851 14.11964321 1.042163014 0.7378632426 
89.28787231 29.62759781 1.290155649 0.6863719225 
73.32139587 48.81485367 1.208001733 0.7030185461 
68.71374512 94.75279236 1.605174184 0.6261117458 
15.51478958 111.754097 1.547312856 0.6367704272 
0.2144335955 48.2004776 0.6610326767 0.8246287704 
-1.204243183 9.279686928 0.1283300817 0.9632584453 
-1.637123942 9.33852005 0.1300222725 0.9627829194 
-2.071713924 9.350141525 0.131338343 0.9624133706 
-9.493783951 25.88475609 0.3781095743 0.8955709338 
-10.3582859 21.9719429 0.3331314027 0.9073982835 
-9.968734741 18.91496468 0.293222636 0.9180233479 
-6.071879864 10.37419891 0.1648499966 0.9530514479 
-10.15194798 15.69871044 0.2563879192 0.9279402494 
-10.54948711 14.82321262 0.2495133877 0.9298029542 
-10.17432117 13.02779293 0.2266937196 0.9360128045 
-10.5257473 12.30747986 0.2220961004 0.9372693896 
-10.64166451 11.37676239 0.2136387527 0.9395839572 
-9.833798409 9.617465973 0.1886370778 0.9464614391 
-10.77994156 9.642763138 0.1983555555 0.9437829852 
-19.56581497 13.27898407 0.3242890835 0.9097417593 
-22.332201 9.926967621 0.3351654112 0.9068613052 
-55.97998428 19.12985802 0.8113046288 0.78926301 
-26.25390053 7.685830116 0.3751614392 0.8963418007 
-69.71709442 17.08239746 0.9843905568 0.7504032254 
-47.33222198 9.387709618 0.6617636085 0.8244531155 
-96.48525238 14.70992661 1.338498473 0.6767608523 
-107.9716187 -17.44643021 1.499939799 0.6456295252 
-48.16104889 -12.25627422 0.6815392971 0.8197112679 
-60.07771683 -21.12953568 0.8733840585 0.7750991583 
-54.75571823 -22.04078484 0.8094784617 0.7896832228 
-55.06481934 -28.08765984 0.8477318883 0.7809205651 
-58.64874268 -36.82531738 0.9497228861 0.7580299973 
-56.86362839 -39.3365097 0.9482415318 0.7583575249 
-53.57402802 -58.30698776 1.085917354 0.7285054922 
-8.252670288 -16.00277328 0.2469280958 0.9305043817 
-3.981049776 -12.95501423 0.1858659387 0.9472268224 
-3.362578154 -12.97155762 0.1837733388 0.9478052258 
-2.897685528 -13.6525383 0.1914030463 0.9456980824 
-2.271171808 -13.66929626 0.1900318861 0.9460763931 
-1.038574219 -13.70225525 0.1884530634 0.9465122223 
0.1834277362 -13.73493576 0.1883790493 0.9465326667 
0.7963769436 -13.75133228 0.1889031976 0.9463879466 
2.038867235 -13.78456974 0.1910995394 0.9457817674 
2.673598528 -13.80154228 0.1927944869 0.9453143477 
3.320859194 -13.81885719 0.194908753 0.9447315335 
7.452685356 -13.55074692 0.2120880038 0.9400091171 
8.092133522 -13.27793884 0.2132461518 0.9396913648 
9.603920937 -14.28718758 0.2360899299 0.9334509969 
9.242480278 -12.50921345 0.2132992446 0.9396771789 
18.2818718 -18.86021042 0.3602229357 0.9002558589 
18.39847374 -14.50087357 0.3212669194 0.9105440974 
20.07256126 -13.10738277 0.3287704289 0.9085534215 
23.76197052 -14.04983139 0.3785757422 0.8954491019 
26.51151085 -14.12337589 0.4119549394 0.8867727518 
29.80065346 -14.21135235 0.4527816772 0.8762748241 
33.8213501 -14.31889153 0.5036854148 0.8633595109 
63.40592575 -23.5760498 0.9277200103 0.7629107833 
69.38417816 -18.97795296 0.9864938259 0.7499428391 
76.46311188 -17.29914474 1.075124741 0.7308026552 
99.60218811 -17.91812897 1.387881398 0.6670819521 
106.1736679 9.474116325 1.461861849 0.6528406143 
113.7933044 31.12472534 1.617893696 0.6237928271 
89.15576935 28.70576668 1.284504652 0.6875040531 
90.08771515 33.4969902 1.318113685 0.6807971001 
73.51377106 31.12338638 1.094805837 0.7266191244 
72.18865204 47.1391983 1.182384014 0.7082919478 
71.25121307 51.18757629 1.203164697 0.7040112019 
77.14032745 87.01325989 1.594732642 0.6280225515 
33.51457596 99.51847076 1.440119267 0.6569939256 
14.79819775 100.0490799 1.387017488 0.6672514677 
5.196044922 89.7220459 1.232520461 0.6980089545 
-1.551235318 9.336220741 0.1297930926 0.962847352 
-2.413935423 9.312046051 0.1319274902 0.9622480869 
-2.865278244 9.324120522 0.1337731928 0.9617301226 
-9.428798676 26.43265152 0.3848718107 0.8938060403 
-9.463911057 23.21244621 0.3437789977 0.9045843482 
-9.751493454 18.90914917 0.2917742729 0.9184111953 
-10.45813942 18.23870659 0.2883300781 0.9193344712 
-9.95159626 15.69334888 0.2548443675 0.9283581972 
-10.33326626 12.3023386 0.2203321755 0.9377508163 
-9.715551376 9.672430992 0.1880122274 0.946633935 
-10.58303642 9.637504578 0.1963008046 0.9443483353 
-12.76281261 9.69580555 0.2198101729 0.9378941655 
-19.20902824 9.798202515 0.2957260013 0.9173531532 
-56.11453629 16.97094154 0.8039852977 0.7909497619 
-68.51398468 17.43521881 0.9695553184 0.753657639 
-69.37553406 -16.99866676 0.9795693755 0.7514596581 
-59.97422409 -17.55744553 0.8570132256 0.7788093686 
-54.74046326 -21.47070694 0.8063970804 0.7903934121 
-55.09309769 -24.48961449 0.8268328905 0.7856953144 
-55.18835449 -30.67385101 0.8659060597 0.7767916322 
-55.16762924 -37.4420166 0.9143685699 0.7658877969 
-55.41897964 -41.32884979 0.9480935335 0.758390367 
-49.6035881 -44.37096024 0.9127138853 0.7662575841 
-56.21506119 -54.97841263 1.078346848 0.7301161289 
-42.71657562 -49.94744492 0.901325345 0.768807292 
-42.95907593 -60.36225891 1.016054988 0.7435038686 
-9.349038124 -15.97344685 0.2538241446 0.928634584 
-7.553046703 -16.02147865 0.2429125905 0.9315950274 
-5.892514706 -16.06588364 0.2346813977 0.9338344932 
-3.485151291 -12.96828079 0.1841581613 0.9476985931 
-1.775488257 -13.68255329 0.1892169118 0.9463012815 
-1.160991192 -13.69897938 0.1885427833 0.9464874864 
-0.5495312214 -13.71533203 0.1882444769 0.94656986 
0.6735156178 -13.74805164 0.1887683123 0.9464251995 
1.289985299 -13.76453114 0.1895953268 0.9461969137 
3.84982419 -13.83300781 0.1969172657 0.9441782236 
4.527797699 -13.85113716 0.1998474151 0.9433715343 
5.953280926 -13.88925743 0.2072386146 0.9413397908 
6.709423542 -13.90949631 0.2117884755 0.9400912523 
7.445287704 -13.82723141 0.2153701782 0.9391096234 
7.928373814 -13.27355957 0.2120361328 0.9400235415 
9.417167664 -14.28220177 0.2346134931 0.9338530302 
18.31568146 -17.59639168 0.3483210802 0.9033866525 
18.39147758 -14.76251411 0.323425591 0.9099709392 
19.64294434 -13.07759285 0.3236265481 0.9099176526 
25.92350578 -14.10764599 0.4047524929 0.8886377811 
63.47318268 -21.06175232 0.9171435237 0.7652670145 
73.03231812 -17.20736694 1.028997421 0.7407022715 
113.8719711 30.05994987 1.615149498 0.6242930293 
89.05602264 27.8008213 1.279450059 0.6885185242 
89.87527466 32.51080322 1.310720205 0.6822667122 
71.30291748 33.22763062 1.078819275 0.7300154567 
70.74812317 45.30585861 1.15213716 0.7145678997 
71.91439056 50.70005417 1.206697702 0.7032859921 
39.98807907 88.8915863 1.33680141 0.6771082878 
39.96711349 100.5790787 1.484262347 0.6485884786 
33.10756302 111.2535324 1.591786742 0.6285469532 
14.25638676 90.79714966 1.260456204 0.6923436522 
-0.4881201088 21.93313408 0.3008657694 0.9159783721 
-0.7183398008 10.7463131 0.1477058381 0.9578297734 
-1.465556622 9.333925247 0.129574582 0.9629086852 
-1.89680171 9.345463753 0.1307775825 0.9625707865 
-2.774008751 9.321679115 0.133378908 0.9618407488 
-10.09697723 29.12203026 0.4227055311 0.883996129 
-10.25566387 25.8088665 0.3808660805 0.8948511481 
-9.53659153 18.90340233 0.2903651297 0.9187888503 
-10.44838333 18.60333061 0.2926129103 0.918186605 
-10.14378357 12.29727554 0.2186184675 0.9382203221 
-10.63091278 11.77873993 0.2175987214 0.9384993315 
-10.65708923 10.8002634 0.2080837935 0.9411077499 
-10.38996601 9.632343292 0.1943032742 0.9448987246 
-12.52124023 9.68934536 0.2171269208 0.9386284351 
-13.79182053 9.723329544 0.2314234823 0.934722662 
-19.483778 12.47706509 0.3172952235 0.9115995765 
-20.01911545 11.59765625 0.3172883391 0.9116014838 
-20.04973984 10.45286083 0.3100884855 0.913517952 
-54.14050293 22.35486794 0.8032940626 0.7911096215 
-67.74663544 17.88381386 0.96091187 0.7555601597 
-84.47962952 18.32349014 1.185499549 0.7076480985 
-109.1741409 13.67323685 1.508923292 0.6439400911 
-108.0658569 -20.43586349 1.508292556 0.6440583467 
-59.95864487 -16.97520065 0.854598701 0.779358089 
-55.03165436 -26.84766006 0.839732945 0.7827448845 
-56.30954361 -30.64385223 0.8791806102 0.7737895846 
-55.39818573 -40.55141068 0.9415295124 0.7598441243 
-56.92508316 -45.69278717 1.00105834 0.7467624545 
-47.77987671 -45.90346146 0.908660233 0.7671641111 
-54.50242615 -57.23786545 1.083907485 0.7289327979 
-55.73030472 -64.00121307 1.163845539 0.7121328115 
-6.053593636 -16.06157112 0.235395804 0.933639884 
-4.232670784 -12.94829082 0.18682082 0.9469629526 
-3.60825181 -12.96498966 0.1845607013 0.9475875497 
-0.6717578173 -13.71206474 0.1882742196 0.9465616345 
1.166264653 -13.7612257 0.1893994063 0.9462509751 
1.78797853 -13.77785587 0.1905352771 0.9459375143 
3.716586828 -13.82944298 0.1963879317 0.9443240166 
4.390625 -13.84747028 0.1992230117 0.9435433745 
5.085678577 -13.86605453 0.2025476098 0.9426288605 
5.805902958 -13.88532162 0.2064010501 0.9415698647 
8.8960495 -12.49994564 0.2104072571 0.9404702783 
10.73236275 -12.5490675 0.2264543176 0.9360782504 
18.26407433 -19.52568817 0.3666641116 0.898565948 
18.30743408 -17.90470123 0.3511826992 0.9026328921 
18.38438225 -15.02770996 0.3256390393 0.909383595 
19.22666931 -13.0488205 0.3186680675 0.9112346172 
21.44952583 -13.20345402 0.3454249501 0.9041502476 
32.10949326 -14.27310562 0.4818981886 0.8688639402 
63.37168503 -24.8561573 0.9335464239 0.7616153359 
63.45651245 -21.68484879 0.9196590781 0.7647067904 
69.88356781 -17.12314415 0.9867401123 0.7498888969 
92.37505341 -18.32137108 1.291517258 0.686099112 
89.00939178 31.30491638 1.293979168 0.6856065392 
77.08242798 31.02793884 1.139544964 0.7171982527 
70.97651672 36.20394135 1.092695236 0.7270666361 
29.93424797 20.70758057 0.4991752505 0.8644961715 
71.00975037 53.94544983 1.222979069 0.6999540329 
68.19129944 88.93765259 1.536955476 0.6386957765 
45.19402695 87.63584137 1.352251887 0.674051404 
23.61807632 91.10947418 1.290783405 0.6862459779 
-1.380239248 9.331645012 0.1293675154 0.9629669189 
-1.809936523 9.343139648 0.1305145174 0.9626446962 
-2.236669779 9.307304382 0.131275326 0.9624311328 
-2.68326664 9.319252968 0.1329971254 0.9619477987 
-9.804706573 29.11421776 0.4213088751 0.8843565583 
-9.914785385 22.57482338 0.3381362855 0.9060744047 
-9.818588257 19.90073204 0.3043295145 0.915053606 
-10.40940857 18.92674828 0.2962301672 0.9172183275 
-10.52709484 15.66054153 0.258783251 0.9272921681 
-9.637172699 13.04341793 0.2224081308 0.9371837378 
-9.957040787 12.29227543 0.2169435024 0.9386785626 
-10.62539482 11.9852972 0.2196594179 0.9379352927 
-11.18664074 9.653652191 0.2026412934 0.9426029921 
-12.34856892 9.732602119 0.2156239301 0.939039588 
-20.04372597 10.67782211 0.3114538491 0.9131541848 
-54.99082565 17.70553207 0.7922775149 0.7936558723 
-65.72425842 17.97694778 0.9344583154 0.7614129186 
-67.92410278 15.36728001 0.9550613165 0.7568507195 
-95.83084106 12.86984825 1.326031208 0.6792262197 
-112.1725922 -15.06412601 0.5173568726 0.6358941793 
-58.02427292 -21.57510185 0.282977283 0.7806527019 
-26.05052185 -12.42307568 0.1319282502 0.890969038 
-55.67401886 -43.87978745 0.3240426481 0.7531033754 
-66.90867615 -57.7401886 0.4039863348 0.7022144794 
-52.18584442 -53.83720016 0.3427386284 0.7408789992 
-52.82971191 -65.21951294 0.3836633265 0.7148153186 
-7.042612076 -16.03513145 0.08005615324 0.9323426485 
-6.215776443 -16.05724144 0.07870696485 0.9334442616 
-3.731967688 -12.96168423 0.06165618822 0.947476089 
-3.278447151 -13.64235306 0.06413604319 0.9454222918 
-1.406284094 -13.69242668 0.06291884929 0.9464299083 
-0.7939110994 -13.70879841 0.06276946515 0.9465536475 
0.4281738102 -13.74149418 0.06284454465 0.9464915395 
1.662963867 -13.77451134 0.06342208385 0.9460132718 
2.291406155 -13.79131317 0.06390594691 0.9456127882 
2.930795908 -13.80842781 0.06452605873 0.9450998306 
3.584008694 -13.82588863 0.06528869271 0.9444693327 
4.254199028 -13.84381294 0.0662022382 0.9437145591 
5.659604549 -13.88141537 0.06852462888 0.9417985082 
6.402954102 -13.90129852 0.06996078044 0.9406155944 
7.17970705 -13.92206955 0.07160339504 0.9392645359 
8.425468445 -13.28686047 0.07191650569 0.9390065074 
9.984814644 -14.29737759 0.07971526682 0.9326214194 
10.98280716 -14.32407665 0.08250884712 0.930344224 
11.48925304 -13.6785984 0.08165664226 0.9310381413 
18.25492859 -19.86746597 0.1233319044 0.8976958394 
18.2990551 -18.21780777 0.11803253 0.9018684626 
18.37718391 -15.29681587 0.1092976332 0.9087882638 
27.75336647 -14.15659142 0.142414853 0.8828297853 
64.98131561 -22.85391998 0.314869225 0.7591658235 
69.33093262 -20.96818352 0.3310967982 0.7484638691 
78.9780426 30.97724342 0.3877944946 0.7122352719 
70.93828583 35.39257812 0.3623818755 0.728249073 
72.54073334 49.23262024 0.4007487297 0.7042068243 
41.64509201 88.3371582 0.4464224279 0.6766169071 
28.11731911 88.67947388 0.425253123 0.6892680526 
15.7094183 70.90184021 0.3319604397 0.747898221 
11.56125927 89.09255981 0.4106669426 0.6981216073 
-0.1533105373 34.4510498 0.1574810743 0.8712668419 
-0.6951904297 14.19124031 0.06494750828 0.9447512627 
-0.8826464415 9.417929649 0.0432391353 0.9628697038 
-2.592973471 9.316835403 0.04420699924 0.9620545506 
-9.758695602 25.89183998 0.1264817715 0.89522475 
-9.673339844 22.56836319 0.1122395322 0.9064517617 
-9.697890282 16.23619652 0.08644866943 0.9271418452 
-10.35476017 15.70414066 0.0859855637 0.9275176525 
-9.773310661 12.28736305 0.07176757604 0.9391298294 
-10.61975574 12.19590282 0.07392212003 0.9373608828 
-10.98106956 9.648154259 0.06681960821 0.9432060122 
-12.34386158 9.908246994 0.07235427946 0.938647747 
-13.26404762 9.709213257 0.07514022291 0.9363628626 
-20.0320549 13.336689 0.1100013703 0.9082249403 
-20.00646019 12.07095718 0.1068081632 0.9107701778 
-20.2331295 9.870829582 0.1029074043 0.9138846397 
-55.60073471 21.239048 0.2720710635 0.7881401181 
-56.31009293 18.6848278 0.2712008655 0.788739562 
-66.77062225 18.90349007 0.317212671 0.7576129436 
-71.96520233 16.95591354 0.3379692137 0.7439763546 
-118.7404251 -14.871665 0.5470164418 0.6196023226 
-106.454567 -23.0902195 0.4979308844 0.6467959881 
-65.30608368 -17.23942757 0.3087480068 0.7632454634 
-57.13608932 -23.59209442 0.282561332 0.7809349298 
-56.06480789 -39.52612686 0.3135656714 0.7600343227 
-56.26835251 -43.54198456 0.3252252042 0.7523189783 
-73.52328491 -68.16164398 0.4582906961 0.6696255803 
-52.65746307 -53.36515045 0.3426997364 0.7409018874 
-52.38906479 -58.04527664 0.3574206531 0.7314194441 
-53.72766876 -65.13427734 0.3859591484 0.713380456 
-9.921361923 -15.95815372 0.08589523286 0.927591145 
-8.075639725 -16.00749969 0.08195632696 0.9307937622 
-7.211484432 -16.03062057 0.08035095036 0.932102263 
-6.378930569 -16.05288124 0.07896072417 0.9332369566 
-3.375585794 -13.51593208 0.06367843598 0.9457992911 
-0.9161767364 -13.70552731 0.06278945506 0.9465371966 
-0.3053515553 -13.72187424 0.06273971498 0.9465782046 
2.164936543 -13.78794384 0.06379852444 0.9457017183 
2.801904202 -13.80497074 0.06439086795 0.9452117085 
4.804868221 -13.85854912 0.06704849005 0.9430159926 
5.514511585 -13.87752438 0.06826034188 0.9420162439 
6.25178194 -13.89726067 0.06965789944 0.9408650994 
7.02141571 -13.91783619 0.07125747204 0.9395489693 
8.257807732 -13.28237247 0.07149337977 0.9393556714 
11.4827776 -13.92059994 0.08248901367 0.9303611517 
12.08035851 -13.38462639 0.08241775632 0.9304183125 
18.29053497 -18.53636169 0.1190368608 0.9010760784 
18.33176422 -16.99494553 0.1142669618 0.9048449993 
18.36989021 -15.56958485 0.110074155 0.9081710577 
22.01288795 -14.09654713 0.119487606 0.9007211328 
24.27559853 -14.06356907 0.1282429546 0.8938461542 
27.12117577 -14.13968277 0.1398109347 0.8848436475 
81.42153168 -17.66048241 0.3808415234 0.716581881 
107.1475677 -18.29267502 0.4968701005 0.6473967433 
71.0936203 38.68946075 0.3699824512 0.7234233022 
73.32106018 48.8148613 0.4026438892 0.7030400038 
70.92490387 51.91666412 0.4017781019 0.7035705447 
71.15796661 57.11745834 0.417100668 0.6942046881 
76.30974579 87.63548279 0.531177938 0.6282499433 
37.90397263 88.43196869 0.4398004115 0.6805488467 
33.37355042 88.54683685 0.4325521886 0.6848788261 
16.36787605 70.88108826 0.3325320482 0.7475242019 
8.358285904 89.1832428 0.4094531238 0.6988633871 
4.374155045 89.29187012 0.4086526334 0.6993530989 
-1.204204082 9.279686928 0.04277282581 0.9632614851 
-2.071669817 9.350136757 0.0437765494 0.9624164701 
-2.503203154 9.314437866 0.04408797994 0.9621545672 
-9.433808327 22.56196213 0.1117858887 0.9068117738 
-9.968662262 18.91496086 0.09773513675 0.9180300236 
-6.071899414 10.37417412 0.05494674668 0.9530553222 
-10.1518898 15.69870567 0.08545776457 0.9279461503 
-10.54949188 14.82314873 0.08316619694 0.9298087955 
-10.52582455 12.30749035 0.07402679324 0.9372742176 
-10.77991199 9.642767906 0.06611541659 0.9437875748 
-12.33910656 10.08628368 0.07284957916 0.9382409453 
-13.01022434 9.70242691 0.07418868691 0.9371429682 
-19.56562042 13.27897453 0.108089596 0.9097495675 
-20.00003433 12.31118107 0.1073545814 0.9103348255 
-66.92481995 16.39836311 0.314971447 0.7591004968 
-95.97861481 14.63289547 0.4437982142 0.6781716943 
-112.2263031 12.03104973 0.5159388781 0.6366838217 
-106.427948 -22.09451675 0.4968669116 0.6473984718 
-48.16110611 -12.25612736 0.2271684259 0.8197247982 
-60.68573761 -18.35355949 0.2898118496 0.7759988308 
-60.0777092 -21.12932014 0.2911111414 0.7751159072 
-57.09407425 -39.4958725 0.3173500001 0.7575256228 
-18.0886364 -13.74187469 0.1038395688 0.9131392837 
-55.39954376 -46.11354065 0.3294866979 0.7495185733 
-48.3692894 -48.15448761 0.3119915724 0.7610821128 
-9.162065506 -15.97844696 0.08419463784 0.9289724827 
-7.381630898 -16.02606392 0.0806542933 0.9318549037 
-6.543139458 -16.04848671 0.07922241092 0.9330233335 
-3.362558603 -12.97155762 0.06125411764 0.9478094578 
-2.271127939 -13.6692915 0.06334045529 0.9460808039 
-1.038525343 -13.70226002 0.06281433254 0.9465165734 
-0.4274462759 -13.71859837 0.06273971498 0.9465782642 
2.673554659 -13.80153751 0.06426116824 0.9453188181 
3.983876944 -13.83659649 0.06581817567 0.9440318346 
5.370517254 -13.87367153 0.06800369173 0.9422279 
6.101899147 -13.89323235 0.06936309487 0.9411081076 
7.452690125 -13.55067825 0.07069152594 0.9400141835 
8.092119217 -13.27794933 0.0710772723 0.9396962523 
10.57531738 -14.31317806 0.08134872466 0.9312891364 
11.47617626 -14.16760254 0.08334014565 0.9296652675 
18.32378578 -17.29331589 0.1151721179 0.9041286707 
18.39847374 -14.50083923 0.1070829779 0.9105513096 
26.51158142 -14.12338066 0.137310788 0.8867813945 
29.80043411 -14.21134281 0.1509176642 0.8762851954 
33.82154846 -14.31889629 0.1678866595 0.8633694649 
69.38417816 -18.97803688 0.3288127184 0.7499608397 
79.81573486 -18.05734825 0.3740672171 0.7208422422 
100.7293472 -18.12102509 0.4678367376 0.664055407 
87.97770691 28.32624245 0.4224867225 0.6909378171 
87.83956909 32.66127014 0.4283828735 0.687382102 
70.65142059 33.69252396 0.3577989042 0.7311775088 
72.18848419 47.13898849 0.394104749 0.7083130479 
71.53491211 56.3806572 0.4163499475 0.6946592331 
77.15550995 87.03055573 0.5316509604 0.6279891133 
20.02082253 36.40241623 0.1899060011 0.8468930125 
38.82897949 88.40853119 0.4413845837 0.6796057224 
29.84968185 88.63556671 0.4275224209 0.6879003644 
25.55233383 88.74712372 0.4221536219 0.6911394596 
17.02874565 70.86026764 0.3331323266 0.7471317053 
13.82453537 71.36603546 0.3322869837 0.7476847768 
13.17159176 89.05173492 0.4114945829 0.6976162791 
1.19314456 89.37248993 0.408568114 0.6994048357 
-1.120043874 9.277436256 0.0427162163 0.9633104205 
-2.413915873 9.312046051 0.04397323355 0.9622511864 
-9.428734779 26.4326458 0.1282826215 0.8938145041 
-10.34522438 22.46022415 0.113035582 0.9058206677 
-9.751582146 18.90915489 0.09725280851 0.918417573 
-10.45812988 18.23875046 0.09610473365 0.9193407893 
-9.951489449 15.69335461 0.08494323492 0.9283641577 
-10.54220676 15.09549236 0.08416458219 0.928996861 
-9.985024452 13.02272892 0.07501251251 0.9364668131 
-10.33326626 12.3023386 0.07343994081 0.9377558827 
-10.636343 11.57590294 0.07186019421 0.9390537739 
-9.715551376 9.672426224 0.06262817234 0.9466382861 
-10.58294392 9.637504578 0.06543014199 0.9443531036 
-12.76277351 9.69580555 0.07326568663 0.9378992915 
-19.88840294 12.48789024 0.1073477119 0.9103403091 
-20.02535057 11.36444283 0.1052511558 0.9120119214 
-19.20891571 9.798197746 0.09856933355 0.917360127 
-21.72768593 9.890849113 0.1091305539 0.9089246392 
-57.358078 17.34703636 0.2739192247 0.7868654728 
-67.11652374 17.07987785 0.3165762126 0.7580350637 
-96.56661987 15.60311985 0.447141856 0.6761905551 
-60.06153488 -20.52479935 0.2901370227 0.7757775784 
-55.13917542 -21.62698746 0.2707415819 0.7890561223 
-55.84903717 -27.86432076 0.2853024304 0.7790660262 
-58.86137009 -36.23265076 0.3159512281 0.7584489584 
-55.16762924 -37.44166565 0.3047712743 0.7659054995 
-55.84399796 -41.64582443 0.3184368908 0.756801188 
-56.12251282 -45.87598038 0.3313464224 0.7483006716 
-54.44421387 -53.24633026 0.3481005728 0.7374058366 
-51.9280014 -55.51519775 0.3474778533 0.7378108501 
-45.61256409 -58.40526581 0.3387463391 0.743470192 
-41.92182159 -64.82720184 0.3528945744 0.7343220711 
-9.349081993 -15.97345638 0.08460327238 0.9286401868 
-7.553081036 -16.02148438 0.08096633852 0.9316004515 
-6.70846653 -16.0440712 0.07949218899 0.9328030944 
-3.485156059 -12.96827126 0.06138183549 0.9477028847 
-3.024179697 -13.64914989 0.06390503049 0.9456136227 
-1.160986304 -13.69898415 0.06284423918 0.9464918375 
1.290014625 -13.76454067 0.06319488585 0.9462012053 
1.913212895 -13.7812109 0.06359954923 0.9458662271 
2.545693398 -13.79811954 0.06413711607 0.9454213977 
3.190243959 -13.81535625 0.06481353939 0.9448621273 
5.953280926 -13.88925743 0.06907562166 0.9413445592 
6.709350586 -13.90949631 0.07059203833 0.9400961995 
7.445287704 -13.82723141 0.07178619504 0.9391145706 
9.417162895 -14.282197 0.07820037752 0.9338584542 
18.2730484 -19.19007301 0.1211270094 0.8994295597 
18.35498238 -16.12699699 0.111687161 0.9068899751 
18.52036285 -13.55683517 0.1049157679 0.9122796059 
22.65228462 -13.66736031 0.1209335327 0.89958179 
32.94649506 -14.29549313 0.1641679406 0.8661835194 
64.05062866 -24.46686554 0.3134166002 0.7601333261 
69.36650848 -19.63842773 0.3295449615 0.7494809031 
94.05567169 -17.78605843 0.4375593364 0.6818849444 
75.26232147 31.0766201 0.3722064197 0.7220167518 
71.30294037 33.22759628 0.3595861793 0.7300346494 
71.01515198 37.02391052 0.3660859466 0.7258940339 
71.91428375 50.70019913 0.4022100866 0.703306675 
71.50691986 55.33411026 0.4133001566 0.6965129375 
20.02959251 35.66303635 0.186971426 0.8490707278 
39.76059341 88.38491821 0.4430166483 0.6786363125 
17.6920948 70.83933258 0.3337616026 0.7467207909 
13.97930622 89.03126526 0.4119572341 0.6973330975 
5.965639591 89.24386597 0.4088546634 0.6992297769 
-0.7183446884 10.74606419 0.04923034459 0.9578341246 
-1.04499507 9.354804039 0.04302779958 0.9630476832 
-2.325087786 9.309672356 0.04386276007 0.962344408 
-2.774008751 9.321679115 0.04445739463 0.9618439078 
-10.15836906 22.58133316 0.1131849661 0.9057017565 
-10.44837856 18.60350037 0.09753295779 0.918192625 
-9.753480911 15.68805122 0.08444122225 0.9287719131 
-9.798480988 13.0177393 0.07447845489 0.9369045496 
-10.65708447 10.80030727 0.06935760379 0.9411124587 
-12.52134705 9.689340591 0.07237213105 0.9386331439 
-21.72148895 10.12234306 0.1095433012 0.9085930586 
-56.57440948 23.36011124 0.2797871232 0.7828356028 
-54.7306366 19.79781723 0.2660452127 0.7923058271 
-80.12491608 17.37913513 0.3747763038 0.7203950286 
-101.4264603 17.31593132 0.4703396559 0.662602365 
-96.0636673 12.03141117 0.4425491095 0.6789140105 
-106.1791611 -15.22255325 0.4903195202 0.6511183977 
-106.3750153 -20.11568832 0.4948696792 0.6485309005 
-70.0015564 -16.4932766 0.3287469447 0.7500042915 
-60.13840103 -17.0258255 0.2857040465 0.7787923813 
-60.03270721 -19.92011261 0.2891277969 0.7764615417 
-56.05544281 -21.41275787 0.2742935121 0.7866070271 
-56.34846878 -24.44961357 0.2807768285 0.7821573019 
-55.83229828 -27.23812866 0.2839672863 0.7799767256 
-56.30927277 -30.64385223 0.2930419743 0.77380687 
-55.30374527 -36.81947708 0.3037013113 0.7666231394 
-56.20417404 -41.14121628 0.3183904886 0.756831944 
-56.92482758 -45.69278717 0.3336682022 0.74678123 
-65.9716568 -63.38109589 0.4181869328 0.6935430169 
-51.9857254 -54.59459305 0.3446000516 0.7396722436 
-54.88225937 -63.02789307 0.3820263445 0.7158399224 
-42.42337418 -64.33982086 0.3522828519 0.7347154021 
-9.537919998 -15.96840286 0.08502288908 0.9282993674 
-7.725863934 -16.01684952 0.08128738403 0.9313389659 
-6.874975204 -16.03961372 0.07977019995 0.9325762391 
-6.053627968 -16.06157684 0.07846099883 0.9336451888 
-3.608281136 -12.96498489 0.06151717901 0.9475917816 
-1.899047852 -13.67923832 0.06312911958 0.9462558627 
-1.283559561 -13.69570732 0.06287887692 0.9464629292 
-0.6717236042 -13.71207523 0.06275451183 0.9465659261 
0.5507665873 -13.74477005 0.06287933141 0.9464626312 
1.166264653 -13.7612257 0.06312957406 0.9462553859 
1.787919879 -13.77785587 0.06350830197 0.945941925 
4.390561581 -13.84746552 0.06640396267 0.9435480237 
5.085673809 -13.86607361 0.06751205027 0.94263345 
5.805869102 -13.88532162 0.0687963888 0.9415746331 
6.555473328 -13.90538025 0.07027237117 0.9403592944 
7.339545727 -13.92634201 0.07195877284 0.9389727116 
7.766332626 -13.26922798 0.07028137147 0.9403526187 
10.17899895 -14.3025732 0.08024627715 0.9321882725 
11.4956007 -13.44144058 0.08084762096 0.9316968918 
18.34736061 -16.4119091 0.112525329 0.9062252641 
18.41893196 -13.73599052 0.1050295979 0.912188828 
21.52077293 -14.6059227 0.1188909858 0.9011912942 
22.18275261 -13.65480709 0.119071044 0.9010491967 
25.35539055 -14.092453 0.1326008588 0.8904438615 
32.10930252 -14.27310562 0.160622865 0.8688747287 
64.03327179 -25.11547852 0.3144129813 0.75947088 
92.37505341 -18.3211956 0.4304817021 0.6861208081 
90.1023941 27.25009918 0.4302911162 0.686234653 
87.02163696 30.60558128 0.4216709733 0.6914316416 
77.08200836 31.02795029 0.3798257411 0.7172192931 
71.70668793 32.64221954 0.3601431251 0.7296789885 
29.9334774 20.70697021 0.1663780212 0.864510119 
71.46881104 54.29442596 0.4102728069 0.6983621716 
68.03093719 88.7277298 0.5110818148 0.6393949389 
45.19446182 87.63626862 0.4507288933 0.6740720868 
31.60118675 88.59117126 0.4299537539 0.6864385605 
23.02210808 88.81126404 0.4193847477 0.6928160787 
14.78909111 89.01074219 0.4124549627 0.6970294118 
10.75941372 89.12238312 0.410346657 0.6983172297 
2.783427715 89.33218384 0.4085455239 0.6994185448 
-0.3578515649 26.80359268 0.1225329563 0.8983234763 
-0.7398583889 12.77545357 0.05849609151 0.9501000643 
-0.9640282989 9.386288643 0.04313140735 0.9629603624 
-2.683242083 9.319252968 0.04432983324 0.9619509578 
-10.02553177 25.89897919 0.1269476265 0.8948599696 
-9.914838791 22.57482338 0.1127055362 0.9060817957 
-9.557729721 15.68281746 0.08395187557 0.9291697741 
-10.52709484 15.66045856 0.08625610173 0.9272982478 
-10.62539005 11.9852972 0.0732159391 0.9379403591 
-10.20095634 9.627280235 0.06411651522 0.9454382062 
-11.18654728 9.653642654 0.06754302979 0.9426079392 
-12.34856415 9.732602119 0.07187622041 0.9390445352 
-20.04372597 10.67775345 0.1038120985 0.9131612182 
-23.40890121 9.910527229 0.1161993369 0.9033162594 
-54.54110718 20.27993584 0.2659904361 0.7923436165 
-58.88620377 18.95962334 0.2827842534 0.7807851434 
-67.07016754 18.3452282 0.3178479075 0.7571921349 
-72.44076538 16.38881302 0.3395040929 0.7429777384 
-112.1732025 -15.06412601 0.5173594356 0.6358926892 
-106.3487091 -19.13207436 0.4939356744 0.649061203 
-81.44258118 -18.4255619 0.3816885352 0.7160487771 
-63.19477844 -17.2851696 0.2994815111 0.7694594264 
-57.14686966 -24.19403839 0.2836726308 0.7801789045 
-57.26512909 -30.50649834 0.2965844572 0.771407187 
-59.65606689 -35.27344131 0.316796869 0.7578881383 
-56.18335342 -40.36305237 0.3162254393 0.7582674026 
-55.67395782 -43.87978745 0.3240424991 0.7531034946 
-52.18584442 -53.83720016 0.3427386284 0.7408789992 
-52.82982635 -65.21951294 0.3836625516 0.7148150802 
-9.728647232 -15.9633007 0.08545333892 0.9279497862 
-8.793344498 -15.98830509 0.0834088102 0.9296116829 
-7.042622089 -16.03513718 0.08005630225 0.9323426485 
-6.21578598 -16.05724144 0.07870696485 0.9334442616 
-3.278437376 -13.64234352 0.06413619965 0.9454222918 
-2.645976543 -13.65926266 0.06359863281 0.945867002 
-1.406279206 -13.69242191 0.06291900575 0.9464299083 
-0.793915987 -13.70879364 0.06276946515 0.9465536475 
-0.1832421869 -13.72513676 0.06274475157 0.9465740919 
0.4281640649 -13.74147892 0.06284423918 0.9464915991 
2.291420937 -13.79132271 0.06390594691 0.9456127882 
2.930805683 -13.80841732 0.06452605873 0.9450998902 
3.5840137 -13.8258934 0.06528869271 0.9444692731 
4.254199028 -13.84381294 0.0662022382 0.9437145591 
5.659599304 -13.8814106 0.06852477789 0.9417985082 
