# .PCD v0.7 - Point Cloud Data file format
VERSION 0.7
FIELDS x y z intensities
SIZE 4 4 4 4
TYPE F F F F
COUNT 1 1 1 1
WIDTH 922
HEIGHT 1
VIEWPOINT 0 0 0 1 0 0 0
POINTS 922
DATA ascii
0.5439208746 17.45643425 -1.842974067 0.9321630597 
-0.4582128823 7.912168026 -0.8363258243 0.9686250091 
-1.357778311 7.00906229 -0.7533769011 0.9716923833 
-3.077944279 7.008105278 -0.8077102304 0.969682157 
-4.286279202 7.033120155 -0.8691337109 0.9674144983 
-4.811469555 7.157739162 -0.910105288 0.9659048915 
-6.440195084 7.264443398 -1.024445295 0.9617043138 
-6.922397137 7.141366959 -1.049522877 0.9607855678 
-7.636362076 7.206913948 -1.108025074 0.9586455226 
-8.455834389 7.297065258 -1.178611159 0.9560697675 
-13.75160122 7.325829983 -1.644198895 0.9392524958 
-15.10538006 7.203466415 -1.765957952 0.9349035025 
-16.42356873 6.10671854 -1.849013209 0.931948483 
-17.4390564 5.614916801 -1.933280587 0.9289599061 
-18.79759216 2.52448225 -2.001413107 0.9265505672 
-18.94758224 0.8436083794 -2.001413107 0.9265505672 
-17.42004776 -0.7756786942 -2.001413107 0.9322006702 
-17.36829948 -1.54981935 -2.001413107 0.9322006702 
-17.16180611 -3.087373018 -2.001413107 0.9322007298 
-16.5981884 -5.344125748 -2.001413107 0.9322006702 
-16.34403801 -6.077177525 -2.001413107 0.9322006702 
-15.38972092 -8.19848156 -2.001413107 0.9322007895 
-15.00981903 -8.874984741 -2.001413107 0.9322006702 
-14.60013676 -9.533881187 -2.001413107 0.9322007895 
-12.19606876 -10.52485371 -1.849013209 0.937197566 
-11.21236801 -11.567173 -1.849013209 0.937197566 
-10.68668461 -12.05448723 -1.849013209 0.9371976852 
-9.573012352 -12.95661545 -1.849013209 0.9371976256 
-8.987138748 -13.36962414 -1.849013209 0.9371977448 
-8.391958237 -13.76995087 -1.850864649 0.9371367693 
-7.771406174 -14.13018513 -1.850937247 0.9371343255 
-7.117797852 -14.42673302 -1.846435189 0.9372823238 
-5.822255611 -15.04069328 -1.851164103 0.9371268153 
-4.359438419 -12.9448967 -1.567777634 0.9464892149 
-3.731967688 -12.96168423 -1.548149347 0.9471411109 
-1.733911037 -7.215185165 -0.8517186046 0.9705646038 
-0.6415038705 -6.246059418 -0.7206786871 0.9750363231 
0.4721044898 -6.228945255 -0.7169935703 0.9751623869 
1.034331083 -6.225341797 -0.7243249416 0.9749116302 
4.254199028 -13.84381294 -1.662295341 0.9433562756 
4.944794655 -13.86228466 -1.689276814 0.9424638152 
6.402948856 -13.90129852 -1.75667572 0.9402381778 
7.179701805 -13.92206955 -1.797919631 0.9388788939 
8.425468445 -13.28686047 -1.805806279 0.9386191964 
9.223725319 -13.2075634 -1.849013209 0.937197566 
9.802103996 -12.78418446 -1.849013209 0.937197566 
11.41647911 -11.36577606 -1.849013209 0.937197566 
14.76753139 -9.272514343 -2.001413107 0.9322007298 
15.53322697 -7.923281193 -2.001413107 0.9322006702 
16.17596817 -6.511342525 -2.001413107 0.9322006702 
16.44960976 -5.785319805 -2.001413107 0.9322006702 
16.69067192 -5.047858715 -2.001413107 0.9322007298 
17.21404266 -2.78142333 -2.001413107 0.9322006702 
17.32073212 -2.012937069 -2.001413107 0.9322006702 
17.39312935 -1.24044919 -2.001413107 0.9322006702 
17.43109131 -0.4655029178 -2.001413107 0.9322006702 
17.33795929 1.858703613 -2.001413107 0.9322006702 
17.23810959 2.628127337 -2.001413107 0.9322007298 
16.93629646 4.149838924 -2.001413107 0.9322007298 
14.99717999 5.882285118 -1.849013209 0.937197566 
14.41502666 7.191947937 -1.849013209 0.9371975064 
13.7465229 8.461789131 -1.852757812 0.9370744824 
12.48616219 10.20650864 -1.851008892 0.9371320009 
12.01619148 10.74863243 -1.850456476 0.9371501207 
11.52281666 11.26925755 -1.849921227 0.9371677637 
10.46986294 12.24207973 -1.848905921 0.9372010827 
9.912353516 12.69241714 -1.848428011 0.9372168779 
9.335634232 13.11754894 -1.847970843 0.9372318387 
4.562201977 7.794804573 -1.036643982 0.9642890096 
6.859652996 14.55060959 -1.846369386 0.9372845292 
4.172289848 15.52513123 -1.84516561 0.9373241067 
2.068095684 15.93697262 -1.84454596 0.9373444915 
1.356997013 16.0118885 -1.844395757 0.9373494387 
0.6433495879 16.05534554 -1.844274044 0.9373534322 
-0.6592236161 7.033955097 -0.8108796477 0.9719560742 
-0.9729247689 7.008149147 -0.8120939732 0.9719147086 
-1.295097589 7.019667625 -0.8192983866 0.9716690779 
-1.63900876 7.097714901 -0.8360977173 0.9710966349 
-1.925805569 6.919638634 -0.8244073391 0.9714950323 
-2.270532131 6.945854187 -0.8387452364 0.9710065126 
-3.020253897 7.046367168 -0.879929781 0.9696047306 
-3.415634632 7.081098557 -0.9023658633 0.9688419104 
-4.191821098 7.017949104 -0.9382546544 0.9676229358 
-4.652963638 7.056728363 -0.9701775908 0.966539979 
-5.18472147 7.149516582 -1.013669968 0.9650664926 
-6.754433632 7.093408108 -1.124228239 0.9613309503 
-8.29575634 7.288788795 -1.267480254 0.9565122724 
-9.988598824 7.311611176 -1.420796514 0.9513818026 
-13.54529762 7.371406078 -1.770007849 0.9397985935 
-14.47844219 7.063374043 -1.849013209 0.9371976256 
-14.77831554 6.41232872 -1.849013209 0.937197566 
-15.0489397 5.748579025 -1.849013209 0.937197566 
-16.5499649 5.491635799 -2.001413107 0.9322007298 
-16.97256279 3.998940229 -2.001413107 0.9322007298 
-17.13365746 3.239985228 -2.001413107 0.9322006702 
-17.26082039 2.474589825 -2.001413107 0.9322007298 
-17.35382271 1.704326153 -2.001413107 0.9322006702 
-17.42625999 -0.6206201315 -2.001413107 0.9322006702 
-17.18860817 -2.934526205 -2.001413107 0.9322006702 
-17.04104996 -3.696240187 -2.001413107 0.9322006702 
-16.85975075 -4.450624943 -2.001413107 0.9322007298 
-16.64510727 -5.196200848 -2.001413107 0.9322006106 
-16.11738777 -6.655029297 -2.001413107 0.9322006702 
-15.80538082 -7.365415096 -2.001413107 0.9322007298 
-14.68440914 -9.403583527 -2.001413107 0.9322007298 
-14.25158691 -10.04748535 -2.001413107 0.9322006702 
-11.8137598 -10.95224571 -1.849013209 0.937197566 
-11.3148632 -11.46693802 -1.849013209 0.937197566 
-10.79356956 -11.95890141 -1.849013209 0.9371976256 
-10.2508831 -12.42721176 -1.849013209 0.9371976256 
-8.514105797 -13.69462395 -1.850850463 0.9371371865 
-7.896781921 -14.06035137 -1.850922704 0.9371348619 
-3.856225491 -12.95835876 -1.551791072 0.9470201135 
-1.354184508 -6.672055721 -0.781416595 0.9729611278 
-0.9816650152 -6.251972675 -0.7263783216 0.9748414159 
0.1387060583 -6.233188152 -0.7156074643 0.9752097726 
0.4164404273 -6.229721546 -0.7166288495 0.9751748443 
0.9777636528 -6.227109432 -0.723489821 0.9749401808 
1.274565458 -6.279804707 -0.7354775667 0.9745303392 
3.452119112 -13.82236767 -1.635229945 0.9442523122 
4.11864233 -13.84018993 -1.657392383 0.9435185194 
4.804868221 -13.85854912 -1.683543682 0.942653358 
5.514511585 -13.87752438 -1.713979959 0.94164747 
8.257807732 -13.28238297 -1.795136929 0.9389705062 
9.687944412 -12.87090778 -1.849013209 0.9371976256 
13.30361557 -10.29470444 -1.930746555 0.9345143437 
14.68443108 -9.403564453 -2.001413107 0.9322006702 
15.08819294 -8.741044998 -2.001413107 0.9322007298 
15.46210194 -8.061201096 -2.001413107 0.9322006702 
16.64509392 -5.196198463 -2.001413107 0.9322006702 
17.04104996 -3.69623518 -2.001413107 0.9322007298 
17.18860245 -2.934506655 -2.001413107 0.9322007298 
17.30213356 -2.166996956 -2.001413107 0.9322006702 
17.38139534 -1.395190358 -2.001413107 0.9322007298 
17.42625427 -0.6206176877 -2.001413107 0.9322007298 
17.2608242 2.4745996 -2.001413107 0.9322006702 
16.77787399 4.749997616 -2.001413107 0.9322006702 
14.77831554 6.412331581 -1.849013209 0.937197566 
14.47845459 7.063378811 -1.849013209 0.937197566 
14.14990711 7.700439453 -1.849013209 0.937197566 
13.43316841 8.943378448 -1.852279067 0.9370902181 
11.11193371 11.66960907 -1.849505901 0.9371814132 
7.628305435 14.16712856 -1.846810102 0.9372700453 
6.989145279 14.48953629 -1.846440554 0.9372822046 
6.336484432 14.7833395 -1.846095562 0.9372935295 
5.671625614 15.04796314 -1.8457762 0.9373040199 
4.995825291 15.28293896 -1.845482588 0.9373136759 
2.546923876 9.151396751 -1.090296388 0.9624758959 
3.616718769 15.66218185 -1.844975948 0.9373303056 
2.209897518 15.9182272 -1.844579577 0.937343359 
1.499467731 15.99941826 -1.844423532 0.937348485 
0.0714892596 16.06740189 -1.844197512 0.9373559356 
-0.6432958841 16.05407143 -1.844128013 0.9373582006 
-0.599106431 7.069233418 -0.8142995834 0.9718394876 
-0.9091845751 7.006289005 -0.8109089732 0.9719551206 
-1.236992121 7.05610323 -0.8222343326 0.9715690017 
-1.552885652 7.008681297 -0.8239493966 0.9715105891 
-1.874599576 6.975400448 -0.8290302753 0.9713374972 
-2.615898371 7.132206917 -0.8719442487 0.969876349 
-2.990112305 7.151117802 -0.8896534443 0.969274044 
-3.298686504 6.997109413 -0.8878860474 0.9693341255 
-4.134311199 7.063695908 -0.9394155741 0.9675835371 
-5.126508713 7.203271389 -1.014782429 0.9650288224 
-6.278793812 7.341567039 -1.108789682 0.961851716 
-6.695951939 7.158486366 -1.125052571 0.9613031149 
-8.029272079 7.182284832 -1.23648417 0.9575528502 
-8.905810356 7.279814243 -1.32023859 0.9547436833 
-9.880727768 7.368578911 -1.414723158 0.951584518 
-10.79939938 7.329433441 -1.498047471 0.9488071799 
-13.20275879 7.338017464 -1.733710885 0.9409959316 
-14.72066879 6.543598652 -1.849013209 0.937197566 
-16.40053177 5.604545593 -1.989293218 0.9325971007 
-16.93630409 4.149833679 -2.001413107 0.9322006702 
-17.10413551 3.39234376 -2.001413107 0.9322007298 
-17.23810959 2.628119946 -2.001413107 0.9322007298 
-17.33796883 1.858696222 -2.001413107 0.9322006702 
-17.43109322 -0.4654980302 -2.001413107 0.9322006702 
-17.39311981 -1.240458965 -2.001413107 0.9322007298 
-17.21404839 -2.781425714 -2.001413107 0.9322006702 
-17.0732708 -3.544423819 -2.001413107 0.9322007298 
-16.44961929 -5.785326958 -2.001413107 0.9322006702 
-16.17597198 -6.511337757 -2.001413107 0.9322006702 
-15.16543388 -8.606440544 -2.001413107 0.9322004914 
-14.76754379 -9.272509575 -2.001413107 0.9322006702 
-12.3971529 -10.31980419 -1.851469994 0.9371190071 
-10.36110783 -12.33550262 -1.849013209 0.9371975064 
-9.802099228 -12.78417492 -1.849013209 0.9371976256 
-8.635576248 -13.6182127 -1.850836277 0.9371376038 
-7.391596317 -14.33296394 -1.850981593 0.937132895 
-6.746972561 -14.6481638 -1.851056576 0.9371304512 
-5.41880846 -15.19113255 -1.851210952 0.9371253252 
-3.981074095 -12.95500946 -1.555571556 0.9468945265 
-1.508969665 -7.109501839 -0.8341892958 0.9711616039 
-1.038901329 -6.252871037 -0.7275273204 0.9748020768 
-0.7543212771 -6.248144627 -0.722353816 0.974979043 
0.08322753757 -6.233793736 -0.7155633569 0.9752112627 
0.360825181 -6.230473518 -0.7163174152 0.9751855135 
0.6394872665 -6.226430416 -0.718413651 0.9751138091 
0.9213036895 -6.228852272 -0.7227102518 0.9749668241 
7.452690125 -13.55067825 -1.775025845 0.939633131 
8.092119217 -13.27794933 -1.78473258 0.9393132329 
8.938842773 -13.2977047 -1.839065909 0.9375246763 
9.573012352 -12.95662117 -1.849013209 0.937197566 
10.68673325 -12.05447769 -1.849013209 0.937197566 
11.21239758 -11.56716251 -1.849013209 0.9371975064 
11.71581554 -11.05695248 -1.849013209 0.9371976256 
12.19607639 -10.52484131 -1.849013209 0.937197566 
13.06674767 -10.29861546 -1.909596682 0.935207963 
14.1616106 -10.17391109 -2.001413107 0.9322006702 
15.00980663 -8.874982834 -2.001413107 0.9322006702 
15.73921108 -7.505773544 -2.001413107 0.9322007298 
16.05751228 -6.798212528 -2.001413107 0.9322007298 
16.59819031 -5.344133377 -2.001413107 0.9322006702 
17.00748062 -3.84773922 -2.001413107 0.9322007298 
17.2821579 -2.320898294 -2.001413107 0.9322006702 
17.36829376 -1.549809575 -2.001413107 0.9322006702 
17.42004585 -0.7756738067 -2.001413107 0.9322006702 
17.42004395 0.7756689191 -2.001413107 0.9322006702 
15.15718269 5.635881424 -1.856077552 0.9369654059 
14.83479977 6.280544281 -1.849013209 0.9371976256 
14.54073429 6.934235573 -1.849013209 0.937197566 
12.90191841 7.628642559 -1.720348001 0.9414371252 
11.70994568 7.646576881 -1.605213642 0.9452469349 
12.6673851 9.983874321 -1.851234436 0.9371246099 
12.20703602 10.53431129 -1.850675464 0.9371429682 
11.72291946 11.0636425 -1.850133181 0.93716079 
11.21599102 11.57088375 -1.849608541 0.9371780157 
10.13771915 12.51526356 -1.8486166 0.9372106194 
9.568564415 12.95056152 -1.848151207 0.9372259378 
7.11809063 14.42733383 -1.846512437 0.9372798204 
6.468051434 14.72689438 -1.846162558 0.9372913241 
5.805498123 14.99740696 -1.845837951 0.9373019934 
5.131786823 15.23833942 -1.845539212 0.9373118281 
4.448212624 15.44925785 -1.845266938 0.9373207688 
2.351503849 15.89822674 -1.844614029 0.9373422265 
1.641821265 15.98568821 -1.8444525 0.9373475313 
-0.5004003644 16.05926323 -1.844139457 0.9373578429 
-0.5359423757 7.071171761 -0.8139408827 0.9718517065 
-1.172358394 7.056088924 -0.8209837079 0.971611619 
-2.109140635 6.863456726 -0.824131012 0.9715044498 
-2.464819193 6.909897327 -0.8420516849 0.9708939195 
-2.911274433 7.140483379 -0.8850719929 0.9694298506 
-3.211752892 6.972909927 -0.8811540008 0.969563067 
-5.516518593 7.19478035 -1.040603757 0.9641551375 
-6.616743088 7.201225281 -1.122469902 0.9613901973 
-8.7374897 7.272904873 -1.304829955 0.9552598596 
-9.59732914 7.291035175 -1.383382559 0.9526312351 
-14.66184998 6.674345493 -1.849013209 0.937197566 
-14.94425297 6.015536785 -1.849013209 0.9371975064 
-15.96058083 5.613310337 -1.941913247 0.9341484308 
-16.69069862 5.047851562 -2.001413107 0.9322006106 
-16.89870644 4.300385475 -2.001413107 0.9322006702 
-17.43111801 0.4655029178 -2.001413107 0.9322006106 
-17.40348053 -1.085624933 -2.001413107 0.9322006702 
-17.33796883 -1.858715773 -2.001413107 0.9322006702 
-17.23810577 -2.628134727 -2.001413107 0.9322007298 
-16.93630409 -4.149838924 -2.001413107 0.9322006702 
-15.9339695 -7.082949162 -2.001413107 0.9322006702 
-15.60312939 -7.784750938 -2.001413107 0.9322006702 
-15.24140072 -8.471122742 -2.001413107 0.9322006106 
-14.42801285 -9.792226791 -2.001413107 0.9322011471 
-12.60803699 -10.30612278 -1.869074702 0.9365382791 
-11.51714325 -11.26373482 -1.849013209 0.9371976256 
-11.00470161 -11.76490688 -1.849013209 0.9371976256 
-8.756371498 -13.54070759 -1.850822091 0.9371380806 
-8.145668983 -13.91736317 -1.850893497 0.937135756 
-5.553725243 -15.14217758 -1.851195216 0.9371258616 
-1.583520532 -7.146953106 -0.8402041197 0.9709567428 
-1.099179626 -6.269985199 -0.7306295633 0.9746960402 
-0.5291650295 -6.24386692 -0.7192249894 0.9750860333 
-0.2499413937 -6.237773418 -0.7165310383 0.9751781821 
0.02774414048 -6.234364986 -0.7155726552 0.9752109647 
0.3052538931 -6.231201172 -0.7160598636 0.975194335 
0.5836181641 -6.22729969 -0.7178860307 0.9751318097 
0.8649657965 -6.23055172 -0.7219856381 0.9749916196 
1.151938438 -6.243710995 -0.7287316918 0.97476089 
4.527802467 -13.85114193 -1.672587395 0.9430156946 
5.227597713 -13.86985302 -1.701270223 0.9420673847 
5.953276157 -13.88927746 -1.734447598 0.9409715533 
6.709350586 -13.90949631 -1.772523761 0.9397156239 
7.445287704 -13.82723141 -1.80250144 0.9387279749 
7.928300381 -13.27355957 -1.774588227 0.9396475554 
12.10193348 -10.6329565 -1.849013209 0.9371976256 
14.51470661 -9.663456917 -2.001413107 0.9322007298 
15.31618595 -8.335109711 -2.001413107 0.9322006702 
15.6717968 -7.645541668 -2.001413107 0.9322007298 
15.99638653 -6.940837383 -2.001413107 0.9322006702 
16.54997063 -5.491633415 -2.001413107 0.9322006702 
17.13365173 -3.239995003 -2.001413107 0.9322006702 
17.35381508 -1.704308987 -2.001413107 0.9322006702 
17.41245079 -0.9306640625 -2.001413107 0.9322006702 
17.38140297 1.395185471 -2.001413107 0.9322006702 
17.18860817 2.934509277 -2.001413107 0.9322006702 
17.04105759 3.696210861 -2.001413107 0.9322006702 
16.85974884 4.450639725 -2.001413107 0.9322007298 
14.89010239 6.148278713 -1.849013209 0.9371976256 
14.28473091 7.447375298 -1.849013209 0.937197566 
13.97026825 8.093385696 -1.853122234 0.9370625019 
11.94312 7.648095608 -1.627786398 0.9444988966 
9.099819183 13.28035164 -1.847794175 0.93723768 
8.498065948 13.66886234 -1.847368002 0.937251687 
7.246489048 14.36397934 -1.846585393 0.9372774363 
6.599086761 14.6692915 -1.846230626 0.9372890592 
5.938959599 14.94565392 -1.845900893 0.9372999072 
5.267377853 15.19253349 -1.84559691 0.9373099208 
1.784038067 15.97071266 -1.844482541 0.937346518 
1.071757793 16.03306198 -1.844343662 0.9373511076 
0.357460916 16.06389618 -1.844233513 0.9373547435 
-0.7786279321 6.970263481 -0.8050065637 0.9721563458 
-1.089506865 6.938754559 -0.8061721325 0.9721165895 
-2.053383827 6.90009737 -0.8263030648 0.9714304209 
-2.408256769 6.946054459 -0.8438119292 0.9708339572 
-3.53996563 7.016889572 -0.9020710588 0.9688519239 
-4.385405064 7.053735256 -0.9533259273 0.9671115279 
-4.934995174 7.202172756 -1.002093315 0.9654585123 
-5.341225624 7.096054554 -1.019409895 0.9648721814 
-6.019477367 7.29740715 -1.085765123 0.962628901 
-7.07579565 7.170883656 -1.156287193 0.9602504373 
-7.765790939 7.199477196 -1.215452313 0.9582595825 
-14.60186005 6.804560184 -1.849013209 0.9371976256 
-15.54091263 5.621654987 -1.896865487 0.9356257319 
-16.85972214 4.450600624 -2.001413107 0.9322008491 
-17.3021183 2.166987181 -2.001413107 0.9322007298 
-17.42626381 0.6206152439 -2.001413107 0.9322006702 
-17.41245651 -0.9306786656 -2.001413107 0.9322006702 
-17.35381317 -1.704350591 -2.001413107 0.9322006702 
-17.2608242 -2.474623919 -2.001413107 0.9322006702 
-16.97256279 -3.99895978 -2.001413107 0.9322006702 
-16.77786636 -4.749995232 -2.001413107 0.9322007298 
-16.54997063 -5.491630554 -2.001413107 0.9322006702 
-16.28931046 -6.222387791 -2.001413107 0.9322006702 
-14.51472092 -9.663452148 -2.001413107 0.9322007298 
-14.04685497 -10.28224087 -1.998051286 0.9323106408 
-12.83494568 -10.30242634 -1.889045358 0.9358823895 
-11.10897923 -11.66648865 -1.849013209 0.9371976256 
-10.02805614 -12.60770035 -1.849013209 0.9371976256 
-9.457314491 -13.04129887 -1.849013209 0.9371976256 
-8.867821693 -13.44907188 -1.849013209 0.9371976852 
-8.269145012 -13.84420872 -1.850879192 0.9371362329 
-7.606674671 -14.12695312 -1.84157145 0.9374422431 
-7.006508827 -14.525527 -1.851026416 0.9371314049 
-3.608281136 -12.96498489 -1.544647932 0.9472574592 
-1.658286095 -7.181196213 -0.8459304571 0.9707617164 
-0.02774902247 -6.234916687 -0.7156350613 0.9752088189 
0.5278369188 -6.228129864 -0.7174125314 0.9751480222 
1.091674805 -6.227138519 -0.7256355286 0.9748668075 
3.716586828 -13.82944298 -1.64363265 0.9439740181 
5.805869102 -13.88531685 -1.72743392 0.941203177 
6.555483341 -13.90538502 -1.764494896 0.9399802685 
7.339550495 -13.92634201 -1.806836247 0.9385852218 
7.766332626 -13.26922798 -1.764696956 0.9399735928 
9.340893745 -13.12495041 -1.849013209 0.937197566 
10.47047329 -12.24279308 -1.849013209 0.937197566 
11.00473118 -11.76488781 -1.849013209 0.937197566 
11.51720142 -11.26371574 -1.849013209 0.9371975064 
12.00682545 -10.74023914 -1.849013209 0.937197566 
14.42816353 -9.792238235 -2.001413107 0.9322006702 
15.93397903 -7.082914829 -2.001413107 0.9322007298 
16.5004406 -5.638698578 -2.001413107 0.9322007298 
17.10413551 -3.392341137 -2.001413107 0.9322007298 
17.23810768 -2.628129721 -2.001413107 0.9322007298 
17.40348053 -1.085581064 -2.001413107 0.9322006702 
17.39312553 1.240454078 -2.001413107 0.9322006702 
14.94422817 6.015529633 -1.849013209 0.9371976256 
14.66184521 6.674343109 -1.849013209 0.937197566 
14.3504467 7.319955826 -1.849013209 0.937197566 
12.84466743 9.758022308 -1.851462364 0.9371170998 
11.91935062 10.85450649 -1.850347996 0.9371537566 
9.79851532 12.77948189 -1.848334789 0.9372199178 
9.218080521 13.19947243 -1.847882032 0.9372348189 
8.619794846 13.59328556 -1.847451448 0.9372489452 
4.470620155 7.796703815 -1.031563163 0.9644609094 
7.374320984 14.29949665 -1.846659303 0.9372749925 
6.729628563 14.61052704 -1.846299529 0.9372867942 
6.07193327 14.89271927 -1.84596467 0.937297821 
5.402544022 15.14554119 -1.845655441 0.9373080134 
4.033866882 15.56122971 -1.845116496 0.937325716 
2.634218693 15.85447216 -1.844686747 0.9373398423 
0.5004101396 16.06025314 -1.844253182 0.9373540878 
-1.027133822 6.944360256 -0.8057290316 0.9721316695 
-1.365590811 7.049565315 -0.8241741657 0.9715029001 
-1.696645498 7.060058594 -0.8334077001 0.9711882472 
-2.345053673 6.963388443 -0.8433486819 0.9708497524 
-2.748325109 7.099731445 -0.873817265 0.9698126316 
-3.485825062 7.065229416 -0.9042615891 0.9687774777 
-3.957758665 7.196064472 -0.9426281452 0.9674745202 
-4.282846451 7.027509689 -0.9445915222 0.9674078822 
-4.754262447 7.072612286 -0.9781393409 0.9662700891 
-5.897548676 7.280629635 -1.075418472 0.9629784226 
-9.209633827 7.258622646 -1.345912099 0.953884244 
-10.13339806 7.280004501 -1.432119727 0.9510039687 
-14.54073238 6.93422842 -1.849013209 0.9371976256 
-15.15716743 5.635869026 -1.856075048 0.9369654655 
-16.81948662 4.600502968 -2.001413107 0.9322006702 
-17.42005348 0.7756689191 -2.001413107 0.9322006702 
-17.42004776 -0.7756689191 -2.001413107 0.9322006702 
-17.2821579 -2.320883751 -2.001413107 0.9322007298 
-15.38973141 -8.19848156 -2.001413107 0.9322007298 
-14.60015106 -9.533896446 -2.001413107 0.9322006702 
-13.06673336 -10.29862309 -1.909594417 0.9352080226 
-11.71582985 -11.05695248 -1.849013209 0.937197566 
-11.21237755 -11.56716728 -1.849013209 0.937197566 
-9.572973251 -12.95661545 -1.849013209 0.9371976852 
-8.987153053 -13.36962891 -1.849013209 0.9371976852 
-7.771410942 -14.13018513 -1.850937247 0.9371343255 
-7.117797852 -14.42673302 -1.846435189 0.9372823238 
-6.485302448 -14.76617622 -1.851086974 0.9371294379 
-1.2646631 -6.528544903 -0.7632607818 0.9735809565 
0.1941943318 -6.23255825 -0.7157049179 0.9752064347 
0.4721142352 -6.228940487 -0.7169935703 0.9751623869 
3.5840137 -13.8258934 -1.639356017 0.9441156387 
4.254199028 -13.84381294 -1.662295341 0.9433562756 
7.179716587 -13.92207527 -1.797919989 0.9388788342 
7.606156826 -13.26494122 -1.755056858 0.9402915835 
8.42548275 -13.28686523 -1.805804968 0.9386191368 
9.223725319 -13.2075634 -1.849013209 0.937197566 
11.41647911 -11.3657856 -1.849013209 0.937197566 
12.39795399 -10.31979752 -1.851472378 0.9371167421 
13.54579067 -10.29067135 -1.952524066 0.9338007569 
14.34044933 -9.920250893 -2.001413107 0.9322006702 
14.76753616 -9.272517204 -2.001413107 0.9322006702 
15.16540051 -8.60641098 -2.001413107 0.9322006702 
15.87030983 -7.224467754 -2.001413107 0.9322006702 
16.44961357 -5.785309792 -2.001413107 0.9322006702 
17.21404266 -2.78142333 -2.001413107 0.9322006702 
17.32073212 -2.012934446 -2.001413107 0.9322006702 
17.39312744 -1.240458965 -2.001413107 0.9322006702 
17.23811531 2.628127337 -2.001413107 0.9322006702 
16.73492622 4.899113655 -2.001413107 0.9322007298 
16.40053368 5.604547977 -1.989294887 0.9325970411 
14.99716759 5.8822999 -1.849013209 0.9371976256 
14.1139698 7.844509125 -1.853367567 0.9370544553 
13.7465229 8.4617939 -1.852757812 0.9370744824 
13.35219669 9.061994553 -1.852160573 0.9370940924 
12.9318018 9.643927574 -1.851577282 0.9371132851 
12.01619625 10.74862289 -1.850456476 0.9371501207 
11.52280235 11.26926708 -1.849921227 0.9371677637 
9.912353516 12.69241714 -1.848428011 0.9372168779 
8.740819931 13.51665974 -1.847535849 0.9372461438 
4.562201977 7.794804573 -1.036643863 0.9642890096 
7.501616001 14.23386669 -1.846734285 0.9372725487 
6.204443455 14.83861828 -1.846029639 0.9372956753 
4.172289848 15.52512646 -1.84516561 0.9373241067 
3.477104425 15.69336891 -1.844931245 0.9373317957 
2.67766118 15.27400398 -1.779849648 0.9394741654 
1.357011676 16.0118885 -1.844395757 0.9373493791 
0.6433642507 16.05534554 -1.844274044 0.9373534322 
-0.6951806545 14.19145489 -1.630815744 0.9443985224 
-0.6592040658 7.033955097 -0.8108793497 0.9719560742 
-0.9729345441 7.008144379 -0.8120937943 0.9719147086 
-1.295112252 7.019672871 -0.8193000555 0.9716690183 
-1.925815344 6.919643402 -0.8244082332 0.9714949727 
-2.270532131 6.945859432 -0.8387454152 0.9710065126 
-2.693598509 7.146650314 -0.8766064048 0.969717741 
-3.020258665 7.046367168 -0.8799299598 0.969604671 
-3.874233246 7.19510746 -0.9379487634 0.9676333666 
-4.191821098 7.017949104 -0.9382546544 0.9676229358 
-4.652954102 7.056723595 -0.970177114 0.966539979 
-5.666523457 7.124159813 -1.044812918 0.964012742 
-6.399965763 7.349833965 -1.118593574 0.9615209103 
-9.988617897 7.311601162 -1.420796156 0.9513818026 
-12.31203556 7.428471565 -1.650440335 0.9437486529 
-14.4784565 7.063349247 -1.849013209 0.937197566 
-14.77833939 6.412314415 -1.849013209 0.937197566 
-15.0489397 5.748579025 -1.849013209 0.937197566 
-16.5499649 5.491635799 -2.001413107 0.9322007298 
-17.26081467 2.47461915 -2.001413107 0.9322007298 
-17.41247559 0.9306884408 -2.001413107 0.9322006106 
-17.43662643 0.1552001983 -2.001413107 0.9322006702 
-17.42625427 -0.6206591725 -2.001413107 0.9322006702 
-17.30212402 -2.167031288 -2.001413107 0.9322007298 
-17.04104424 -3.696259737 -2.001413107 0.9322007298 
-15.46207523 -8.061191559 -2.001413107 0.9322007895 
-15.0881443 -8.74104023 -2.001413107 0.9322008491 
-14.25158691 -10.04745579 -2.001413107 0.9322007298 
-13.3036375 -10.29470158 -1.930749893 0.9345143437 
-11.31483841 -11.46695805 -1.849013209 0.937197566 
-10.79353046 -11.95892525 -1.849013209 0.9371976256 
-9.68791008 -12.87092209 -1.849013209 0.9371976256 
-9.105747223 -13.28912544 -1.849013209 0.9371977448 
-7.263803482 -14.3982954 -1.850996375 0.9371323586 
-4.486918926 -12.94148922 -1.572138071 0.9463444352 
-3.856230497 -12.958354 -1.551790595 0.9470201135 
-0.9816699028 -6.251977444 -0.7263786197 0.9748413563 
-0.4172412157 -6.241557598 -0.7179902196 0.975128293 
0.6954443455 -6.225532055 -0.7189958096 0.9750939012 
1.274575114 -6.279814243 -0.7354778647 0.9745302796 
4.118647575 -13.8401947 -1.657392859 0.9435185194 
5.514511585 -13.87752438 -1.713979959 0.94164747 
6.251772404 -13.89725113 -1.749064088 0.9404892921 
7.021410942 -13.91784668 -1.789231181 0.9391649961 
7.459863186 -13.28240681 -1.748512506 0.9405074716 
9.10579586 -13.2891407 -1.849013209 0.937197566 
9.687924385 -12.87091732 -1.849013209 0.9371976256 
10.2508831 -12.42722607 -1.849013209 0.9371976256 
10.79361343 -11.95887661 -1.849013209 0.937197566 
11.31490231 -11.46690369 -1.849013209 0.937197566 
14.25159359 -10.04746819 -2.001413107 0.9322006702 
15.08820248 -8.741037369 -2.001413107 0.9322006702 
15.46210194 -8.061201096 -2.001413107 0.9322006702 
16.11738205 -6.655048847 -2.001413107 0.9322006702 
16.85975838 -4.450639725 -2.001413107 0.9322006702 
17.30213547 -2.166962862 -2.001413107 0.9322006702 
17.38140106 -1.395151377 -2.001413107 0.9322006702 
17.42625618 -0.6205834746 -2.001413107 0.9322006702 
17.43661499 0.1552124023 -2.001413107 0.9322006702 
17.41244888 0.9307006598 -2.001413107 0.9322006702 
17.35381317 1.704348087 -2.001413107 0.9322006702 
17.26081657 2.474626303 -2.001413107 0.9322006702 
16.97256088 3.998955011 -2.001413107 0.9322007298 
16.549963 5.491625786 -2.001413107 0.9322007298 
14.77832031 6.412309647 -1.849013209 0.9371976256 
14.47848606 7.063361645 -1.849013209 0.9371974468 
14.14991188 7.700427055 -1.849013209 0.937197566 
13.43319321 8.943349838 -1.852279067 0.9370902181 
13.01790524 9.529084206 -1.851692796 0.93710953 
12.11206532 10.64191914 -1.850565553 0.9371465445 
11.11192799 11.66961384 -1.849505901 0.9371814132 
10.57894039 12.14907646 -1.849003911 0.9371978641 
6.173359394 7.76139164 -1.13826561 0.9608576894 
8.861171722 13.43895435 -1.847620964 0.937243402 
8.252729416 13.81671333 -1.84720397 0.9372570515 
7.628305435 14.16712856 -1.846810102 0.9372700453 
6.989145279 14.48953629 -1.846440554 0.9372822046 
5.671635628 15.04796314 -1.845775962 0.9373040199 
4.995849609 15.28293419 -1.845482707 0.9373136759 
2.546938419 9.151391029 -1.090296745 0.9624758959 
3.616752863 15.66217232 -1.844975948 0.9373303652 
0.7861816287 16.04917526 -1.844296098 0.9373527169 
-0.6433105469 16.05407143 -1.844128013 0.9373582006 
-0.5991162062 7.069233418 -0.8142997622 0.9718394876 
-0.9091845751 7.006289005 -0.8109089732 0.9719551206 
-1.236992121 7.05610323 -0.8222343326 0.9715690017 
-1.552885652 7.008681297 -0.8239493966 0.9715105891 
-2.170483351 6.84553194 -0.8242648244 0.9714998603 
-3.298676729 6.997109413 -0.8878863454 0.9693341255 
-5.12651825 7.203256607 -1.014782071 0.965028882 
-6.278793812 7.341552734 -1.108790159 0.9618517756 
-6.695951939 7.158471584 -1.125052214 0.9613031149 
-12.05281258 7.419209003 -1.624478698 0.9446084499 
-14.38246536 7.175732136 -1.844839573 0.9373347759 
-14.72065926 6.54360342 -1.849013209 0.937197566 
-14.99718189 5.882304668 -1.849013209 0.937197566 
-16.73493576 4.899145603 -2.001413107 0.9322006702 
-17.23811913 2.628095627 -2.001413107 0.9322006702 
-17.3379631 1.858671784 -2.001413107 0.9322006702 
-17.40348053 1.085585952 -2.001413107 0.9322006702 
-17.43455124 0.310346663 -2.001413107 0.9322006702 
-17.39311981 -1.240458965 -2.001413107 0.9322007298 
-17.21404839 -2.781425714 -2.001413107 0.9322006702 
-16.89870071 -4.300395489 -2.001413107 0.9322007298 
-16.69069862 -5.047851562 -2.001413107 0.9322006106 
-16.4495945 -5.785302639 -2.001413107 0.9322007895 
-16.17599106 -6.511313438 -2.001413107 0.9322006702 
-15.53320789 -7.923325062 -2.001413107 0.9322006702 
-15.16542435 -8.606464386 -2.001413107 0.9322004914 
-14.76752377 -9.272548676 -2.001413107 0.9322006702 
-14.34047318 -9.920268059 -2.001413107 0.932200551 
-11.91075611 -10.84668922 -1.849013209 0.937197566 
-11.41646004 -11.3657856 -1.849013209 0.937197566 
-10.89956474 -11.8623724 -1.849013209 0.9371976256 
-10.36110783 -12.33550262 -1.849013209 0.9371975064 
-9.223730087 -13.20755386 -1.849013209 0.937197566 
-8.021562576 -13.98939419 -1.850908041 0.9371353388 
-7.391615868 -14.33295345 -1.850981593 0.937132895 
-5.418774128 -15.19113731 -1.851210952 0.9371253848 
-1.891479492 -7.296738148 -0.8651824594 0.9701063037 
-1.508959889 -7.109501839 -0.8341888189 0.9711616635 
-0.7543163896 -6.248134613 -0.722353816 0.974979043 
1.212973595 -6.261689186 -0.7320620418 0.9746470451 
3.983857393 -13.83659172 -1.652648926 0.943675518 
6.864682674 -13.91365242 -1.78076911 0.9394438267 
8.938866615 -13.29770947 -1.839067936 0.9375246167 
10.13991642 -12.51793957 -1.849013209 0.937197566 
11.21239758 -11.56716251 -1.849013209 0.9371975064 
12.19607639 -10.52484131 -1.849013209 0.937197566 
14.6001482 -9.533901215 -2.001413107 0.9322006702 
15.0097971 -8.874992371 -2.001413107 0.9322007298 
16.34404755 -6.07715559 -2.001413107 0.9322006702 
16.59819221 -5.344096661 -2.001413107 0.9322007298 
17.00748253 -3.847722054 -2.001413107 0.9322007298 
17.16181183 -3.087360859 -2.001413107 0.9322006702 
17.28216553 -2.320881367 -2.001413107 0.9322006702 
17.42004585 -0.7756738067 -2.001413107 0.9322006702 
17.43730354 -4.882812391e-06 -2.001413107 0.9322006702 
17.16181374 3.087353468 -2.001413107 0.9322006702 
16.81948471 4.600468636 -2.001413107 0.9322007298 
16.59817886 5.344169617 -2.001413107 0.9322006702 
14.83478737 6.280578613 -1.849013209 0.937197566 
13.10303402 9.413422585 -1.851808906 0.9371056557 
12.20703602 10.53431129 -1.850675464 0.9371429682 
10.13772964 12.51525402 -1.8486166 0.9372106194 
9.56857872 12.95055676 -1.848151207 0.9372259378 
8.375756264 13.74330521 -1.847285628 0.9372544289 
5.805483341 14.99741173 -1.845837951 0.9373019934 
5.131782055 15.23834419 -1.845539212 0.9373118281 
4.448183537 15.44926739 -1.845266938 0.9373207688 
3.056694269 15.77951145 -1.844804049 0.937335968 
1.641821265 15.98568821 -1.8444525 0.9373475313 
0.9290282726 16.04174232 -1.844319224 0.9373519421 
0.2144921869 16.06628418 -1.844214916 0.9373553395 
-0.5359326005 7.071171761 -0.8139407039 0.9718517065 
-0.8437792659 6.989218712 -0.8080314398 0.9720531702 
-1.172348619 7.056088924 -0.8209835887 0.971611619 
-1.494643569 7.042060375 -0.8262770176 0.9714312553 
-1.821538091 7.026806355 -0.833178997 0.9711960554 
-2.10915041 6.863447189 -0.824129343 0.9715044498 
-3.673125029 7.122460842 -0.9198096991 0.9682492614 
-4.055029392 7.071855545 -0.9356641769 0.9677108526 
-5.516518593 7.19478035 -1.040603757 0.9641551375 
-6.616743088 7.201225281 -1.122469902 0.9613901973 
-7.939291954 7.230019569 -1.232487917 0.9576870799 
-8.737456322 7.272910118 -1.304828048 0.9552599788 
-9.597304344 7.291044712 -1.383381963 0.9526312947 
-11.67017078 7.327641487 -1.581629634 0.9460293055 
-17.07327652 3.544414043 -2.001413107 0.9322006702 
-17.21403694 2.781415939 -2.001413107 0.9322007298 
-17.39312935 1.24044919 -2.001413107 0.9322006702 
-17.33797264 -1.858676672 -2.001413107 0.9322006702 
-17.23810959 -2.628100634 -2.001413107 0.9322007298 
-16.93629265 -4.149878025 -2.001413107 0.9322007298 
-16.23326683 -6.367148399 -2.001413107 0.9322006702 
-13.79340267 -10.2865181 -1.97495079 0.9330666065 
-11.51718235 -11.26372051 -1.849013209 0.937197566 
-10.47049809 -12.24277782 -1.849013209 0.937197566 
-9.915439606 -12.69646931 -1.849013209 0.9371976256 
-8.75633812 -13.54073238 -1.850822091 0.9371380806 
-8.14563942 -13.91737747 -1.850893497 0.937135756 
-7.483242035 -14.19908142 -1.842218757 0.9374210238 
-4.106537819 -12.95166016 -1.559495687 0.9467642307 
-1.583520532 -7.146953106 -0.8402041197 0.9709567428 
-1.099179626 -6.269985199 -0.7306295633 0.9746960402 
-0.5291650295 -6.24386692 -0.7192249894 0.9750860333 
-0.2499511689 -6.237773418 -0.7165310383 0.9751781821 
0.02773437463 -6.234375 -0.7155726552 0.9752109647 
0.5836279392 -6.227294922 -0.7178860307 0.9751318693 
4.527802467 -13.85114193 -1.672587395 0.9430156946 
5.227597713 -13.86985302 -1.701270223 0.9420673847 
5.953276157 -13.88927746 -1.734447598 0.9409715533 
6.709350586 -13.90949631 -1.772523761 0.9397156239 
7.445287704 -13.82723141 -1.80250144 0.9387279749 
7.928300381 -13.27355957 -1.774588227 0.9396475554 
8.764966011 -13.29306126 -1.827561617 0.9379030466 
10.02809048 -12.60770035 -1.849013209 0.937197566 
11.10895443 -11.66652298 -1.849013209 0.937197566 
12.10195255 -10.63293648 -1.849013209 0.937197566 
14.0469532 -10.28224373 -1.998054624 0.9323103428 
14.51475048 -9.663419724 -2.001413107 0.9322006702 
15.31618595 -8.335109711 -2.001413107 0.9322006702 
15.6717968 -7.645541668 -2.001413107 0.9322007298 
16.28930855 -6.222397327 -2.001413107 0.9322006702 
16.77787399 -4.750002384 -2.001413107 0.9322006702 
16.9725647 -3.998957396 -2.001413107 0.9322006702 
17.41244888 -0.9307031035 -2.001413107 0.9322006702 
17.43660927 -0.155217275 -2.001413107 0.9322007298 
17.18860054 2.934550762 -2.001413107 0.9322006702 
14.89010239 6.148278713 -1.849013209 0.9371976256 
14.28473091 7.447375298 -1.849013209 0.937197566 
13.97026825 8.093385696 -1.853122234 0.9370625019 
13.18713379 9.297001839 -1.851925611 0.937101841 
12.301054 10.42585468 -1.850785971 0.9371393323 
10.79465294 11.96014595 -1.849202394 0.9371913671 
10.24921322 12.42521 -1.848712325 0.9372074604 
9.683900833 12.86555099 -1.84824264 0.937222898 
4.379946232 7.798578739 -1.026614189 0.9646283388 
7.246489048 14.36397934 -1.846585393 0.9372774363 
5.267377853 15.19253349 -1.84559691 0.9373099208 
3.197099447 15.75203133 -1.844845414 0.9373346567 
2.492968798 15.8769722 -1.844649911 0.9373410344 
1.784077168 15.97070312 -1.844482541 0.9373465776 
-0.3574853539 16.06319809 -1.844152331 0.9373573661 
-0.4895165861 7.322743893 -0.8423640132 0.9708831906 
-1.089506865 6.938754559 -0.8061721325 0.9721165895 
-1.751098633 7.011445045 -0.8294764757 0.9713222384 
-2.408256769 6.946054459 -0.8438119292 0.9708339572 
-2.841328144 7.150312424 -0.8831205368 0.9694961905 
-3.53996563 7.016889572 -0.9020710588 0.9688519239 
-4.934970379 7.202157974 -1.002092361 0.9654585719 
-5.341210842 7.096069336 -1.019409895 0.9648721814 
-6.019496918 7.297397137 -1.08576715 0.962628901 
-7.075883865 7.170942307 -1.156297684 0.96025002 
-12.75146008 7.387270451 -1.691449404 0.9423919916 
-13.73021984 7.158286095 -1.777238727 0.9395601749 
-15.54091263 5.621654987 -1.896865487 0.9356257319 
-16.64517021 5.196220398 -2.001413107 0.9322003722 
-16.85977936 4.450639725 -2.001413107 0.9322006106 
-17.04104996 3.696244955 -2.001413107 0.9322006702 
-17.18859291 2.934540987 -2.001413107 0.9322007298 
-17.30213356 2.166953087 -2.001413107 0.9322007298 
-17.43662643 -0.1552148461 -2.001413107 0.9322006702 
-17.41244507 -0.9307128787 -2.001413107 0.9322007298 
-17.35381317 -1.704350591 -2.001413107 0.9322006702 
-17.2608242 -2.474623919 -2.001413107 0.9322006702 
-17.13364792 -3.240004778 -2.001413107 0.9322007298 
-16.97256279 -3.99895978 -2.001413107 0.9322006702 
-16.54997063 -5.491630554 -2.001413107 0.9322006702 
-16.28931046 -6.222387791 -2.001413107 0.9322006702 
-15.99638176 -6.940839767 -2.001413107 0.9322007298 
-14.51473141 -9.663427353 -2.001413107 0.9322007298 
-14.0466938 -10.28224087 -1.998045444 0.9323111773 
-12.83496571 -10.30242634 -1.88904047 0.9358823299 
-12.10190868 -10.63299751 -1.849013209 0.937197566 
-11.6169281 -11.1608057 -1.849013209 0.937197566 
-11.10896015 -11.66651344 -1.849013209 0.9371976256 
-9.457314491 -13.04129887 -1.849013209 0.9371976256 
-7.606674671 -14.12695312 -1.84157145 0.9374422431 
-5.688241959 -15.09201145 -1.8511796 0.9371263981 
-1.179165006 -6.391352177 -0.7459648252 0.9741718769 
-0.8676708937 -6.250107288 -0.7242525816 0.9749141335 
-0.3056298792 -6.239067078 -0.7169636488 0.9751634002 
-0.02773925662 -6.234911919 -0.7156351805 0.9752088189 
0.5278369188 -6.228129864 -0.7174125314 0.9751480222 
0.8083984256 -6.229604244 -0.7210140824 0.9750248194 
3.060239077 -13.81188488 -1.62374258 0.9446328878 
3.716586828 -13.82944298 -1.64363265 0.9439740181 
5.085673809 -13.8660593 -1.695184469 0.9422684908 
5.80583477 -13.88531685 -1.727432966 0.9412032366 
6.555444241 -13.90537071 -1.764493108 0.9399803877 
8.593300819 -13.28845692 -1.81634748 0.9382721186 
9.340927124 -13.1249218 -1.849013209 0.9371976256 
10.47048759 -12.24277306 -1.849013209 0.937197566 
11.00473118 -11.76488781 -1.849013209 0.937197566 
11.51720142 -11.26371574 -1.849013209 0.9371975064 
12.00682545 -10.74023914 -1.849013209 0.937197566 
13.7933979 -10.28651619 -1.974948525 0.9330666661 
14.42816353 -9.792238235 -2.001413107 0.9322006702 
15.93396664 -7.08295393 -2.001413107 0.9322006702 
16.50042915 -5.638730526 -2.001413107 0.9322007298 
17.10414696 -3.392304659 -2.001413107 0.9322006702 
17.23811913 -2.628093243 -2.001413107 0.9322006702 
17.33795929 -1.858676672 -2.001413107 0.9322007298 
17.40348053 -1.085581064 -2.001413107 0.9322006702 
17.43454361 -0.3103417754 -2.001413107 0.9322006702 
17.21403694 2.781425714 -2.001413107 0.9322007298 
16.89869881 4.30039072 -2.001413107 0.9322007298 
14.66185474 6.67431879 -1.849013209 0.9371976256 
14.3504343 7.319987774 -1.849013209 0.9371975064 
14.04265118 7.969299316 -1.853244543 0.9370585084 
13.66975784 8.583264351 -1.852637291 0.937078476 
11.91935062 10.85450649 -1.850347996 0.9371537566 
11.42142105 11.37071705 -1.849816203 0.9371712208 
10.90127945 11.86423302 -1.849302769 0.9371880889 
7.374355316 14.29947758 -1.846659303 0.9372749925 
6.729648113 14.6105175 -1.846299529 0.9372867942 
6.07197237 14.89270973 -1.845964789 0.937297821 
5.402509689 15.14556122 -1.845655441 0.9373079538 
4.722709656 15.36853027 -1.845372677 0.9373173118 
4.033833027 15.56123543 -1.845116496 0.937325716 
2.634184599 15.85447693 -1.844686747 0.9373398423 
1.926132798 15.95447254 -1.844513655 0.9373455048 
1.214409113 16.02310562 -1.844369173 0.9373502731 
0.5004101396 16.06025314 -1.844253182 0.9373540878 
-0.2144872993 16.06585884 -1.84416616 0.9373569489 
-1.027133822 6.944360256 -0.8057290316 0.9721316695 
-3.485844612 7.065224648 -0.9042618871 0.9687774777 
-4.282856464 7.027499676 -0.9445915222 0.9674078822 
-4.754281998 7.07260704 -0.9781402349 0.9662700891 
-6.470947266 7.299135685 -1.119599462 0.9614869952 
-6.951860428 7.171831131 -1.146418691 0.960582912 
-8.454965591 7.296371937 -1.281833053 0.956030786 
-9.209633827 7.258622646 -1.345912099 0.953884244 
-10.13339806 7.280004501 -1.432119727 0.9510039687 
-12.49489689 7.38796854 -1.666076064 0.9432311654 
-14.83482838 6.280512333 -1.849013209 0.937197566 
-16.59819794 5.344101429 -2.001413107 0.9322006702 
-16.8194828 4.600463867 -2.001413107 0.9322007298 
-17.00748444 3.847709894 -2.001413107 0.9322007298 
-17.28215218 2.320873976 -2.001413107 0.9322007298 
-17.43730927 0 -2.001413107 0.9322006702 
-17.42004776 -0.7756689191 -2.001413107 0.9322006702 
-17.16180611 -3.087363243 -2.001413107 0.9322007298 
-16.81948662 -4.600463867 -2.001413107 0.9322007298 
-16.34402275 -6.077221394 -2.001413107 0.9322006702 
-16.05749893 -6.798232079 -2.001413107 0.9322007298 
-15.73920345 -7.505825043 -2.001413107 0.9322006702 
-15.00981903 -8.875004768 -2.001413107 0.9322006106 
-14.1615963 -10.17392063 -2.001413107 0.9322007298 
-13.06673336 -10.29862309 -1.909594417 0.9352080226 
-9.573041916 -12.95660114 -1.849013209 0.937197566 
-8.391972542 -13.76993656 -1.850864768 0.9371367693 
-7.77137661 -14.13020515 -1.850937247 0.9371343255 
-7.117743969 -14.42670822 -1.846430659 0.9372825027 
-4.359414101 -12.9448967 -1.567777276 0.9464892149 
-3.731957912 -12.96167946 -1.548149347 0.9471411109 
-1.733906269 -7.215175629 -0.8517181277 0.9705646634 
-0.9245947003 -6.251059532 -0.7252871394 0.9748787284 
-0.6415038705 -6.246059418 -0.7206786871 0.9750363231 
-0.3613916039 -6.240326881 -0.7174502611 0.9751467705 
0.1941943318 -6.23255825 -0.7157049179 0.9752064347 
1.336733341 -6.298061371 -0.7389785647 0.9744105935 
3.584047794 -13.82588863 -1.639356971 0.9441156387 
4.254228592 -13.84382248 -1.662296057 0.943356216 
5.659638405 -13.8814106 -1.720613837 0.9414283633 
6.40297842 -13.90130329 -1.756677151 0.9402381182 
7.179716587 -13.92207527 -1.797919989 0.9388788342 
7.606156826 -13.26494122 -1.755056858 0.9402915835 
9.802114487 -12.78417492 -1.849013209 0.937197566 
10.89957047 -11.86238289 -1.849013209 0.937197566 
11.41647911 -11.3657856 -1.849013209 0.937197566 
11.91074657 -10.84668922 -1.849013209 0.9371976256 
12.39790058 -10.31980228 -1.851468444 0.9371168613 
13.54572964 -10.29066658 -1.952518821 0.9338009357 
14.34050274 -9.920222282 -2.001413107 0.932200551 
15.16540718 -8.606389046 -2.001413107 0.9322007298 
15.87031746 -7.22443819 -2.001413107 0.9322007298 
16.44961357 -5.785309792 -2.001413107 0.9322006702 
17.0732708 -3.544416428 -2.001413107 0.9322007298 
17.21404266 -2.78142333 -2.001413107 0.9322006702 
17.32073212 -2.012934446 -2.001413107 0.9322006702 
17.39312744 -1.240458965 -2.001413107 0.9322006702 
17.43109131 -0.4655175805 -2.001413107 0.9322006702 
17.43454361 0.3103369176 -2.001413107 0.9322006702 
17.23810577 2.628168821 -2.001413107 0.9322006702 
17.10412979 3.392382622 -2.001413107 0.9322006702 
16.93629074 4.149875164 -2.001413107 0.9322007298 
16.73492813 4.899147987 -2.001413107 0.9322007298 
16.40043831 5.604547977 -1.989284039 0.9325973988 
14.99716759 5.8822999 -1.849013209 0.9371976256 
14.41500473 7.191957951 -1.849013209 0.937197566 
14.1139698 7.844509125 -1.853367567 0.9370544553 
13.35219669 9.061994553 -1.852160573 0.9370940924 
12.48616409 10.20650864 -1.851008892 0.9371320009 
12.01619625 10.74862289 -1.850456476 0.9371501207 
11.52283669 11.26924801 -1.849921227 0.9371677041 
11.00705528 11.76736832 -1.849403977 0.937184751 
10.46987724 12.24206543 -1.848905921 0.9372011423 
9.91232872 12.69244576 -1.848427892 0.9372168183 
9.33561039 13.11756325 -1.847970843 0.9372318387 
8.740785599 13.51667976 -1.84753561 0.9372461438 
4.562182426 7.794799805 -1.036642671 0.9642890692 
6.204443455 14.83861828 -1.846029639 0.9372956753 
5.537290096 15.09735775 -1.845715284 0.9373059869 
4.859472752 15.32633305 -1.845427155 0.9373155236 
4.172289848 15.52512646 -1.84516561 0.9373241067 
2.068110228 15.93696785 -1.84454596 0.9373444915 
-0.6592431664 7.033964634 -0.8108799458 0.9719560742 
-0.9729345441 7.008144379 -0.8120937943 0.9719147086 
-1.925815344 6.919643402 -0.8244082332 0.9714949727 
-2.693598509 7.146650314 -0.8766064048 0.969717741 
-3.415639639 7.081093788 -0.9023655653 0.9688419104 
-3.874233246 7.19510746 -0.9379487634 0.9676333666 
-4.191821098 7.017949104 -0.9382546544 0.9676229358 
-8.947641373 7.182099342 -1.316910863 0.9548552036 
-11.18730927 7.448120117 -1.542597651 0.9473255277 
-13.54530239 7.37138176 -1.77000773 0.9397985935 
-14.77833939 6.412314415 -1.849013209 0.937197566 
-15.0489397 5.748579025 -1.849013209 0.937197566 
-16.7778759 4.749995232 -2.001413107 0.9322006702 
-16.97256279 3.998950005 -2.001413107 0.9322007298 
-17.26081467 2.47461915 -2.001413107 0.9322007298 
-17.35381317 1.704350591 -2.001413107 0.9322006702 
-17.41247559 0.9306884408 -2.001413107 0.9322006106 
-17.43661499 0.1551464796 -2.001413107 0.9322006702 
-17.42625427 -0.6206591725 -2.001413107 0.9322006702 
-17.30212402 -2.167031288 -2.001413107 0.9322007298 
-17.18859863 -2.934555531 -2.001413107 0.9322006702 
-16.85975456 -4.450644493 -2.001413107 0.9322006702 
-16.39746094 -5.931494236 -2.001413107 0.9322007298 
-16.11737823 -6.655043602 -2.001413107 0.9322007298 
-15.80538082 -7.365415096 -2.001413107 0.9322007298 
-15.0881443 -8.74104023 -2.001413107 0.9322008491 
-14.25158691 -10.04745579 -2.001413107 0.9322007298 
-13.3036375 -10.29470158 -1.930749893 0.9345143437 
-11.31483841 -11.46695805 -1.849013209 0.937197566 
-10.79353046 -11.95892525 -1.849013209 0.9371976256 
-6.616391659 -14.7077589 -1.851071715 0.9371299148 
-3.856230497 -12.958354 -1.551790595 0.9470201135 
-1.81041503 -7.248915672 -0.8575688004 0.9703654647 
0.4164501727 -6.229726315 -0.7166288495 0.9751748443 
0.6954443455 -6.225532055 -0.7189958096 0.9750939012 
0.9777685404 -6.227109432 -0.7234902978 0.9749401808 
3.452128887 -13.82236767 -1.635229707 0.9442523122 
4.118647575 -13.8401947 -1.657392859 0.9435185194 
4.804868221 -13.85854912 -1.683543682 0.942653358 
7.021410942 -13.91784668 -1.789231181 0.9391649961 
7.459863186 -13.28240681 -1.748512506 0.9405074716 
8.257787704 -13.28237724 -1.795131922 0.9389705658 
9.10579586 -13.2891407 -1.849013209 0.937197566 
10.25094223 -12.4271822 -1.849013209 0.937197566 
10.79361343 -11.95887661 -1.849013209 0.937197566 
11.31490231 -11.46690369 -1.849013209 0.937197566 
11.81372547 -10.95228958 -1.849013209 0.937197566 
13.30352497 -10.29470158 -1.930738926 0.9345146418 
14.68439388 -9.403627396 -2.001413107 0.9322006702 
15.08820248 -8.741037369 -2.001413107 0.9322006702 
15.46213818 -8.061137199 -2.001413107 0.9322006702 
16.64511108 -5.196147442 -2.001413107 0.9322006702 
16.85975838 -4.450639725 -2.001413107 0.9322006702 
17.18860817 -2.934543371 -2.001413107 0.9322006702 
17.30213547 -2.166962862 -2.001413107 0.9322006702 
17.42625618 -0.6205834746 -2.001413107 0.9322006702 
17.43661308 0.1551342756 -2.001413107 0.9322006702 
17.35382271 1.704270005 -2.001413107 0.9322006702 
17.13366508 3.239919424 -2.001413107 0.9322006702 
16.77785301 4.750061035 -2.001413107 0.9322007298 
16.549963 5.491625786 -2.001413107 0.9322007298 
13.01790524 9.529084206 -1.851692796 0.93710953 
12.57729435 10.0955658 -1.851121306 0.9371283054 
12.11206532 10.64191914 -1.850565553 0.9371465445 
8.038393021 7.722714901 -1.279428124 0.9561114311 
11.11192799 11.66961384 -1.849505901 0.9371814132 
6.173359394 7.76139164 -1.13826561 0.9608576894 
9.452514648 13.03454113 -1.848060608 0.9372289181 
8.861171722 13.43895435 -1.847620964 0.937243402 
8.252660751 13.81674767 -1.84720397 0.9372571111 
7.628305435 14.16712856 -1.846810102 0.9372700453 
6.989086628 14.4895649 -1.846440434 0.9372822046 
6.336508751 14.78333473 -1.846095562 0.9372935295 
5.671576977 15.04798794 -1.845775962 0.9373040199 
0.7862499952 16.04917526 -1.844296098 0.9373526573 
0.07146972418 16.06740189 -1.844197512 0.9373559356 
-0.5991162062 7.069233418 -0.8142997622 0.9718394876 
-0.9092236161 7.006284237 -0.8109086156 0.9719551206 
-1.874599576 6.975400448 -0.8290302753 0.9713374972 
-2.170512676 6.845507622 -0.8242635727 0.9714999199 
-2.615888596 7.132196903 -0.8719436526 0.9698764086 
-3.298676729 6.997109413 -0.8878863454 0.9693341255 
-3.773081064 7.159130573 -0.928845346 0.9679424167 
-5.611040115 7.184697151 -1.046327949 0.9639615417 
-6.278754711 7.341572285 -1.108788371 0.9618517756 
-7.315854549 7.154907227 -1.17452085 0.9596364498 
-8.905854225 7.279779911 -1.320239544 0.9547436237 
