# .PCD v0.7 - Point Cloud Data file format
VERSION 0.7
FIELDS x y z intensities
SIZE 4 4 4 4
TYPE F F F F
COUNT 1 1 1 1
WIDTH 941
HEIGHT 1
VIEWPOINT 0 0 0 1 0 0 0
POINTS 941
DATA ascii
6.699286938 100.2219391 19.04857063 0.6643518806 
-46.7926712 104.0167542 21.62987709 0.628537178 
-48.4708519 96.07884216 20.40781212 0.6452456713 
-57.09148788 40.24986649 13.24703789 0.7524706125 
-62.57429123 -17.71546364 12.33303452 0.7673816085 
-60.67132187 -20.13201523 12.12263393 0.7708556056 
-54.95304108 -23.84413528 11.36005974 0.7835793495 
-55.03337097 -26.84823608 11.61231422 0.7793476582 
-56.0049057 -30.47805023 12.0916748 0.7713681459 
-61.29120636 -36.98015213 13.57507515 0.7471899986 
-59.2891922 -43.39961243 13.93405247 0.7414536476 
-8.359052658 -13.99473095 3.091355324 0.9357877374 
-7.754584789 -14.4016552 3.101891994 0.9355760217 
-6.875292778 -16.04034615 3.309554577 0.9314143658 
-3.016059399 -13.0611763 2.542111158 0.9468873143 
-1.228549719 -13.10898876 2.496890783 0.947807014 
-0.6429247856 -13.12464809 2.491952419 0.9479075074 
-0.05845702812 -13.14029312 2.491956711 0.9479073882 
1.10947752 -13.09118176 2.49151969 0.9479162693 
1.711318374 -13.18762684 2.521878958 0.947298646 
2.314726591 -13.20375443 2.542155981 0.9468864202 
3.557363272 -13.23699665 2.599342823 0.9457246065 
5.557114124 -13.29048824 2.731869698 0.9430376887 
7.772275448 -13.27930641 2.917931557 0.9392783046 
8.64805603 -13.37315845 3.020174742 0.9372188449 
11.50254345 -13.44951153 3.356145144 0.9304831624 
14.36832523 -14.05212402 3.811311245 0.9214351177 
15.75061226 -14.08909893 4.007590771 0.9175605178 
17.2862072 -14.13017082 4.234022617 0.9131109118 
23.23323441 -14.3014307 5.173799992 0.8948729634 
68.8723526 31.35184288 14.35058975 0.7348527312 
68.9048233 35.1476059 14.66895485 0.7298473716 
69.1905899 43.44483948 15.49353027 0.7170411348 
69.37432861 52.70352554 16.52210999 0.7013809085 
23.61812973 91.11128998 17.84949493 0.6816758513 
20.85456085 98.25681305 19.04857063 0.6643518806 
-47.51661682 96.30867004 20.3660202 0.6458248496 
-6.064492226 9.950893402 2.209931374 0.9536640644 
-60.65518951 -19.52934074 12.08421612 0.7714917064 
-57.5615654 -21.40319824 11.6462059 0.7787804604 
-54.93737793 -23.25873566 11.31359577 0.7843614221 
-26.05050659 -12.42313004 5.473242283 0.8891387582 
-7.762284756 -14.11366177 3.054620266 0.9365260601 
-7.254702091 -14.70428181 3.109452248 0.9354242682 
-4.359414101 -12.9448967 2.590348959 0.9459072351 
-3.754916906 -13.04141617 2.573653698 0.946246326 
-1.936147451 -13.09006786 2.509415627 0.9475521445 
-0.1743212789 -13.0568409 2.476328611 0.9482254982 
0.4098193347 -13.152812 2.495518208 0.947834909 
0.9980565906 -13.16854477 2.504453659 0.9476531148 
1.591704011 -13.18441868 2.518456697 0.9473682642 
2.19322753 -13.20050716 2.537670612 0.9469775558 
4.732983112 -13.26843739 2.67152977 0.9442601204 
6.830126762 -13.24418449 2.825959682 0.9411347508 
11.29208946 -13.44388199 3.329526663 0.9310150743 
17.96025276 -19.54678154 5.034048557 0.8975618482 
14.1077776 -14.04516125 3.775211334 0.9221494794 
15.46278572 -14.08139896 3.966091633 0.9183783531 
18.41355133 -13.9887495 4.385353088 0.9101492167 
20.5525856 -14.21753407 4.73929882 0.9032594562 
25.66589546 -14.56541443 5.596457481 0.8867898583 
28.35348511 -14.46264172 6.036082745 0.8784596324 
77.70981598 30.4799366 15.82999802 0.7118803859 
68.9903183 38.34462738 14.96837139 0.72517097 
70.05838776 43.12510681 15.60127735 0.7153843641 
69.34793091 51.71643448 16.40553093 0.703138411 
32.64200211 88.99802399 17.97694588 0.6798117757 
30.35848618 95.74800873 19.04857063 0.6643518209 
24.02270508 89.38863373 17.5532074 0.6860256791 
17.34443855 98.93677521 19.04857063 0.6643518806 
12.92620564 99.61038208 19.04857063 0.6643518806 
8.482382774 100.0867844 19.04857063 0.6643518806 
-51.77050018 96.14702606 20.70858765 0.641092658 
-57.98567581 97.07952881 21.44430351 0.6310462952 
-50.862854 22.06940842 10.51452732 0.797933042 
-60.13679123 -21.75343132 12.1275816 0.7707737088 
-55.00081253 -25.63074684 11.50733852 0.7811057568 
-8.529486656 -13.71938896 3.063584805 0.9363458157 
-6.688837528 -14.86880779 3.091911316 0.9357765913 
-3.879960775 -13.03807068 2.579707384 0.946123302 
-3.260385752 -13.05464363 2.551733732 0.9466916919 
-2.652929544 -13.07088852 2.529313087 0.9471474886 
-2.05487299 -13.08689404 2.512213469 0.9474952221 
-1.463691354 -13.10270023 2.500260353 0.947738409 
0.8800829649 -13.16538525 2.502264977 0.9476976395 
1.472460866 -13.18123531 2.515246868 0.9474335909 
3.304238319 -13.23021984 2.586054564 0.9459944963 
3.94220686 -13.24728966 2.621104002 0.9452828765 
5.278271198 -13.28303146 2.710594416 0.9434685111 
6.679526329 -13.24015617 2.812301874 0.9414107203 
8.308584213 -13.36407185 2.984243155 0.9379420877 
9.116909027 -13.30536079 3.058749676 0.9364429712 
10.09508801 -13.41187 3.183416367 0.933940053 
11.08502388 -13.438344 3.303598166 0.9315335155 
12.08041191 -13.3846283 3.419239044 0.9292236567 
18.29483604 -14.15714836 4.386918545 0.9101186395 
19.25733185 -13.57654762 4.468313217 0.9085296392 
25.00174522 -14.4842329 5.479533672 0.8890185952 
27.68942261 -14.43578625 5.921820164 0.8806171417 
31.59622192 -14.72404289 6.610600471 0.8676912189 
68.86331177 33.59558487 14.53050709 0.7320199013 
69.32191467 50.74351883 16.29192162 0.7048555017 
69.45582581 55.75096893 16.89003181 0.6958626509 
39.57164383 92.32226562 19.04857063 0.6643518806 
31.20955467 95.47397614 19.04857063 0.6643518806 
26.93122101 96.76789093 19.04857063 0.6643518806 
9.372470856 100.0073624 19.04857063 0.6643518806 
-46.77376175 99.21622467 20.80146599 0.6398155093 
-63.68485641 98.48068237 22.24073601 0.6203482151 
-60.62323761 -18.33458519 12.01091003 0.7727067471 
-60.70388031 -21.34976006 12.20315933 0.769524157 
-56.44167328 -22.71945763 11.53825378 0.7805874348 
-55.11809921 -25.09094238 11.48471165 0.7814852595 
-55.09833527 -28.1046524 11.7297039 0.7773858309 
-59.12132263 -37.12201691 13.23873234 0.752604723 
-59.22423172 -40.96949768 13.65677452 0.7458805442 
-7.723603249 -13.46975517 2.944555998 0.9387415648 
-5.732651234 -16.07088852 3.235788107 0.932890594 
-3.383271456 -13.05135727 2.556876421 0.9465872049 
-2.773549795 -13.06766605 2.533363581 0.947065115 
-1.571792006 -13.01945782 2.486947775 0.9480093718 
-0.4091406167 -13.13090324 2.491361618 0.947919488 
0.1755664051 -13.14654732 2.493341684 0.9478791952 
2.559067249 -13.21030235 2.551781893 0.9466906786 
3.789941311 -13.16287613 2.597627878 0.9457594156 
4.465961933 -13.26130295 2.653661489 0.9446223974 
5.109052658 -13.19815922 2.683900118 0.9440094829 
8.141913414 -13.35962391 2.966953993 0.938290298 
8.995746613 -13.38246059 3.057944536 0.9364591837 
10.88095188 -13.4328804 3.278302908 0.9320394993 
14.90466499 -14.06647396 3.886545658 0.9199479818 
16.34485817 -14.10499191 4.094242096 0.9158551693 
17.95068169 -14.14794445 4.334403992 0.9111452103 
18.98866081 -13.64165497 4.433960915 0.9091999531 
27.42985344 -14.61260223 5.893906116 0.8811450601 
30.37448692 -14.48501396 6.381697655 0.8719657063 
37.18174744 -15.74158669 7.65707016 0.8484149575 
72.20149994 30.56784821 14.86890507 0.7267211676 
68.94713593 36.72995377 14.81480408 0.7275657058 
69.23693085 45.21172333 15.68163776 0.7141512632 
69.42826843 54.72029114 16.76427269 0.6977439523 
23.47025871 97.66505432 19.04857063 0.6643518806 
14.69697762 99.36454773 19.04857063 0.6643518806 
5.201835632 89.82199097 17.06244659 0.6932917833 
-47.43907547 102.9934082 21.50403976 0.6302375197 
-61.62130356 97.17491913 21.82116318 0.6259613037 
-50.60693741 23.03740692 10.5447216 0.7974155545 
-60.68643951 -17.76595116 11.99164295 0.7730264664 
-60.68753433 -20.7385788 12.16226196 0.7702000737 
-54.96882248 -24.43437958 11.40779972 0.782776475 
-56.02255249 -31.13750458 12.15487003 0.7703222632 
-60.12634277 -37.01131439 13.3895092 0.7501724958 
-59.31143951 -44.23168182 14.03121758 0.7399086952 
-8.697226524 -13.44917488 3.037343264 0.936873436 
-8.28750515 -14.15974045 3.11138463 0.935385406 
-7.742992878 -14.691782 3.149419069 0.9346219301 
-6.708852291 -16.04480362 3.298026323 0.9316449165 
-5.892783165 -16.06661034 3.245354176 0.9326990247 
-3.506596565 -13.04805183 2.562240839 0.946478188 
-2.293115139 -13.08051205 2.518427134 0.9473689198 
-1.699433565 -13.09640121 2.504431009 0.947653532 
0.05846679583 -13.14340782 2.492549896 0.9478953481 
0.6446630955 -13.15908623 2.498491764 0.9477744699 
1.831269503 -13.19082451 2.525509357 0.9472248554 
2.421704054 -13.12626934 2.531285048 0.9471074343 
5.00357914 -13.2756834 2.690489769 0.9438758492 
5.698242188 -13.2942524 2.742962837 0.942813158 
6.420131683 -13.30974102 2.802367449 0.9416114688 
7.977143288 -13.35521412 2.950095654 0.9386299253 
8.820824623 -13.37777328 3.038822889 0.9368437529 
9.71883297 -13.40180588 3.139478445 0.9348214269 
10.68016052 -13.42750931 3.2536726 0.9325324893 
11.7164011 -13.45522881 3.383464575 0.9299376607 
17.97807503 -18.88037491 4.944060326 0.899297595 
16.04441643 -14.0969553 4.050271988 0.9167201519 
18.52027702 -13.55683041 4.352609634 0.9107892513 
23.70373917 -14.30182076 5.250031471 0.8934096694 
30.09883308 -14.68398857 6.351007938 0.8725404143 
37.19151688 -16.1374073 7.688345909 0.8478454947 
68.92588043 35.93506241 14.74096394 0.7287201285 
69.43835449 48.954422 16.11188889 0.7075850964 
39.98807907 88.8915863 18.48456192 0.6724441051 
24.33827019 97.45236206 19.04857063 0.6643518806 
19.97953606 98.43849182 19.04857063 0.6643518806 
14.25638676 90.79714966 17.42979622 0.6878457665 
11.15130806 99.82466888 19.04857063 0.6643518806 
-6.088579178 10.84069824 2.357893229 0.9506395459 
-62.57341003 -17.71548271 12.33287334 0.7673842311 
-61.29065704 -36.9801712 13.5749855 0.7471913695 
-56.19030762 -37.40956497 12.80155468 0.75970155 
-7.155141354 -14.8338232 3.123252153 0.9351471663 
-2.412680626 -13.07731438 2.521844387 0.9472993612 
-1.817729473 -13.09323692 2.506823063 0.9476048946 
-1.228549719 -13.10898876 2.496890783 0.947807014 
0.5271191001 -13.15595627 2.496904135 0.947806716 
1.711376905 -13.18762684 2.521880388 0.947298646 
2.314726591 -13.20375443 2.542155981 0.9468864202 
2.929194212 -13.22019005 2.567890167 0.9463634491 
3.557363272 -13.23699665 2.599342823 0.9457246065 
5.557182312 -13.29047775 2.731874704 0.9430376291 
6.982206821 -13.24825191 2.839976788 0.9408515692 
7.772275448 -13.27944279 2.917951584 0.9392778873 
8.64805603 -13.37315845 3.020174742 0.9372188449 
10.45574665 -13.38816357 3.221468687 0.9331774116 
17.96924782 -19.21051216 4.988443375 0.8984410763 
14.36819553 -14.05212402 3.811292887 0.9214354157 
15.75061226 -14.08909893 4.007590771 0.9175605178 
17.28635979 -14.13017559 4.234045506 0.9131104946 
18.42028618 -13.73699665 4.357663631 0.9106904268 
29.03132057 -14.4843502 6.152703762 0.8762629628 
32.72040939 -14.54467297 6.790547848 0.8643456101 
76.44004059 30.76937485 15.62646961 0.7149974704 
69.19058228 43.44446182 15.49349213 0.7170416713 
69.30863953 47.94560623 15.98218822 0.7095581889 
69.37431335 52.70302582 16.52204704 0.7013818026 
37.921875 93.0120697 19.04857063 0.6643519402 
32.36079407 90.71997833 18.26598358 0.6756078601 
20.85456085 98.25681305 19.04857063 0.6643518806 
14.87114239 89.50335693 17.20616913 0.6911559105 
-6.064492226 9.950893402 2.209931374 0.9536640644 
-54.93737793 -23.2586174 10.74952888 0.7846834064 
-55.10036469 -29.35331535 11.24923897 0.7758882642 
-8.403090477 -13.78823662 2.909471035 0.9364788532 
-7.723105431 -14.04235363 2.887665033 0.9369395971 
-6.948881626 -15.82169914 3.113689184 0.932174921 
-6.216059208 -16.05796814 3.102640629 0.9324072599 
-4.359438419 -12.9448967 2.461202621 0.9459961057 
-2.532636642 -13.07411098 2.39956212 0.9473122954 
-1.936157227 -13.09005833 2.384304523 0.9476383924 
-1.34604001 -13.10585403 2.373910189 0.9478605986 
-0.1743115187 -13.05683041 2.352867365 0.9483106732 
0.9980712533 -13.16854 2.379590034 0.9477391839 
2.193242073 -13.20051193 2.411151409 0.9470646977 
3.430468559 -13.23360825 2.463321209 0.9459508657 
4.071948051 -13.2507515 2.497790813 0.9452157021 
4.732954025 -13.26844215 2.538335323 0.9443516135 
6.128656864 -13.30576611 2.639609098 0.9421967864 
6.872123718 -13.32565403 2.701581001 0.9408805966 
10.28731441 -13.41700172 3.046392679 0.9335910082 
11.29209423 -13.44387627 3.163527489 0.9311274886 
17.96024895 -19.54675293 4.783064365 0.8977258205 
19.76149559 -13.67038059 4.329698086 0.9069535136 
25.66576385 -14.56541443 5.317415714 0.8869702816 
28.71472168 -14.64696789 5.808217525 0.8772048354 
77.56833649 30.42431259 15.01337242 0.7127293348 
69.32823944 30.81761742 13.67054749 0.7346479893 
69.10244751 42.53660202 14.62118053 0.7190625072 
72.37621307 59.16217804 16.84374237 0.6839018464 
40.78156662 97.53352356 19.04857063 0.6507207155 
18.25446701 104.1282578 19.04857063 0.6507207751 
-47.55270767 98.58390045 19.72195053 0.6409114003 
-52.03591156 96.63986969 19.77698517 0.6401162744 
-60.7016716 -18.94963264 11.45814896 0.7722405791 
-56.25042343 -39.65700531 12.40116692 0.7559873462 
-59.35692596 -45.93201447 13.52353573 0.7370882034 
-7.72895956 -13.76152325 2.843949318 0.937863946 
-6.379218578 -16.05360794 3.11264348 0.9321968555 
-4.486908913 -12.94148922 2.468048573 0.9458500147 
-3.260385752 -13.05464363 2.424512386 0.9467793107 
-2.054863214 -13.0868845 2.386962414 0.9475815892 
-1.463671803 -13.102705 2.375605345 0.9478243589 
-0.8769335747 -13.11840343 2.369024038 0.9479650855 
-0.2922705114 -13.13402843 2.367152452 0.9480051398 
2.072187424 -13.19727516 2.407096863 0.9471513033 
3.304228544 -13.23022938 2.457122326 0.9460831285 
4.599028111 -13.26485348 2.529719591 0.9445351958 
5.278271198 -13.28303146 2.575453758 0.9435612559 
5.983959675 -13.30189896 2.628171682 0.9424399137 
6.720629692 -13.32160091 2.688527107 0.9411576986 
8.257807732 -13.28238297 2.818126202 0.9384104013 
11.08496571 -13.438344 3.138885021 0.9316452146 
12.08035851 -13.38462639 3.248762369 0.9293389916 
17.9952774 -18.23713303 4.61649847 0.9011051059 
18.29496574 -14.15715313 4.168220043 0.9102630019 
27.68941879 -14.4359417 5.626590252 0.8808060288 
70.83696747 56.85978699 16.36709213 0.6912945509 
37.28443909 98.92316437 19.04857063 0.6507207751 
32.60187531 99.73361206 18.9064846 0.652811408 
28.34469223 101.8454666 19.04857063 0.6507207751 
23.78608894 103.0055618 19.04857063 0.6507207155 
19.18047714 103.9617004 19.04857063 0.6507207155 
14.53690434 104.7119904 19.04857063 0.6507207751 
9.864506721 105.2550049 19.04857063 0.6507207155 
-46.8037262 99.27881622 19.77698517 0.6401177049 
-51.06538391 96.89362335 19.73511887 0.6407210827 
-56.34550095 96.26939392 20.09909821 0.6354822516 
-62.38657761 96.47351074 20.70117188 0.6269101501 
-26.25391006 7.685776234 4.929131508 0.8947729468 
-60.68573761 -18.35354996 11.4238596 0.7728381753 
-56.44146729 -22.71945763 10.96296406 0.7809147239 
-55.16267014 -25.1110878 10.92093754 0.7816553712 
-55.24473953 -28.17955589 11.17452335 0.7771968842 
-55.85839081 -31.69985771 11.57270336 0.7702476978 
-18.10025787 -13.75069809 4.095815659 0.9117509127 
-8.571611404 -13.51735306 2.884049654 0.9370159507 
-7.667910099 -13.3726902 2.777584553 0.9392689466 
-6.543447018 -16.04922867 3.122959137 0.9319799542 
-5.732616901 -16.07089233 3.074460268 0.9330000877 
-4.005561352 -13.03471184 2.457065105 0.9460843801 
-3.383246899 -13.0513525 2.42939806 0.9466750026 
-0.994042933 -13.11526871 2.369961739 0.9479449987 
-0.4091406167 -13.13090324 2.367151022 0.9480051398 
2.559013605 -13.21028805 2.424557447 0.9467784166 
3.178608418 -13.22686958 2.451147079 0.9462106824 
6.530405045 -13.23617649 2.659453392 0.9417751431 
8.995815277 -13.38247013 2.905492783 0.9365628362 
9.905630112 -13.40679646 3.003561735 0.9344933629 
17.98675346 -18.55592155 4.656489849 0.9002925754 
16.3447113 -14.10499001 3.890096664 0.9159916043 
19.00016975 -13.65001392 4.215462208 0.9092935324 
24.58487701 -14.53650856 5.14627409 0.8904008865 
113.8451538 31.1389637 21.26678658 0.6189625859 
81.69829559 30.37778091 15.70557213 0.701687336 
72.20193481 30.56783676 14.1276598 0.7271119356 
68.90569305 32.86000061 13.75536251 0.7332438827 
68.94713593 36.72984314 14.07618046 0.7279568315 
39.69429779 90.37871552 17.78640175 0.6695132256 
33.51470566 99.51845551 18.92136765 0.6525905132 
14.79822731 100.0490799 18.22356987 0.66294384 
10.80085468 105.1630478 19.04857063 0.6507207155 
-46.7147789 101.4211273 20.12000465 0.6351825595 
-49.95306015 96.86331177 19.63761902 0.6421317458 
-60.66988754 -17.76096153 11.39066124 0.7734170556 
-59.82706451 -36.82710266 12.65863228 0.7516096234 
-56.51991653 -42.14990616 12.70420647 0.750837326 
-6.889311314 -14.61348152 2.911083221 0.936444819 
-6.708769321 -16.04481316 3.133593321 0.9317563772 
-5.892773151 -16.06661606 3.083552122 0.9328087568 
-4.131796837 -13.03133297 2.463262558 0.9459521174 
-1.699487209 -13.09640121 2.379570484 0.9477396011 
-1.111254811 -13.11212349 2.371088743 0.9479209781 
0.05849609151 -13.14342213 2.368280172 0.9479809403 
2.421738148 -13.12628365 2.405085325 0.9471942782 
3.053574085 -13.22352505 2.445394039 0.946333468 
4.333827972 -13.25775814 2.513255835 0.9448860288 
5.003647327 -13.27567387 2.556354523 0.9439678788 
5.698242188 -13.2942524 2.606208801 0.9429069161 
6.421933651 -13.31360817 2.663422108 0.9416908622 
7.975248814 -13.35216236 2.802367687 0.9387440681 
8.820819855 -13.37779236 2.887317181 0.9369469285 
10.68016052 -13.42751408 3.091455221 0.9326424599 
17.97807503 -18.88030624 4.697556496 0.8994590044 
16.04449272 -14.09696007 3.84834981 0.9168545604 
18.52037048 -13.55683804 4.135616779 0.9109327197 
20.48333931 -13.63716793 4.433960915 0.9048229456 
26.4134922 -14.37430191 5.418452263 0.884951055 
34.08772278 -14.79068279 6.69539547 0.8598247766 
73.91894531 30.52191544 14.40991211 0.7224974632 
68.92586517 35.93466187 14.00598621 0.7291103601 
69.46615601 53.7549057 15.82677555 0.6997715235 
39.98851395 88.89157867 17.56310081 0.6728944182 
39.03922272 98.24388123 19.04857063 0.6507207751 
34.63035965 99.88323975 19.04857063 0.6507207155 
30.15291405 101.324852 19.04857063 0.6507207155 
21.02770042 103.6038666 19.04857063 0.6507207155 
14.25634766 90.79563904 16.56052971 0.688284874 
7.051078796 105.480835 19.04857063 0.6507207155 
-46.65362549 103.7077103 20.49042511 0.6298974156 
-6.087788105 10.83939934 2.240063429 0.9507266879 
-56.86903763 40.09303284 12.53753757 0.7536653876 
-50.06045151 23.32854843 9.951498032 0.7989358902 
-61.4654808 -17.40153694 11.51050377 0.7713291645 
-54.95302963 -23.84414482 10.79368877 0.7839022279 
-55.03337097 -26.84835434 11.03335094 0.7796757221 
-56.29182816 -41.2053833 12.570014 0.7531135082 
-8.31775856 -13.92559528 2.922719002 0.9361990094 
-4.258676529 -13.02794933 2.469686747 0.9458150268 
-3.630483389 -13.04474068 2.439809799 0.9464526772 
-2.412704945 -13.07731915 2.396114349 0.9473859668 
-1.817700148 -13.09322739 2.381840706 0.947691083 
-1.228579044 -13.10899353 2.372404337 0.9478927851 
-0.05848632753 -13.14028263 2.367716551 0.9479930401 
0.5271728635 -13.15595627 2.372417212 0.947892487 
2.314726591 -13.20375443 2.415412426 0.9469736814 
4.202470779 -13.25424767 2.505399466 0.9450534582 
7.025121689 -13.32975101 2.714980364 0.9405962825 
7.772275448 -13.27938461 2.77246356 0.9393774271 
8.595146179 -13.29140091 2.852052212 0.9376925826 
18.01190376 -17.61552238 4.539595127 0.9026696086 
15.75061989 -14.08910084 3.80778718 0.9176937938 
18.42028618 -13.73700619 4.140404224 0.910834372 
26.2336731 -14.58059978 5.407977104 0.8851602077 
68.9276123 31.37713242 13.64607525 0.7350536585 
69.17127991 39.25500488 14.33086681 0.7237868905 
69.12564087 43.40389252 14.70724487 0.7176679969 
14.87091732 89.50335693 16.34832191 0.6915873885 
12.67076111 104.954155 19.04857063 0.6507207155 
7.989448071 105.4139252 19.04857063 0.6507207155 
-46.59122467 106.0822449 20.87683487 0.6244309545 
-6.038554668 9.908369064 2.090778351 0.9539335966 
-61.13578415 -19.68394089 11.57270527 0.7702476978 
-58.24120331 -21.65577507 11.19621086 0.7768168449 
-56.27098846 -40.42601013 12.48453236 0.7545670867 
-6.948881626 -15.82169914 3.113688231 0.932174921 
-4.359447956 -12.9448967 2.461203575 0.9459960461 
-3.754912138 -13.04142094 2.445340872 0.9463346004 
-3.137997866 -13.05790997 2.419837236 0.9468792081 
-2.532626867 -13.07411098 2.399561405 0.9473122954 
-1.936147451 -13.09006786 2.384304523 0.9476383924 
-1.34604001 -13.10585403 2.373910189 0.9478605986 
-0.759907186 -13.12152767 2.368273973 0.9479811192 
0.4098144472 -13.15281677 2.371100187 0.94792068 
0.998085916 -13.16854477 2.379590511 0.9477391839 
1.591733336 -13.18442822 2.392896652 0.9474547505 
2.193256855 -13.20051765 2.411152601 0.9470646381 
2.805243969 -13.21688461 2.434545517 0.9465650916 
4.071948051 -13.2507515 2.497790813 0.9452157021 
6.128642559 -13.30577087 2.63960743 0.942196846 
7.652944088 -13.34654236 2.772156954 0.9393839836 
9.352534294 -13.39200211 2.943244457 0.9357656837 
10.28732395 -13.41701126 3.046393633 0.9335909486 
17.96025276 -19.54679108 4.783069134 0.8977257013 
18.00366211 -17.92375374 4.577547073 0.901897192 
15.46285343 -14.08140087 3.768364429 0.9185102582 
16.9653244 -14.12158394 3.977340937 0.9141907096 
18.41355705 -13.98869133 4.166707993 0.9102940559 
23.08724022 -14.49643517 4.912064552 0.8951174021 
25.66576385 -14.56541443 5.317415714 0.8869702816 
32.39169693 -14.74531746 6.412808895 0.8653230071 
77.56804657 30.42431831 15.01331902 0.7127301097 
69.32817841 30.81765556 13.67053413 0.7346481085 
68.9903183 38.34462738 14.22210026 0.7255646586 
69.2212677 46.97968674 15.07400513 0.7117552161 
27.73448944 20.68307304 6.233992577 0.8688203692 
72.37620544 59.1620903 16.84373093 0.6839020252 
24.02271461 89.38863373 16.67806435 0.6864624619 
18.25455475 104.1282578 19.04857063 0.6507207155 
13.60448742 104.8372269 19.04857063 0.6507207155 
-47.55271912 98.58374786 19.72193146 0.6409117579 
-60.7016716 -18.9496727 11.45815849 0.7722405195 
-58.97742462 -21.33404732 11.30079079 0.7749864459 
-55.10899734 -22.75509262 10.74305916 0.7847979069 
-55.21884155 -28.78846169 11.22066593 0.7763884068 
-60.09360886 -34.81399918 12.51385021 0.754068315 
-57.60147858 -36.88662338 12.32470417 0.7572924495 
-56.25042343 -39.65690994 12.40115833 0.755987525 
-59.35691833 -45.9319191 13.52352524 0.7370883822 
-8.487709999 -13.65218735 2.896587133 0.9367510676 
-7.060702801 -13.99572754 2.824575424 0.9382739067 
-6.651855469 -14.78660107 2.92151475 0.9362244606 
-3.879956007 -13.03806591 2.451092243 0.9462118745 
-2.05487299 -13.08689404 2.386962891 0.9475815296 
-1.463691354 -13.10270023 2.375605345 0.9478243589 
-0.876953125 -13.11839771 2.369024038 0.9479650855 
0.8800829649 -13.16538525 2.377511263 0.947783649 
2.072206974 -13.19727993 2.407096863 0.9471513033 
2.681884766 -13.21357918 2.429445982 0.9466739893 
3.304238319 -13.23021984 2.457122326 0.9460831881 
4.599028111 -13.26485348 2.529719591 0.9445351958 
5.278271198 -13.28303146 2.575453758 0.9435612559 
5.983950138 -13.30189896 2.628171444 0.9424399137 
6.720620155 -13.32160091 2.688527107 0.9411576986 
7.493481159 -13.3422699 2.757306814 0.9396986961 
8.257792473 -13.28237724 2.818124056 0.9384104609 
16.65161514 -14.11319542 3.933084249 0.9151037931 
18.29501152 -14.15715313 4.168226719 0.9102628827 
27.68941879 -14.4359417 5.626590252 0.8808060288 
31.59622574 -14.72404766 6.281019211 0.8678992391 
70.55084991 30.61199379 13.85734844 0.731558919 
69.07952118 41.67926788 14.53726196 0.7204249501 
69.19691467 46.06885147 14.97880173 0.713285327 
69.38533783 50.7899437 15.49382401 0.705046773 
70.83696747 56.86008072 16.36712837 0.6912940741 
23.7863121 103.0055084 19.04857063 0.6507207155 
14.5366888 104.7120285 19.04857063 0.6507207155 
-50.23989487 22.3325634 9.906603813 0.7997459173 
-26.25390053 7.685830116 4.929131031 0.8947729468 
-60.68573761 -18.35349083 11.42385006 0.7728382349 
-55.16267014 -25.11097145 10.92092705 0.7816554904 
-58.69913483 -36.85728073 12.48890114 0.7544927001 
-56.23012924 -38.89831543 12.31989765 0.7573744655 
-6.543486118 -16.04922295 3.122962236 0.9319798946 
-5.732573032 -16.07089233 3.074458599 0.9330001473 
-4.005532265 -13.03471184 2.457063437 0.9460844398 
-3.383208036 -13.05136204 2.429397106 0.9466750026 
-2.773549795 -13.06766605 2.407058239 0.9471521378 
-2.173823118 -13.0837059 2.389815807 0.9475206137 
-1.571792006 -13.01946735 2.362956285 0.9480948448 
-0.9940234423 -13.11526299 2.369961739 0.9479450583 
-0.4091406167 -13.13090324 2.367151022 0.9480051398 
0.762260735 -13.16223621 2.375622749 0.9478240013 
1.353452086 -13.17804623 2.386988878 0.9475810528 
3.178593636 -13.22686958 2.451146126 0.9462106824 
4.465961933 -13.26130295 2.52135849 0.9447132945 
6.530439377 -13.23617172 2.659456491 0.9417751431 
8.995834351 -13.38247013 2.905494928 0.9365628362 
11.86072731 -13.37874508 3.221592665 0.9299088717 
18.02798843 -17.01415443 4.466612339 0.9041568637 
16.3447113 -14.10499001 3.890096664 0.9159916043 
17.95067024 -14.14794445 4.118305683 0.9112884998 
27.42986679 -14.61259747 5.600058556 0.8813333511 
30.36354256 -14.47994614 6.061354637 0.8722102642 
113.8452301 31.13897896 21.26678658 0.6189624071 
81.69780731 30.37779427 15.70549202 0.7016885877 
69.35913086 49.82869339 15.38831711 0.7067266703 
70.93711853 55.90950394 16.27462769 0.692737937 
39.69430542 90.37927246 17.7864933 0.6695118546 
38.16317749 98.58750153 19.04857063 0.6507207155 
33.51454926 99.51846313 18.92136192 0.6525906324 
20.10487747 103.7868958 19.04857063 0.6507207155 
14.79822731 100.0490799 18.22356987 0.66294384 
10.80085468 105.1630478 19.04857063 0.6507207155 
-49.95319748 96.86331177 19.63762856 0.642131567 
-55.90766907 -21.92853928 10.82094193 0.7834203243 
-55.22801208 -27.55447769 11.12110329 0.7781339884 
-56.51991653 -42.14990616 12.70420647 0.750837326 
-6.889077187 -14.61307049 2.910999298 0.9364466071 
-6.708769321 -16.04481316 3.133593321 0.9317563772 
-5.892773151 -16.06661606 3.083552122 0.9328087568 
-4.131796837 -13.03133297 2.463262558 0.9459521174 
-2.8769238 -12.98455524 2.396370888 0.9473804832 
-2.293120146 -13.08051682 2.39286685 0.9474554062 
-1.699487209 -13.09640121 2.379570484 0.9477396011 
-1.111254811 -13.11212349 2.371088743 0.9479209781 
-0.5260449052 -13.12778759 2.367338181 0.9480010867 
1.234780192 -13.1748724 2.384328604 0.9476379156 
1.831279278 -13.190835 2.399596214 0.9473115802 
3.053603411 -13.22352028 2.445395231 0.946333468 
4.333827972 -13.25775814 2.513255835 0.9448860288 
5.003647327 -13.27567387 2.556354523 0.9439678788 
7.975248814 -13.35216236 2.802367687 0.9387440681 
10.68016052 -13.42751408 3.091455221 0.9326424599 
18.02000999 -17.31248474 4.50263834 0.9034223557 
20.48336411 -13.63712406 4.433960915 0.9048230052 
23.70398331 -14.30182552 4.988321304 0.8935790062 
26.4134922 -14.37430191 5.418452263 0.884951055 
30.09920502 -14.68399906 6.034430027 0.8727401495 
68.88500214 32.10087204 13.69365788 0.734265089 
69.50148773 40.26422119 14.47293568 0.7214710712 
69.43834686 48.95442581 15.30861568 0.7079985738 
39.98851395 88.89157867 17.56310081 0.6728944182 
39.03922272 98.24388123 19.04857063 0.6507207751 
30.15291405 101.324852 19.04857063 0.6507207155 
25.61577988 102.5658569 19.04857063 0.6507207155 
7.050868988 105.4808578 19.04857063 0.6507207155 
-58.25720215 -22.2538414 11.23691845 0.7761039138 
-54.95302963 -23.84414482 10.79368877 0.7839022279 
-55.03337097 -26.84823608 11.03335094 0.7796759009 
-56.19031525 -37.40958405 12.16331482 0.7600542307 
-7.818540096 -14.52041912 2.971548796 0.9351684451 
-7.115200043 -14.75086403 2.950947285 0.9356031418 
-6.87528801 -16.04034615 3.144552231 0.9315261841 
-6.053940296 -16.06230927 3.092945099 0.9326111078 
-4.258706093 -13.02793407 2.469688892 0.9458150268 
-3.630502939 -13.04474545 2.43981123 0.9464526176 
-3.016059399 -13.0611763 2.415370464 0.9469745755 
-2.412680626 -13.07731915 2.396113634 0.9473859668 
-0.6429247856 -13.12464809 2.367712021 0.9479931593 
1.711318374 -13.18762684 2.396146297 0.9473853111 
2.314726591 -13.20375443 2.415412426 0.9469736814 
3.557363272 -13.23699665 2.469748259 0.9458137751 
4.202470779 -13.25424767 2.505399466 0.9450534582 
5.557114124 -13.29048824 2.595667362 0.9431311488 
6.274609089 -13.30967712 2.651355028 0.9419471622 
7.025087833 -13.32974625 2.714977741 0.9405963421 
8.595180511 -13.29140568 2.852055788 0.9376924634 
9.53444767 -13.39687443 2.962848663 0.9353519678 
17.96924782 -19.21051216 4.73973608 0.8986036181 
15.75061989 -14.08910084 3.80778718 0.9176937938 
17.28620148 -14.13017082 4.022927284 0.9132511616 
18.42028618 -13.73700619 4.140404224 0.910834372 
23.26624489 -14.32175732 4.922836304 0.8948999047 
29.03132057 -14.4843502 5.845952034 0.8764584661 
33.05528641 -14.69370079 6.518040657 0.8632714748 
76.37548828 30.74338341 14.83485889 0.7156050801 
68.92765808 31.37701988 13.6460743 0.7350536585 
68.9048233 35.14759827 13.93761444 0.7302356958 
69.17137909 39.25519562 14.33086014 0.7237863541 
69.1256485 43.40405273 14.70725822 0.7176676989 
69.24593353 47.90220642 15.17163086 0.7101895809 
39.91213226 97.89251709 19.04857063 0.6507207155 
32.36083603 90.72130585 17.3555336 0.6760520339 
31.0532074 101.0525742 19.04857063 0.6507207155 
23.61812973 91.11128998 16.95958138 0.6821172237 
12.67076111 104.954155 19.04857063 0.6507207155 
-47.85810089 97.00080109 19.48968124 0.6442777514 
-55.10038376 -29.3534317 11.24924374 0.7758880854 
-56.53173065 -36.91524887 12.16564465 0.7600143552 
-8.403115273 -13.78821754 2.909468651 0.9364788532 
-7.723081112 -14.04239273 2.887669325 0.9369394779 
-7.271953106 -14.73926258 2.961452961 0.9353814125 
-6.216025352 -16.05797768 3.102637529 0.9324072599 
-4.359414101 -12.9448967 2.461202145 0.9459961057 
-2.532626867 -13.07411098 2.399561405 0.9473122954 
-0.1743212789 -13.0568409 2.352867126 0.9483106136 
0.4098144472 -13.15281677 2.371100187 0.94792068 
2.80521965 -13.21687508 2.434544325 0.9465650916 
3.430512667 -13.23360825 2.463323593 0.9459508061 
4.071982384 -13.25076675 2.497793198 0.9452155828 
6.872143269 -13.32565403 2.701583147 0.9408805966 
7.652944088 -13.34654236 2.772156954 0.9393839836 
9.352534294 -13.39200211 2.943244457 0.9357656837 
11.29208469 -13.44388676 3.163527966 0.9311274886 
17.96025276 -19.54679108 4.783069134 0.8977257013 
15.46277809 -14.08139896 3.768354654 0.918510437 
18.41355133 -13.9887495 4.166714191 0.9102939367 
19.76161766 -13.67038059 4.329717159 0.9069530964 
25.66590118 -14.56541443 5.317437649 0.8869698048 
28.71486282 -14.64696789 5.808241844 0.8772043586 
32.39189148 -14.74532223 6.412841797 0.8653223515 
77.56804657 30.42431831 15.01331902 0.7127301097 
69.32817841 30.81765556 13.67053413 0.7346481085 
68.9903183 38.34462738 14.22210026 0.7255646586 
69.10245514 42.53667068 14.6211853 0.7190623879 
69.2212677 46.97968674 15.07400513 0.7117552161 
72.37620544 59.1620903 16.84373093 0.6839020252 
24.02271461 89.38863373 16.67806435 0.6864624619 
13.60448742 104.8372269 19.04857063 0.6507207155 
8.927435875 105.3386307 19.04857063 0.6507207155 
-52.03591156 96.63986969 19.77698517 0.6401162744 
-49.84673309 21.62852097 9.790727615 0.801838994 
-66.6918869 -17.60534668 12.42859554 0.7555199265 
-60.7016716 -18.9496727 11.45815849 0.7722405195 
-58.97742462 -21.33404732 11.30079079 0.7749864459 
-56.25042343 -39.65690994 12.40115833 0.755987525 
-59.35691833 -45.9319191 13.52352524 0.7370883822 
-7.72895956 -13.76155281 2.843954325 0.9378638864 
-7.060702801 -13.99572754 2.824575424 0.9382739067 
-6.379218578 -16.05360794 3.11264348 0.9321968555 
-3.879956007 -13.03806591 2.451092243 0.9462118745 
-3.260385752 -13.05464363 2.424512863 0.9467793107 
-1.463691354 -13.10270023 2.375605345 0.9478243589 
-0.8768945336 -13.11840343 2.3690238 0.9479650855 
0.2926367223 -13.14967251 2.369971514 0.9479448199 
2.072206974 -13.19727993 2.407096863 0.9471513033 
2.681884766 -13.21357918 2.429445982 0.9466739893 
3.304238319 -13.23021984 2.457122326 0.9460831881 
4.599028111 -13.26485348 2.529719591 0.9445351958 
5.278271198 -13.28303146 2.575453758 0.9435612559 
5.983950138 -13.30189896 2.628171444 0.9424399137 
10.09508801 -13.41187 3.024702311 0.9340478778 
17.99528313 -18.23705482 4.616488457 0.9011052847 
16.65161514 -14.11319542 3.933084249 0.9151037931 
18.29483604 -14.15714836 4.16820097 0.9102634192 
24.84546089 -14.39370537 5.173799992 0.8898482323 
31.59622574 -14.72404766 6.281019211 0.8678992391 
79.66030884 30.43000984 15.36527538 0.7070943117 
70.55084991 30.61199379 13.85734844 0.731558919 
68.9686203 37.53292465 14.14819145 0.7267753482 
69.07953644 41.67961884 14.53729343 0.7204244137 
69.38533783 50.7899437 15.49382401 0.705046773 
37.28411102 98.9233017 19.04857063 0.6507207155 
28.34438324 101.8455658 19.04857063 0.6507207155 
23.7863121 103.0055084 19.04857063 0.6507207155 
19.18025398 103.9617386 19.04857063 0.6507207155 
-46.80356979 99.27954865 19.77698517 0.6401162148 
-51.06577682 96.89363861 19.73515129 0.6407205462 
-56.3452301 96.26939392 20.0990696 0.6354826093 
-50.23989487 22.33230019 9.906585693 0.7997462749 
-26.25390053 7.685830116 4.929131031 0.8947729468 
-56.44165421 -22.71944809 10.96299076 0.7809141874 
-55.16267014 -25.11122513 10.92094707 0.7816551924 
-56.23012924 -38.89831543 12.31989765 0.7573744655 
-8.571581841 -13.51739216 2.884053946 0.9370158911 
-7.315151215 -14.18483829 2.875765085 0.9371911883 
-6.613437176 -14.35821247 2.848395586 0.9377698898 
-6.54339838 -16.04922867 3.122957468 0.9319800138 
-2.173881769 -13.08370113 2.389817238 0.9475205541 
-1.571792006 -13.01946735 2.362956285 0.9480948448 
0.1755712777 -13.14653778 2.369032145 0.9479649663 
0.762260735 -13.16223621 2.375622749 0.9478240013 
2.559067249 -13.21030235 2.424559593 0.9467782974 
3.178593636 -13.22686958 2.451146126 0.9462106824 
7.335707664 -13.3380518 2.742831707 0.9400056005 
9.905658722 -13.40679646 3.003564596 0.9344933033 
17.98675728 -18.55575562 4.656471252 0.9002929926 
18.02798843 -17.01415443 4.466612339 0.9041568637 
16.34485054 -14.10499001 3.890117407 0.9159911871 
19.00029755 -13.65001678 4.215479851 0.9092931747 
68.90569305 32.85982513 13.7553463 0.7332441211 
68.94713593 36.72994995 14.07618713 0.7279567122 
69.11371613 40.8651886 14.46733379 0.7215622663 
69.35912323 49.8282814 15.38827324 0.7067273855 
70.93711853 55.90950394 16.27462769 0.692737937 
39.69430542 90.37927246 17.7864933 0.6695118546 
29.25021362 101.589119 19.04857063 0.6507207155 
24.01518059 99.9325943 18.51901627 0.6585392356 
14.79822731 100.0490799 18.22356987 0.66294384 
10.80039501 105.1631012 19.04857063 0.6507207155 
-46.7147789 101.4209747 20.11997604 0.6351829171 
-55.18342972 96.2383194 19.98927879 0.6370582581 
-60.23299026 -20.58323669 11.46934032 0.7720457315 
-55.90766907 -21.92853928 10.82094193 0.7834203243 
-54.96882248 -24.43437958 10.8390131 0.7831003666 
-55.13489532 -30.64413452 11.36588478 0.7738494277 
-59.82706451 -36.82710266 12.65863228 0.7516096234 
-56.21010208 -38.14952469 12.24065685 0.7587294579 
-8.231674194 -14.0643549 2.936347961 0.9359112978 
-6.889077187 -14.61307049 2.910999298 0.9364466071 
-5.892773151 -16.06661606 3.083552122 0.9328087568 
-4.131733418 -13.03133774 2.463258982 0.945952177 
-2.876870155 -12.98455048 2.39636898 0.9473805428 
-2.293120146 -13.08051682 2.39286685 0.9474554062 
-1.699428678 -13.09639645 2.379569292 0.9477396011 
0.05847655982 -13.14341736 2.368280649 0.9479809999 
0.6446630955 -13.15908623 2.373925447 0.9478603005 
2.421704054 -13.12626934 2.405080795 0.9471943378 
3.684892416 -13.24041462 2.476403952 0.9456717372 
5.00357914 -13.2756834 2.556350946 0.9439679384 
5.698242188 -13.2942524 2.606208801 0.9429069161 
6.422001839 -13.31362247 2.663428068 0.9416906834 
7.179648399 -13.33387184 2.728728771 0.9403046966 
8.820819855 -13.37779236 2.887317181 0.9369469285 
9.718828201 -13.40179634 2.982954979 0.9349278808 
10.68016052 -13.42751408 3.091455221 0.9326424599 
11.7164011 -13.45522881 3.214776278 0.930051744 
18.02001381 -17.31233788 4.50262022 0.9034227729 
23.70374489 -14.30182076 4.988284111 0.8935797215 
26.4134922 -14.37430191 5.418452263 0.884951055 
113.9306793 30.07544327 21.23192787 0.6194494367 
69.50148773 40.26422119 14.47293568 0.7214710712 
69.14911652 44.28184128 14.79553413 0.7162401676 
39.03922272 98.24388123 19.04857063 0.6507207751 
30.15291405 101.324852 19.04857063 0.6507207155 
14.25638199 90.79716492 16.56080818 0.6882805824 
-56.86903763 40.09303284 12.53753757 0.7536653876 
-60.95819855 -20.22722054 11.57270527 0.7702476978 
-58.25720215 -22.25410652 11.23693466 0.7761036158 
-55.11754227 -29.99517059 11.30679035 0.7748816013 
-56.2918396 -41.20558167 12.5700388 0.7531131506 
-8.317714691 -13.92566872 2.922726154 0.9361988902 
-6.87528801 -16.04034615 3.144552231 0.9315261841 
-4.258706093 -13.02793407 2.469688892 0.9458150268 
-3.01611805 -13.0611763 2.41537261 0.9469745159 
-2.412680626 -13.07731915 2.396113634 0.9473859668 
-1.228549719 -13.10898876 2.372404337 0.9478928447 
1.711376905 -13.18762684 2.396148205 0.9473852515 
2.929194212 -13.22019005 2.439863443 0.9464515448 
3.557363272 -13.23699665 2.469748259 0.9458137751 
4.20252943 -13.25424767 2.505403042 0.9450533986 
4.86780262 -13.27204514 2.547210932 0.9441626072 
9.534369469 -13.39687443 2.962839842 0.9353521466 
10.45574665 -13.38816357 3.060857058 0.9332864285 
17.96924782 -19.21051216 4.73973608 0.8986036181 
29.03132057 -14.4843502 5.845952034 0.8764584661 
33.05529404 -14.69353485 6.518028259 0.8632716537 
32.3608017 90.71995544 17.35530472 0.6760555506 
23.61808014 91.10948944 16.95926285 0.6821221113 
21.948843 103.4126358 19.04857063 0.6507207155 
14.87114239 89.50335693 16.34832764 0.6915872693 
-47.85810089 97.00080109 19.48968124 0.6442777514 
-6.038559437 9.908334732 2.09077239 0.9539337158 
-58.24120331 -21.65578651 10.61064148 0.7771313787 
-54.93737793 -23.2586174 10.18732262 0.7849884629 
-26.05052185 -12.42308521 4.928379536 0.8894824982 
-55.10037613 -29.35333443 10.66089535 0.7762038708 
-55.37940979 -39.78539276 11.64411068 0.7582783699 
-56.37817764 -44.43478775 12.25798416 0.7472970486 
-8.36204052 -13.72087383 2.743831396 0.9368772507 
-7.734760761 -14.06355953 2.740771055 0.9369453788 
-7.231542587 -14.6572752 2.790956974 0.9358286262 
-6.940058231 -15.80161572 2.947094917 0.9323628545 
-0.1743115187 -13.0568409 2.229810715 0.9483913183 
3.430468559 -13.23360825 2.334488153 0.9460350871 
4.071948051 -13.25076103 2.367154837 0.9453010559 
5.417153358 -13.28673267 2.450199842 0.9434373975 
6.872123718 -13.32565403 2.560287714 0.940972507 
7.652934551 -13.34654713 2.627169371 0.939478159 
8.477294922 -13.36859798 2.703135014 0.9377837181 
18.00366211 -17.92372513 4.338134289 0.9020465016 
16.96528244 -14.12158394 3.769317865 0.9143223166 
28.71470833 -14.64696789 5.504442215 0.877389133 
67.20623016 -17.10272408 11.84204674 0.7547200918 
77.56834412 30.42431259 14.22816658 0.7131163478 
70.02524567 43.10464859 14.04152679 0.7162861228 
69.34793091 51.71643448 14.77236938 0.7039535046 
14.35516071 110.6228714 19.04857063 0.6359340549 
9.420034409 111.151947 19.04857063 0.6359340549 
-46.52532578 108.5458374 20.16641235 0.619263649 
-46.88501358 97.19966888 18.42804718 0.6453809142 
-51.77054214 96.14704895 18.64705849 0.6420307755 
-60.7016716 -18.94963264 10.85888195 0.7725605965 
-55.21880341 -28.78847122 10.63385487 0.7767035365 
-55.35916519 -39.02865601 11.56636715 0.7596806288 
-56.35612488 -43.60990524 12.16831684 0.7488911152 
-8.446386337 -13.58569813 2.731725693 0.9371467829 
-7.388505459 -14.64547348 2.80112195 0.9356026649 
-4.486908913 -12.94148922 2.338968754 0.9459344149 
-3.260375977 -13.05464363 2.297708988 0.94686234 
-0.8769286871 -13.11839294 2.245122671 0.9480463266 
0.2926122844 -13.14967728 2.246021271 0.9480260611 
0.8800634742 -13.16538048 2.253165245 0.9478651285 
1.472441316 -13.18124008 2.264854431 0.9476018548 
2.072187424 -13.19727516 2.281203508 0.9472337961 
3.304228544 -13.23022938 2.328612566 0.9461672306 
3.942202091 -13.24729443 2.360173702 0.9454578757 
6.720624924 -13.3216114 2.547915936 0.9412491918 
8.308598518 -13.36408615 2.68716383 0.938139677 
9.116943359 -13.30536079 2.754257441 0.9366452098 
11.08496571 -13.438344 2.974719524 0.9317509532 
18.03583908 -16.72060013 4.199738979 0.9050180316 
16.65155983 -14.11319542 3.727374554 0.9152340889 
18.29496384 -14.15715313 3.950218201 0.9104002118 
19.37573242 -13.66006279 4.04823494 0.9082821608 
21.29940605 -13.63965988 4.318980217 0.9024572372 
25.00174904 -14.48426247 4.934051514 0.8893626332 
27.68941879 -14.43594742 5.332316875 0.8809852004 
31.59622955 -14.72404289 5.952517033 0.8680963516 
67.18130493 -17.73446655 11.86499691 0.754308641 
68.92658234 33.62615967 13.09600067 0.7325624824 
70.46748352 38.34870911 13.69963741 0.7221292853 
70.40609741 42.47974014 14.04152679 0.7162861228 
69.19691467 46.0691185 14.19543171 0.7136713266 
69.32189941 50.74326706 14.67004108 0.7056673765 
29.90895844 107.4660339 19.04857063 0.6359340549 
20.23900795 109.6990204 19.04857063 0.6359340549 
4.917016506 100.3733749 17.16051292 0.6651161313 
-47.49688721 100.7498322 19.02022171 0.6363625526 
-50.65618515 96.11724091 18.55309296 0.6434659362 
-62.92239761 97.30210876 19.78698349 0.6248725057 
-50.04051971 22.24388123 9.351220131 0.8007411361 
-65.83501434 -16.75381279 11.60043716 0.7590658069 
-60.24921417 -21.18964386 10.90602303 0.7716955543 
-54.22073746 -24.6823082 10.1730299 0.7852549553 
-59.64874268 -33.850914 11.71165848 0.7570622563 
-55.33919144 -38.28191757 11.49055862 0.7610503435 
-18.09981346 -13.75036144 3.881505966 0.9118880033 
-10.11657238 -15.95371532 3.225846767 0.9262071252 
-7.257206917 -14.0723629 2.703752279 0.9377699494 
-6.562158108 -14.24691868 2.678496838 0.9383329749 
-5.732616901 -16.07089233 2.913664579 0.9331037998 
-3.383246899 -13.05136204 2.302339077 0.9467580914 
-2.773564339 -13.06767082 2.281168222 0.9472345114 
-1.57180655 -13.01946259 2.239372253 0.9481758475 
-0.994042933 -13.11526871 2.246011257 0.9480262399 
-0.4091406167 -13.13090324 2.243347645 0.9480862617 
0.1755126864 -13.14653778 2.245129585 0.9480461478 
1.353452086 -13.17804623 2.262147427 0.9476628304 
2.559013605 -13.21028805 2.29775238 0.9468613863 
3.178608418 -13.22686958 2.322950602 0.9462945461 
4.465981483 -13.26130295 2.38949132 0.9447994232 
5.840493202 -13.29806137 2.48016715 0.9427657723 
6.530405045 -13.23617649 2.520358562 0.9418657422 
7.335741997 -13.33804703 2.599382639 0.9400987625 
8.995815277 -13.38247013 2.753533602 0.9366612434 
18.02799225 -17.0141449 4.23300457 0.9043028951 
18.06607437 -15.59047318 4.074904919 0.9077067375 
19.00016785 -13.65001202 3.994990349 0.9094321728 
20.98487473 -13.70310307 4.279761791 0.903298676 
24.58487701 -14.53649902 4.877120495 0.8905666471 
27.42990494 -14.61260223 5.307177544 0.8815116882 
30.37448692 -14.48509216 5.746406078 0.8723586202 
113.7933197 31.12495995 20.14533806 0.6195737123 
81.53795624 30.31814575 14.8549509 0.7025734186 
72.33848572 30.62563896 13.41409874 0.7270458341 
68.90569305 32.85998535 13.03594494 0.7336086631 
28.91150665 20.77040672 6.078936577 0.8654921651 
69.42826843 54.72032166 15.09539604 0.6985704303 
33.51470566 99.51845551 17.93177032 0.6530371308 
30.86409187 107.1956253 19.04857063 0.6359340549 
-6.187245846 9.75718689 1.972907662 0.9541988373 
-57.09663391 39.49755096 11.85546207 0.7544795275 
-57.14538574 20.09789467 10.34417725 0.7820678949 
-60.23300171 -20.5833931 10.86949444 0.7723656893 
-55.90798187 -21.9285202 10.2550621 0.7837259769 
-54.28802109 -27.08549309 10.36007881 0.7817723751 
-55.13489532 -30.6438427 10.7714138 0.7741679549 
-55.70238495 -37.80460358 11.49564838 0.7609583139 
-56.42331314 -46.1218605 12.44433784 0.7439950705 
-8.191171646 -13.99509716 2.769073009 0.9363154769 
-6.921210766 -14.68115234 2.771605492 0.9362590909 
-3.506596565 -13.0480566 2.307170391 0.9466494322 
-2.876928568 -12.98455048 2.271039009 0.9474625587 
-2.293120146 -13.08051682 2.267718077 0.9475373626 
-0.5260204673 -13.12778759 2.243524313 0.9480822682 
1.234750986 -13.17487717 2.259626389 0.947719574 
2.421738148 -13.12628365 2.279294968 0.9472766519 
3.053574085 -13.22352505 2.317498446 0.9464171529 
3.684926748 -13.24040985 2.346888781 0.9457563758 
4.333827972 -13.25775814 2.381811142 0.9449718595 
6.421923637 -13.31361294 2.524123192 0.9417815208 
7.977065086 -13.35520935 2.656407833 0.9388256669 
11.71635246 -13.45522881 3.046636343 0.930159986 
17.61454391 -14.13895512 3.857037544 0.9124183655 
18.52035522 -13.55683327 3.919319153 0.9110689759 
20.56551743 -13.69188213 4.218921661 0.9046055675 
23.70384216 -14.30182076 4.727406979 0.893740654 
30.0992012 -14.68399334 5.718824387 0.8729306459 
34.08773041 -14.79067802 6.345221996 0.8600329161 
68.88500214 32.10086441 12.97747326 0.734628737 
69.14910889 44.28144455 14.02168179 0.7166240215 
69.38764191 48.91889191 14.49738407 0.708568573 
69.40110016 53.7045784 14.98497772 0.7004058361 
39.96711731 100.5790787 18.48140907 0.6445630789 
-46.7926712 104.0167542 19.47663307 0.6294979453 
-48.47090149 96.07884216 18.37622261 0.6461761594 
-6.051420689 9.733447075 1.957141042 0.9545564651 
-56.82556915 40.062397 11.87273788 0.7541698813 
-56.97361755 20.60916519 10.3458786 0.7820362449 
-58.25720215 -22.25382233 10.64921856 0.7764193416 
-54.95304108 -23.84413528 10.2291708 0.7842081785 
-54.30903625 -26.49498558 10.31868267 0.7825418711 
-55.11754227 -29.995327 10.71545124 0.7751982212 
-60.98589325 -36.79610825 12.16280079 0.7489893436 
-56.46095276 -37.5899353 11.58270264 0.7593857646 
-55.43190765 -40.57591248 11.73061371 0.7567211986 
-56.40058136 -45.27201462 12.34997559 0.7456651926 
-8.276987076 -13.85735798 2.756284237 0.9366000295 
-7.075761795 -14.66909599 2.781108618 0.9360477328 
-6.053901196 -16.06230354 2.931180239 0.9327154756 
-3.630483389 -13.04474068 2.31220603 0.9465361834 
-3.016093731 -13.0611763 2.289045572 0.9470572472 
-2.412704945 -13.07731915 2.270796061 0.9474680424 
-1.228574157 -13.10898399 2.248326063 0.9479741454 
-0.6429541111 -13.12465763 2.243879318 0.9480742812 
-0.05848632753 -13.14028263 2.24388361 0.9480742216 
1.10947752 -13.09118176 2.243489742 0.9480830431 
1.711318374 -13.18762684 2.270826578 0.9474673867 
2.314726591 -13.20375443 2.28908515 0.9470564127 
3.557363272 -13.23699665 2.34057951 0.9458982348 
5.557148457 -13.29048347 2.459915161 0.9432196021 
7.025121689 -13.32975101 2.572985411 0.9406886101 
7.772275448 -13.27938461 2.627461433 0.9394716024 
8.648022652 -13.37315845 2.719513178 0.9374188185 
11.50248528 -13.44951153 3.022036791 0.9307038784 
17.96924782 -19.21051216 4.491845131 0.8987576365 
18.01190948 -17.61551285 4.302170753 0.9028177857 
18.05118561 -16.14699745 4.135723591 0.906395793 
20.0347023 -13.59734058 4.134686947 0.9064181447 
26.23368073 -14.58060551 5.125137806 0.8853332996 
29.03132057 -14.4843502 5.540203571 0.8766437769 
33.05528641 -14.69362259 6.177135944 0.8634750247 
68.96893311 35.18008804 13.22094059 0.7303907275 
70.47892761 39.99705505 13.83812714 0.7197571993 
69.12564087 43.40387726 13.93804073 0.7180497646 
69.24593353 47.90199661 14.37812328 0.7105796337 
32.36080933 90.72064209 16.44771957 0.6764780879 
32.76717377 106.6292725 19.04857063 0.6359341145 
23.61811066 91.11038971 16.07242966 0.6825380325 
8.430346489 111.2313843 19.04857063 0.6359340549 
-46.5960083 106.0926132 19.78698349 0.6248735189 
-53.32403564 96.95519257 18.89507484 0.6382578611 
-5.96703577 9.791020393 1.957960725 0.9545378685 
-56.41263962 40.5277977 11.86136913 0.75437361 
-61.66026688 -16.86544418 10.91599464 0.7715126872 
-61.52991486 -19.81084442 11.03814888 0.7692764401 
-58.24120331 -21.65578651 10.61064148 0.7771313787 
-54.93737793 -23.2586174 10.18732262 0.7849884629 
-55.10037613 -29.3532753 10.66089344 0.7762039304 
-56.62296295 -36.97478104 11.54798031 0.7600126863 
-8.362035751 -13.72087383 2.743832588 0.9368772507 
