# .PCD v0.7 - Point Cloud Data file format
VERSION 0.7
FIELDS x y z intensities
SIZE 4 4 4 4
TYPE F F F F
COUNT 1 1 1 1
WIDTH 920
HEIGHT 1
VIEWPOINT 0 0 0 1 0 0 0
POINTS 920
DATA ascii
-6.524897099 3.626513481 -1.990262508 0.9695696831 
-6.679799557 3.332675695 -1.990262508 0.9695695043 
-6.821391582 3.032236338 -1.990262508 0.9695696831 
-7.063891411 2.413954973 -1.990262508 0.9695696831 
-7.164281845 2.097343683 -1.990262508 0.9695696831 
-7.379702091 1.125092745 -1.990262508 0.9695696831 
-7.450498104 0.4647460878 -1.990262508 0.9695696831 
-7.462309361 -0.1992871016 -1.990262508 0.9695696831 
-7.446064472 -0.531049788 -1.990262508 0.9695696831 
-7.41506815 -0.8617431521 -1.990262508 0.9695696831 
-7.14535141 -2.161005735 -1.990262508 0.9695696235 
-6.924999714 -2.787514687 -1.990262508 0.9695696831 
-6.649819374 -3.392006874 -1.990262508 0.9695696831 
-6.322021484 -3.969614267 -1.990262508 0.9695696831 
-5.737431526 -4.775752068 -1.990262508 0.9695696235 
-5.519311428 -5.026235104 -1.990262508 0.9695696831 
-5.290258884 -5.266787052 -1.990262508 0.9695696831 
-5.050742149 -5.496899128 -1.990262508 0.9695696831 
-4.80121088 -5.716132641 -1.990262508 0.9695696831 
-3.997690439 -6.304301739 -1.990262508 0.9695696831 
-3.421489239 -6.634653091 -1.990262508 0.9695698023 
-2.507993221 -7.031049728 -1.990262508 0.9695696831 
-1.873256803 -7.226142406 -1.990262508 0.9695695639 
-1.55000484 -7.302329063 -1.990262508 0.9695695043 
0.09933593869 -7.464340687 -1.990262508 0.9695695639 
0.4316455126 -7.452485085 -1.990262508 0.9695696831 
0.7624755502 -7.425942421 -1.990262508 0.9695696235 
3.00186038 -6.834814072 -1.990262508 0.9695696831 
3.302993059 -6.694506645 -1.990262508 0.9695695639 
3.88485837 -6.374453068 -1.990262508 0.9695696831 
4.1645751 -6.195336819 -1.990262508 0.9695696831 
4.952114105 -5.585913181 -1.990262508 0.9695696831 
5.195693016 -5.360102654 -1.990262508 0.9695696235 
5.428979397 -5.123671532 -1.990262508 0.9695696831 
5.651528358 -4.877099514 -1.990262508 0.9695696831 
5.862885475 -4.62086916 -1.990262508 0.9695696831 
6.062631607 -4.355493069 -1.990262508 0.9695696831 
6.425746918 -3.799418926 -1.990262508 0.9695696831 
6.874291897 -2.910327196 -1.990262508 0.9695696831 
7.280966759 -1.647221684 -1.990262508 0.9695696831 
7.39855957 -0.9935742021 -1.990262508 0.9695696831 
7.435424805 -0.6634814143 -1.990262508 0.9695696831 
7.457578182 -0.3320654333 -1.990262508 0.9695696831 
7.435434341 0.6634863019 -1.990262508 0.9695696831 
7.347035885 1.321708918 -1.990262508 0.9695696831 
7.280961514 1.647221684 -1.990262508 0.9695696831 
6.874277115 2.910351515 -1.990262508 0.9695696831 
6.738017559 3.213261604 -1.990262508 0.9695696235 
6.588403225 3.509819269 -1.990262508 0.9695696831 
6.425756454 3.799413919 -1.990262508 0.9695696831 
6.250375748 4.0814991 -1.990262508 0.9695696831 
5.862885475 4.62086916 -1.990262508 0.9695696831 
4.952114105 5.585913181 -1.990262508 0.9695696831 
4.547641277 5.614150047 -1.92626524 0.9705336094 
4.156411171 5.62553215 -1.864821315 0.9714600444 
3.845751762 5.720937252 -1.837862492 0.9718665481 
3.050009727 6.181909084 -1.837862492 0.9718666673 
2.200053692 6.532856464 -1.837862492 0.9718666673 
1.907280207 6.624257565 -1.837862492 0.9718666673 
1.310961843 6.767558575 -1.837862492 0.9718666673 
0.7042919993 6.857294559 -1.837862492 0.9718666673 
0.3985302746 6.881830692 -1.837862492 0.9718667269 
0.09200683236 6.892748833 -1.837862492 0.9718666673 
-0.5157470703 6.804887772 -1.819477916 0.9721441865 
-0.8225243688 6.81309557 -1.829651713 0.9719905853 
-1.129829049 6.800136566 -1.837862492 0.9718667269 
-1.431196213 6.743154049 -1.837862492 0.9718666673 
-2.315991163 6.492656231 -1.837862492 0.9718667269 
-2.602529287 6.383207798 -1.837862492 0.9718666673 
-2.883901358 6.261117935 -1.837862492 0.9718666673 
-3.159565449 6.126635551 -1.837862492 0.9718666673 
-3.428969622 5.980019569 -1.837862492 0.9718666673 
-3.691586733 5.821572304 -1.837862492 0.9718666673 
-3.946811438 5.651591778 -1.837862492 0.9718668461 
-4.71146965 5.609199047 -1.953029871 0.9701302052 
-5.290268421 5.266777039 -1.990262508 0.9695696831 
-5.519360065 5.026245117 -1.990262508 0.9695695043 
-5.944194317 4.515790939 -1.990262508 0.9695696831 
-6.322050571 3.96958971 -1.990262508 0.9695696235 
-6.649882793 3.391977549 -1.990262508 0.9695695043 
-6.924975395 2.787514687 -1.990262508 0.9695697427 
-7.042143345 2.476713896 -1.990262508 0.9695696831 
-7.145327091 2.16099596 -1.990262508 0.9695697427 
-7.234399319 1.84101069 -1.990262508 0.9695696831 
-7.309145451 1.517382741 -1.990262508 0.9695696235 
-7.369394302 1.190742135 -1.990262508 0.9695696831 
-7.462319374 0.1992822289 -1.990262508 0.9695696235 
-7.450492859 -0.4647412002 -1.990262508 0.9695696831 
-7.379702091 -1.125097632 -1.990262508 0.9695696831 
-7.25049305 -1.776572227 -1.990262508 0.9695696831 
-6.176743031 -4.192094803 -1.990262508 0.9695696831 
-5.98415041 -4.462705135 -1.990262508 0.9695696831 
-5.779711723 -4.724487305 -1.990262508 0.9695696831 
-5.56383276 -4.976913929 -1.990262508 0.9695696831 
-5.099472523 -5.451728344 -1.990262508 0.9695696235 
-4.851899147 -5.673173904 -1.990262508 0.9695696831 
-4.053627968 -6.268486023 -1.990262508 0.9695696831 
-3.183276415 -6.752260685 -1.990262508 0.9695695639 
-2.879687548 -6.887163162 -1.990262508 0.9695697427 
-2.57043457 -7.008437157 -1.990262508 0.9695698023 
-2.256274462 -7.115878582 -1.990262508 0.9695695043 
-1.288876891 -7.352827072 -1.990262508 0.9695698023 
-0.6303759813 -7.438305378 -1.990262508 0.9695696831 
-0.298828125 -7.458984375 -1.990262508 0.9695696831 
0.03332519531 -7.464892387 -1.990262508 0.9695696831 
0.3651757836 -7.456044674 -1.990262508 0.9695696235 
0.6966406107 -7.432397366 -1.990262508 0.9695696831 
2.001542807 -7.191645145 -1.990262508 0.9695696235 
2.319521427 -7.095483303 -1.990262508 0.9695696235 
2.940878868 -6.861269474 -1.990262508 0.9695696831 
4.646909237 -5.842270374 -1.990262508 0.9695696831 
4.902197361 -5.629775047 -1.990262508 0.9695696831 
5.147768497 -5.406132698 -1.990262508 0.9695696831 
5.821537971 -4.672851562 -1.990262508 0.9695696831 
6.023637772 -4.409267426 -1.990262508 0.9695696831 
6.213818073 -4.136938572 -1.990262508 0.9695696831 
6.709155083 -3.273085833 -1.990262508 0.9695696831 
6.973505497 -2.663828135 -1.990262508 0.9695696831 
7.085102558 -2.350986242 -1.990262508 0.9695696831 
7.182670593 -2.033486366 -1.990262508 0.9695696831 
7.26601553 -1.711967707 -1.990262508 0.9695696831 
7.429233074 -0.7296435237 -1.990262508 0.9695696831 
7.454330921 -0.3984326124 -1.990262508 0.9695696831 
7.464672565 -0.06645019352 -1.990262508 0.9695696831 
7.460238934 0.2657079995 -1.990262508 0.9695696831 
7.441034794 0.5972998142 -1.990262508 0.9695696831 
7.407104492 0.9277099371 -1.990262508 0.9695696831 
7.358500957 1.256293893 -1.990262508 0.9695696831 
7.217719555 1.905331969 -1.990262508 0.9695696831 
7.01981926 2.539296865 -1.990262508 0.9695696831 
6.76634264 3.15316391 -1.990262508 0.9695696831 
6.459311485 3.742070198 -1.990262508 0.9695696831 
6.101166725 4.301352501 -1.990262508 0.9695696831 
5.47441864 5.075136662 -1.990262508 0.9695695639 
5.001611233 5.541635513 -1.990262508 0.9695696831 
4.628940105 5.611708641 -1.939479828 0.9703344703 
4.232748985 5.623369217 -1.876513004 0.971283555 
3.896205902 5.686499119 -1.837862492 0.9718672037 
3.63960433 5.854198933 -1.837862492 0.9718667269 
2.545615196 6.406117916 -1.837862492 0.9718666673 
2.258115292 6.513007641 -1.837862492 0.9718667269 
1.670297861 6.687934399 -1.837862492 0.9718667269 
1.371166945 6.755615234 -1.837862492 0.9718667269 
1.069272399 6.809921741 -1.837862492 0.9718667269 
0.7653076053 6.850751877 -1.837862492 0.9718666673 
0.1533349603 6.891645432 -1.837862492 0.9718667269 
-0.7608984113 6.811450005 -1.827318788 0.9720258117 
-1.371171832 6.755615234 -1.837862492 0.9718666673 
-1.670327067 6.687939167 -1.837862492 0.9718666673 
-2.258105516 6.513017654 -1.837862492 0.9718667269 
-2.828027248 6.286538124 -1.837862492 0.9718667269 
-3.104887724 6.154511452 -1.837862492 0.9718667269 
-3.375600576 6.010302544 -1.837862492 0.9718667269 
-3.63960433 5.854198933 -1.837862492 0.9718667269 
-3.896171808 5.686503887 -1.837862492 0.9718672037 
-5.001635551 5.541611195 -1.990262508 0.9695696831 
-5.243261814 5.313637733 -1.990262508 0.9695695043 
-5.47439909 5.07514143 -1.990262508 0.9695696235 
-5.694721699 4.826601505 -1.990262508 0.9695696235 
-6.28646946 4.025702953 -1.990262508 0.9695696235 
-6.619374752 3.451025248 -1.990262508 0.9695696831 
-6.766371727 3.153159142 -1.990262508 0.9695695639 
-7.125805378 2.224511623 -1.990262508 0.9695697427 
-7.295327187 1.582377911 -1.990262508 0.9695696831 
-7.358510494 1.256284118 -1.990262508 0.9695696235 
-7.407114029 0.9276854992 -1.990262508 0.9695696235 
-7.441049576 0.5972704887 -1.990262508 0.9695696235 
-7.460244179 0.2656738162 -1.990262508 0.9695696831 
-7.454330921 -0.3984326124 -1.990262508 0.9695696831 
-7.389428616 -1.059399366 -1.990262508 0.9695696235 
-7.266020298 -1.711967707 -1.990262508 0.9695696831 
-7.182680607 -2.033496141 -1.990262508 0.9695696235 
-6.973505497 -2.663832903 -1.990262508 0.9695696831 
-6.848110199 -2.971401215 -1.990262508 0.9695696831 
-6.709125996 -3.273081064 -1.990262508 0.9695698023 
-6.556909084 -3.568295717 -1.990262508 0.9695696831 
-6.023618221 -4.409286976 -1.990262508 0.9695696831 
-5.82152319 -4.672866344 -1.990262508 0.9695696831 
-5.607885838 -4.927206993 -1.990262508 0.9695696831 
-4.902187347 -5.629775047 -1.990262508 0.9695696831 
-4.646923542 -5.842260838 -1.990262508 0.9695696831 
-3.827993155 -6.408788681 -1.990262508 0.9695696235 
-3.539086819 -6.572724342 -1.990262508 0.9695696831 
-3.243207932 -6.723652363 -1.990262508 0.9695696831 
-2.940864086 -6.86125946 -1.990262508 0.9695697427 
-2.632773399 -6.985288143 -1.990262508 0.9695696831 
-2.319409132 -7.095488071 -1.990262508 0.9695697427 
-1.679829121 -7.273593426 -1.990262508 0.9695693851 
-0.03314452991 -7.464897156 -1.990262508 0.9695696831 
0.2990283072 -7.458974361 -1.990262508 0.9695696831 
0.6304785013 -7.438305378 -1.990262508 0.9695696831 
0.9606249928 -7.402904987 -1.990262508 0.9695696831 
1.28918457 -7.352831841 -1.990262508 0.9695696235 
1.937270522 -7.20920372 -1.990262508 0.9695697427 
2.256264687 -7.115849495 -1.990262508 0.9695696235 
2.57049799 -7.00844717 -1.990262508 0.9695696831 
3.183256865 -6.752245903 -1.990262508 0.9695696235 
3.480493069 -6.603954792 -1.990262508 0.9695696235 
3.770795822 -6.442587852 -1.990262508 0.9695696831 
5.099467754 -5.451718807 -1.990262508 0.9695696831 
5.336938381 -5.219482422 -1.990262508 0.9695696831 
5.56383276 -4.976909161 -1.990262508 0.9695696831 
5.779711723 -4.724482536 -1.990262508 0.9695696831 
5.984155178 -4.462705135 -1.990262508 0.9695696831 
6.176747799 -4.192094803 -1.990262508 0.9695696831 
6.357114315 -3.913178682 -1.990262508 0.9695696831 
6.679750919 -3.332675695 -1.990262508 0.9695696831 
6.821396351 -3.032236338 -1.990262508 0.9695696831 
6.94952631 -2.725795746 -1.990262508 0.9695696831 
7.164291859 -2.097319365 -1.990262508 0.9695696831 
7.450444221 -0.4647509754 -1.990262508 0.9695698619 
7.463784218 -0.1328564435 -1.990262508 0.9695696831 
7.462309361 0.1992871016 -1.990262508 0.9695696831 
7.446064472 0.5310449004 -1.990262508 0.9695696831 
7.415063381 0.8617431521 -1.990262508 0.9695696831 
7.3091259 1.517382741 -1.990262508 0.9695696831 
7.14535141 2.161005735 -1.990262508 0.9695696235 
7.042138577 2.476708889 -1.990262508 0.9695696831 
6.794140339 3.092802763 -1.990262508 0.9695696831 
6.492368221 3.684453011 -1.990262508 0.9695696235 
6.322035789 3.969614267 -1.990262508 0.9695696235 
6.139204025 4.246904373 -1.990262508 0.9695696235 
5.944194317 4.515790939 -1.990262508 0.9695696831 
5.519282341 5.026235104 -1.990262508 0.9695697427 
5.290258884 5.266777039 -1.990262508 0.9695696831 
3.691581964 5.82156229 -1.837862492 0.9718667269 
3.428984404 5.980019569 -1.837862492 0.9718666673 
2.602543831 6.38320303 -1.837862492 0.9718666673 
2.315971613 6.492660999 -1.837862492 0.9718667269 
1.729741216 6.672807693 -1.837862492 0.9718667269 
0.8262060285 6.843661785 -1.837862492 0.9718667269 
-0.3939013481 6.801635742 -1.816444635 0.9721899629 
-0.6994042993 6.809799671 -1.825134277 0.972058773 
-1.008457065 6.818071365 -1.837564468 0.9718711972 
-1.31096673 6.767558575 -1.837862492 0.9718666673 
-1.610717773 6.702538967 -1.837862492 0.9718667269 
-1.907255769 6.624252796 -1.837862492 0.9718667269 
-2.200043917 6.532856464 -1.837862492 0.9718667269 
-3.050014496 6.181899071 -1.837862492 0.9718666673 
-3.321996927 6.040102482 -1.837862492 0.9718666673 
-3.587397337 5.886342525 -1.837862492 0.9718666673 
-3.845385551 5.720937252 -1.837862492 0.9718673229 
-4.156489372 5.62553215 -1.864819884 0.9714598656 
-5.862807274 4.620873928 -1.990262508 0.9695698619 
-6.250370979 4.0814991 -1.990262508 0.9695696831 
-6.425756454 3.799409151 -1.990262508 0.9695696831 
-6.588373661 3.509804726 -1.990262508 0.9695698023 
-6.738012314 3.213232279 -1.990262508 0.9695697427 
-6.874281883 2.910322189 -1.990262508 0.9695696831 
-6.996948242 2.601655245 -1.990262508 0.9695696831 
-7.280961514 1.647216797 -1.990262508 0.9695696831 
-7.347045898 1.321708918 -1.990262508 0.9695696235 
-7.39855957 0.9935693145 -1.990262508 0.9695696831 
-7.457587719 0.3320654333 -1.990262508 0.9695696831 
-7.457592487 -0.3320605457 -1.990262508 0.9695696235 
-7.435434341 -0.6634863019 -1.990262508 0.9695696831 
-7.280971527 -1.64723146 -1.990262508 0.9695696831 
-7.200483322 -1.969482422 -1.990262508 0.9695696831 
-7.105746746 -2.28785634 -1.990262508 0.9695696235 
-6.874272346 -2.910356283 -1.990262508 0.9695696831 
-6.588403225 -3.509819269 -1.990262508 0.9695696831 
-6.425746918 -3.799413919 -1.990262508 0.9695696831 
-6.250370979 -4.0814991 -1.990262508 0.9695696831 
-5.862885475 -4.620883465 -1.990262508 0.9695696235 
-5.651523113 -4.877094746 -1.990262508 0.9695696831 
-5.195688248 -5.360097408 -1.990262508 0.9695696831 
-3.884892464 -6.37446785 -1.990262508 0.9695695639 
-3.001806498 -6.834824085 -1.990262508 0.9695697427 
-2.382446289 -7.074570179 -1.990262508 0.9695697427 
-2.065336943 -7.173540115 -1.990262508 0.9695698023 
-1.744331002 -7.258334637 -1.990262508 0.9695696235 
-1.419741154 -7.328749657 -1.990262508 0.9695695639 
-0.7626806498 -7.425917625 -1.990262508 0.9695696235 
-0.100043945 -7.464350224 -1.990262508 0.9695695043 
0.2326757759 -7.46132803 -1.990262508 0.9695697427 
0.8945361376 -7.411176682 -1.990262508 0.9695696831 
3.123061419 -6.780297756 -1.990262508 0.9695696235 
3.42154789 -6.634672642 -1.990262508 0.9695696831 
3.713295698 -6.475903034 -1.990262508 0.9695696831 
3.997680664 -6.304306507 -1.990262508 0.9695696831 
4.801220417 -5.716137409 -1.990262508 0.9695696235 
5.050737381 -5.496909142 -1.990262508 0.9695696235 
5.519320965 -5.026240349 -1.990262508 0.9695696235 
5.944189548 -4.515800476 -1.990262508 0.9695696831 
6.139208794 -4.246874809 -1.990262508 0.9695696831 
6.322045803 -3.969579935 -1.990262508 0.9695696831 
6.649848461 -3.391972542 -1.990262508 0.9695696235 
7.042138577 -2.476713896 -1.990262508 0.9695696831 
7.145116806 -2.161005735 -1.990262508 0.9695704579 
7.234399319 -1.84101069 -1.990262508 0.9695696831 
7.3091259 -1.517377853 -1.990262508 0.9695696831 
7.369384766 -1.190747023 -1.990262508 0.9695696831 
7.446059227 -0.5310449004 -1.990262508 0.9695696831 
7.462309361 -0.1992919892 -1.990262508 0.9695696831 
7.463788986 0.1328564435 -1.990262508 0.9695696831 
7.450498104 0.4647412002 -1.990262508 0.9695696831 
7.322338581 1.452290058 -1.990262508 0.9695696831 
7.25049305 1.776572227 -1.990262508 0.9695696831 
6.94952631 2.725795746 -1.990262508 0.9695696831 
6.679750919 3.332675695 -1.990262508 0.9695696831 
6.524897099 3.626518488 -1.990262508 0.9695696235 
6.176757812 4.192089558 -1.990262508 0.9695696235 
5.984155178 4.46269989 -1.990262508 0.9695696831 
5.56383276 4.976909161 -1.990262508 0.9695696831 
5.099472523 5.451713562 -1.990262508 0.9695696831 
4.795000076 5.606620789 -1.966918111 0.9699211717 
4.38813448 5.618876934 -1.900777578 0.9709177613 
4.011235237 5.636362076 -1.844444036 0.9717676044 
3.746342659 5.793691158 -1.83951354 0.971842289 
2.939496994 6.235209942 -1.837862492 0.9718666673 
1.789067388 6.657148361 -1.837862492 0.9718667269 
0.8870947361 6.836044788 -1.837862492 0.9718666673 
0.5821288824 6.868735313 -1.837862492 0.9718667269 
-0.6380810142 6.80816412 -1.823101401 0.9720894694 
-0.946323216 6.816411018 -1.834774852 0.9719132781 
-2.715708017 6.335878849 -1.837862492 0.9718667269 
-4.879536152 5.603984356 -1.981147528 0.9697074294 
-5.147788048 5.406132698 -1.990262508 0.9695696235 
-5.383163929 5.171767235 -1.990262508 0.9695697427 
-5.821537971 4.672841549 -1.990262508 0.9695696831 
-6.213818073 4.136948109 -1.990262508 0.9695696831 
-6.391704082 3.856440306 -1.990262508 0.9695696235 
-6.556899071 3.568290949 -1.990262508 0.9695697427 
-6.709184647 3.273085833 -1.990262508 0.9695695639 
-6.848119736 2.971396446 -1.990262508 0.9695696235 
-7.182680607 2.033486366 -1.990262508 0.9695696235 
-7.266020298 1.711962819 -1.990262508 0.9695696831 
-7.464682579 0.06641601771 -1.990262508 0.9695696831 
-7.460238934 -0.2657031119 -1.990262508 0.9695696831 
-7.441040039 -0.5972998142 -1.990262508 0.9695696831 
-7.295336723 -1.582382798 -1.990262508 0.9695696831 
-7.217719555 -1.905336857 -1.990262508 0.9695696831 
-7.125824928 -2.22451663 -1.990262508 0.9695696831 
-6.459316254 -3.742079973 -1.990262508 0.9695696235 
-6.286459923 -4.025693417 -1.990262508 0.9695696831 
-5.903784275 -4.568505764 -1.990262508 0.9695696831 
-5.694711685 -4.826611042 -1.990262508 0.9695696831 
-5.474350452 -5.07516098 -1.990262508 0.9695696831 
-4.489316463 -5.964257717 -1.990262508 0.9695695639 
-4.219526291 -6.158041954 -1.990262508 0.9695696831 
-3.941445112 -6.339648247 -1.990262508 0.9695696235 
-3.655507803 -6.508691311 -1.990262508 0.9695696831 
-3.362314463 -6.66486311 -1.990262508 0.9695697427 
-3.062626839 -6.807856083 -1.990262508 0.9695695043 
-2.756743193 -6.937338829 -1.990262508 0.9695695639 
-2.445336819 -7.053090572 -1.990262508 0.9695696831 
-2.129047871 -7.154868126 -1.990262508 0.9695698619 
-1.808754802 -7.242509842 -1.990262508 0.9695697427 
-0.8285595775 -7.418813229 -1.990262508 0.9695698023 
-0.4977880716 -7.448344707 -1.990262508 0.9695697427 
0.828530252 -7.418852329 -1.990262508 0.9695696831 
2.445429564 -7.053081036 -1.990262508 0.9695696235 
3.062612295 -6.807831764 -1.990262508 0.9695695639 
3.655551672 -6.508681297 -1.990262508 0.9695696235 
3.941430569 -6.339643478 -1.990262508 0.9695696235 
4.219526291 -6.158041954 -1.990262508 0.9695696831 
5.001635551 -5.541615963 -1.990262508 0.9695696831 
5.474350452 -5.075170994 -1.990262508 0.9695696831 
5.694711685 -4.826601505 -1.990262508 0.9695696831 
6.286440372 -4.025727272 -1.990262508 0.9695696831 
6.459321022 -3.742075205 -1.990262508 0.9695696235 
6.899926662 -2.849018574 -1.990262508 0.9695696831 
7.125834942 -2.224492073 -1.990262508 0.9695696831 
7.358500957 -1.256289005 -1.990262508 0.9695696831 
7.454330921 0.3984375 -1.990262508 0.9695696831 
7.429233074 0.7296044827 -1.990262508 0.9695696831 
7.334994793 1.387021422 -1.990262508 0.9695696235 
7.182680607 2.03352046 -1.990262508 0.9695696235 
6.973500729 2.66385746 -1.990262508 0.9695696831 
6.848110199 2.971391439 -1.990262508 0.9695696831 
6.709145546 3.27311039 -1.990262508 0.9695696831 
6.391679764 3.856464863 -1.990262508 0.9695696831 
6.213823318 4.13694334 -1.990262508 0.9695696831 
5.383183479 5.17177248 -1.990262508 0.9695696831 
5.147778034 5.40612793 -1.990262508 0.9695696831 
4.467377663 5.616542816 -1.913364649 0.9707279801 
3.53482914 5.918061256 -1.837862492 0.9718666673 
3.26812005 6.069433689 -1.837862492 0.9718666673 
2.431162119 6.450419903 -1.837862492 0.9718666673 
2.141840696 6.552172661 -1.837862492 0.9718666673 
1.848247051 6.640966415 -1.837862492 0.9718666673 
1.551010728 6.716601372 -1.837862492 0.9718667269 
1.250668883 6.778959751 -1.837862492 0.9718666673 
0.9479247928 6.827870846 -1.837862492 0.9718667269 
0.337299794 6.88510704 -1.837862492 0.9718666673 
0.03065917827 6.893295765 -1.837862492 0.9718666673 
-1.190297842 6.789809227 -1.837862492 0.9718667269 
-2.083486319 6.570961952 -1.837862492 0.9718666673 
-2.373676777 6.471791744 -1.837862492 0.9718667269 
-2.659233332 6.359789848 -1.837862492 0.9718666673 
-3.213950157 6.098266602 -1.837862492 0.9718667269 
-4.01214838 5.636362076 -1.844442844 0.9717656374 
-4.388261795 5.618872166 -1.900782943 0.9709174633 
-4.79505825 5.606626034 -1.96691215 0.9699210525 
-5.563891411 4.976904392 -1.990262508 0.9695695043 
-5.779779911 4.724452972 -1.990262508 0.9695695639 
-5.98415041 4.462695122 -1.990262508 0.9695696831 
-6.524916649 3.626494169 -1.990262508 0.9695696235 
-6.679799557 3.332675695 -1.990262508 0.9695695043 
-6.821381569 3.032202005 -1.990262508 0.9695697427 
-6.949531078 2.725800753 -1.990262508 0.9695696235 
-7.063906193 2.413930655 -1.990262508 0.9695696831 
-7.164281845 2.097343683 -1.990262508 0.9695696831 
-7.322338581 1.452285171 -1.990262508 0.9695696831 
-7.422446251 0.7957421541 -1.990262508 0.9695696831 
-7.463793755 0.1328906268 -1.990262508 0.9695696831 
-7.462309361 -0.1992871016 -1.990262508 0.9695696831 
-7.446064472 -0.5310791135 -1.990262508 0.9695696831 
-7.3091259 -1.517377853 -1.990262508 0.9695696831 
-7.234399319 -1.841044903 -1.990262508 0.9695696235 
-7.14535141 -2.161005735 -1.990262508 0.9695696235 
-6.924999714 -2.787514687 -1.990262508 0.9695696831 
-6.794126034 -3.092836857 -1.990262508 0.9695696831 
-6.139179707 -4.246899128 -1.990262508 0.9695697427 
-5.737431526 -4.775752068 -1.990262508 0.9695696235 
-5.050707817 -5.496923923 -1.990262508 0.9695696831 
-4.80121088 -5.716132641 -1.990262508 0.9695696831 
-4.542197227 -5.924086571 -1.990262508 0.9695695639 
-4.27417469 -6.120244026 -1.990262508 0.9695696235 
-3.713325024 -6.475898266 -1.990262508 0.9695696235 
-3.421459913 -6.634682655 -1.990262508 0.9695698023 
-2.818383694 -6.912543774 -1.990262508 0.9695695043 
-2.192758799 -7.135653973 -1.990262508 0.9695696831 
-1.873276353 -7.226142406 -1.990262508 0.9695695639 
-0.5640918016 -7.443613052 -1.990262508 0.9695697427 
1.092280269 -7.384638309 -1.990262508 0.9695696235 
1.744277358 -7.258334637 -1.990262508 0.9695696235 
2.065444231 -7.17355442 -1.990262508 0.9695696235 
2.382495165 -7.074574947 -1.990262508 0.9695696831 
3.302993059 -6.694506645 -1.990262508 0.9695695639 
4.164546013 -6.195346355 -1.990262508 0.9695696831 
4.436039925 -6.003950119 -1.990262508 0.9695696831 
4.952114105 -5.585913181 -1.990262508 0.9695696831 
5.195712566 -5.360077858 -1.990262508 0.9695696831 
5.428979397 -5.123671532 -1.990262508 0.9695696831 
6.062651157 -4.355473518 -1.990262508 0.9695696831 
6.425771236 -3.799389601 -1.990262508 0.9695696831 
6.588407993 -3.509809494 -1.990262508 0.9695696831 
6.996948242 -2.601655245 -1.990262508 0.9695696831 
7.105600357 -2.28785634 -1.990262508 0.9695701599 
7.280961514 -1.647255778 -1.990262508 0.9695696831 
7.398549557 -0.9936132431 -1.990262508 0.9695696831 
7.435424805 -0.6634814143 -1.990262508 0.9695696831 
7.457592487 -0.3320409954 -1.990262508 0.9695696235 
7.464970589 0 -1.990262508 0.9695696831 
7.457587719 0.3320947289 -1.990262508 0.9695696831 
7.347035885 1.321708918 -1.990262508 0.9695696831 
7.28094244 1.647255778 -1.990262508 0.9695697427 
7.105669022 2.28785634 -1.990262508 0.9695699215 
6.062651157 4.355463982 -1.990262508 0.9695696831 
5.195698261 5.360121727 -1.990262508 0.9695695639 
4.952114105 5.585913181 -1.990262508 0.9695696831 
4.547602654 5.614150047 -1.92625916 0.970533669 
4.156411171 5.62553215 -1.864821315 0.9714600444 
3.587387562 5.886342525 -1.837862492 0.9718667269 
3.321996927 6.040112019 -1.837862492 0.9718666673 
2.200053692 6.532856464 -1.837862492 0.9718666673 
1.907309532 6.624248028 -1.837862492 0.9718666673 
1.311010718 6.767548561 -1.837862492 0.9718666673 
0.3985302746 6.881830692 -1.837862492 0.9718667269 
-0.211782217 6.796762466 -1.81298697 0.9722421169 
-0.8225243688 6.81309557 -1.829651713 0.9719905853 
-1.729765534 6.672802448 -1.837862492 0.9718667269 
-2.024868011 6.589257717 -1.837862492 0.9718667269 
-2.315991163 6.492656231 -1.837862492 0.9718667269 
-2.602494955 6.383217812 -1.837862492 0.9718666673 
-2.883901358 6.261117935 -1.837862492 0.9718666673 
-3.691596508 5.821552753 -1.837862492 0.9718667269 
-3.946811438 5.651591778 -1.837862492 0.9718668461 
-4.71146965 5.609199047 -1.953029871 0.9701302052 
-5.51940918 5.026215553 -1.990262508 0.9695694447 
-5.737465858 4.775742054 -1.990262508 0.9695695639 
-6.649882793 3.391977549 -1.990262508 0.9695695043 
-7.042172909 2.476752758 -1.990262508 0.9695695043 
-7.234414101 1.840976477 -1.990262508 0.9695696235 
-7.369409084 1.190707922 -1.990262508 0.9695696235 
-7.415072918 0.8617431521 -1.990262508 0.9695696831 
-7.463788986 -0.1328808516 -1.990262508 0.9695696831 
-7.422441006 -0.7957372665 -1.990262508 0.9695696831 
-7.379702091 -1.125097632 -1.990262508 0.9695696831 
-7.322348595 -1.452290058 -1.990262508 0.9695696235 
-7.250502586 -1.77654779 -1.990262508 0.9695696831 
-6.94952631 -2.725800753 -1.990262508 0.9695696831 
-6.821401119 -3.032207012 -1.990262508 0.9695696831 
-6.17672348 -4.192114353 -1.990262508 0.9695696831 
-5.779692173 -4.724506855 -1.990262508 0.9695696831 
-5.56383276 -4.976913929 -1.990262508 0.9695696831 
-5.099472523 -5.451728344 -1.990262508 0.9695696235 
-4.594741344 -5.883383751 -1.990262508 0.9695696831 
-4.053647518 -6.268476486 -1.990262508 0.9695696831 
-3.183276415 -6.752260685 -1.990262508 0.9695695639 
-2.879721642 -6.88714838 -1.990262508 0.9695697427 
-2.57043457 -7.008437157 -1.990262508 0.9695698023 
-2.256118059 -7.115854263 -1.990262508 0.9695697427 
-0.6303759813 -7.438305378 -1.990262508 0.9695696831 
-0.2989599407 -7.459003925 -1.990262508 0.9695696235 
0.03332519531 -7.464892387 -1.990262508 0.9695696831 
0.3650390506 -7.456064224 -1.990262508 0.9695696235 
0.6966503859 -7.432402134 -1.990262508 0.9695696235 
1.026450157 -7.394067287 -1.990262508 0.9695696831 
2.0014112 -7.191669941 -1.990262508 0.9695696831 
2.319521427 -7.095483303 -1.990262508 0.9695696235 
2.632787943 -6.98529768 -1.990262508 0.9695696235 
2.940878868 -6.861269474 -1.990262508 0.9695696831 
3.539140463 -6.572719574 -1.990262508 0.9695695639 
4.109257698 -6.232158184 -1.990262508 0.9695696831 
4.90222168 -5.629755497 -1.990262508 0.9695696235 
5.607890606 -4.927206993 -1.990262508 0.9695696831 
5.821537971 -4.672851562 -1.990262508 0.9695696831 
6.023627758 -4.409291744 -1.990262508 0.9695696235 
6.213818073 -4.136938572 -1.990262508 0.9695696831 
6.391674519 -3.856459856 -1.990262508 0.9695696831 
6.556918621 -3.568290949 -1.990262508 0.9695696831 
6.709140301 -3.27311039 -1.990262508 0.9695696831 
6.973520279 -2.663798809 -1.990262508 0.9695696831 
7.085102558 -2.350986242 -1.990262508 0.9695696831 
7.182670593 -2.033461809 -1.990262508 0.9695696831 
7.389413834 -1.059394479 -1.990262508 0.9695696831 
7.464672565 -0.06641113013 -1.990262508 0.9695696831 
7.460248947 0.2656787038 -1.990262508 0.9695696831 
7.441034794 0.5972998142 -1.990262508 0.9695696831 
7.407104492 0.9276854992 -1.990262508 0.9695696831 
7.217719555 1.905331969 -1.990262508 0.9695696831 
7.01981926 2.539296865 -1.990262508 0.9695696831 
6.899897099 2.849076986 -1.990262508 0.9695696831 
6.76634264 3.15316391 -1.990262508 0.9695696831 
6.286455154 4.025722504 -1.990262508 0.9695696235 
5.694711685 4.826596737 -1.990262508 0.9695696831 
5.474360466 5.07516098 -1.990262508 0.9695696831 
4.628984451 5.611708641 -1.939486146 0.9703343511 
4.232748985 5.623369217 -1.876513004 0.971283555 
3.63960433 5.854198933 -1.837862492 0.9718667269 
3.375644445 6.010297775 -1.837862492 0.9718666673 
3.104907274 6.154516697 -1.837862492 0.9718666673 
2.545615196 6.406117916 -1.837862492 0.9718666673 
1.371166945 6.755615234 -1.837862492 0.9718667269 
0.7653076053 6.850751877 -1.837862492 0.9718666673 
0.4597314298 6.878012657 -1.837862492 0.9718667269 
-1.069233418 6.80992651 -1.837862492 0.9718667269 
-1.371171832 6.755615234 -1.837862492 0.9718666673 
-1.670288086 6.687944412 -1.837862492 0.9718666673 
-1.966157198 6.607016563 -1.837862492 0.9718667269 
-2.545610189 6.406117916 -1.837862492 0.9718666673 
-2.828066349 6.286532879 -1.837862492 0.9718666673 
-3.104887724 6.154511452 -1.837862492 0.9718667269 
-3.63960433 5.854198933 -1.837862492 0.9718667269 
-3.896327972 5.686479568 -1.837862492 0.9718669653 
-4.232724667 5.623363972 -1.876511812 0.9712836146 
-5.903774261 4.568530083 -1.990262508 0.9695696235 
-6.286440372 4.025727272 -1.990262508 0.9695696831 
-6.459321022 3.74206543 -1.990262508 0.9695696831 
-6.766371727 3.153159142 -1.990262508 0.9695695639 
-6.899926662 2.849013567 -1.990262508 0.9695696831 
-7.01983881 2.539301634 -1.990262508 0.9695695639 
-7.125815392 2.22447753 -1.990262508 0.9695697427 
-7.217719555 1.905331969 -1.990262508 0.9695696831 
-7.407114029 0.9276854992 -1.990262508 0.9695696235 
-7.441040039 0.5972998142 -1.990262508 0.9695696831 
-7.460244179 0.2656738162 -1.990262508 0.9695696831 
-7.464682579 -0.06642089784 -1.990262508 0.9695696831 
-7.334975243 -1.387084961 -1.990262508 0.9695696831 
-7.182661057 -2.03352046 -1.990262508 0.9695696831 
-6.973500729 -2.663867235 -1.990262508 0.9695696831 
-6.709125996 -3.273105383 -1.990262508 0.9695697427 
-6.213808537 -4.13694334 -1.990262508 0.9695696831 
-5.821537971 -4.672861099 -1.990262508 0.9695696235 
-5.607885838 -4.927206993 -1.990262508 0.9695696831 
-5.383183479 -5.171777248 -1.990262508 0.9695696235 
-5.147768497 -5.406132698 -1.990262508 0.9695696831 
-4.902216911 -5.629755497 -1.990262508 0.9695696831 
-3.827924728 -6.408798695 -1.990262508 0.9695696831 
-2.940864086 -6.86125946 -1.990262508 0.9695697427 
-2.319409132 -7.095488071 -1.990262508 0.9695697427 
-2.001391649 -7.191645145 -1.990262508 0.9695698023 
-1.679829121 -7.273593426 -1.990262508 0.9695693851 
-0.6964111328 -7.432392597 -1.990262508 0.9695697427 
0.2988818288 -7.458984375 -1.990262508 0.9695696831 
0.6304785013 -7.438305378 -1.990262508 0.9695696831 
0.9606298804 -7.402909756 -1.990262508 0.9695696831 
1.614838839 -7.288222313 -1.990262508 0.9695696831 
2.25625968 -7.115849495 -1.990262508 0.9695696235 
2.57049799 -7.00844717 -1.990262508 0.9695696831 
2.879765511 -6.88714838 -1.990262508 0.9695696831 
3.480483294 -6.603950024 -1.990262508 0.9695696235 
4.328461647 -6.081957817 -1.990262508 0.9695696831 
4.851894379 -5.67318821 -1.990262508 0.9695696235 
5.099467754 -5.451718807 -1.990262508 0.9695696831 
5.56383276 -4.976909161 -1.990262508 0.9695696831 
7.250497818 -1.77654779 -1.990262508 0.9695696831 
7.463793755 -0.1328906268 -1.990262508 0.9695696831 
7.446059227 0.5310693383 -1.990262508 0.9695696831 
7.369389534 1.190771461 -1.990262508 0.9695696831 
6.924994946 2.787519455 -1.990262508 0.9695696831 
6.649838924 3.391977549 -1.990262508 0.9695696831 
6.322060585 3.969584942 -1.990262508 0.9695696235 
6.139204025 4.246904373 -1.990262508 0.9695696235 
5.519291878 5.026206017 -1.990262508 0.9695698023 
5.290258884 5.266777039 -1.990262508 0.9695696831 
4.711391449 5.609203815 -1.95302999 0.970130384 
3.159540892 6.126645565 -1.837862492 0.9718666673 
2.883911133 6.261117935 -1.837862492 0.9718666673 
2.602509737 6.383217812 -1.837862492 0.9718666673 
2.316010714 6.492650986 -1.837862492 0.9718667269 
1.4312011 6.743154049 -1.837862492 0.9718666673 
1.129863262 6.800136566 -1.837862492 0.9718666673 
-0.6994335651 6.809799671 -1.825136065 0.972058773 
-1.008457065 6.818071365 -1.837564468 0.9718711972 
-1.610717773 6.702538967 -1.837862492 0.9718667269 
-2.488500834 6.428515434 -1.837862492 0.9718666673 
-3.050014496 6.181899071 -1.837862492 0.9718666673 
-3.321967602 6.040112019 -1.837862492 0.9718667269 
-4.156489372 5.62553215 -1.864819884 0.9714598656 
-5.429018497 5.123666763 -1.990262508 0.9695695639 
-5.651557446 4.877070427 -1.990262508 0.9695696831 
-6.062651157 4.35546875 -1.990262508 0.9695696831 
-6.425766468 3.799394369 -1.990262508 0.9695696831 
-6.588373661 3.509804726 -1.990262508 0.9695698023 
-6.738012314 3.213232279 -1.990262508 0.9695697427 
-6.874262333 2.910356283 -1.990262508 0.9695697427 
-6.996948242 2.601655245 -1.990262508 0.9695696831 
-7.20046854 1.969467759 -1.990262508 0.9695697427 
-7.457587719 0.3320361376 -1.990262508 0.9695696831 
-7.171396255 -0.6399316192 -1.990262508 0.9705623388 
-7.135829926 -0.9583007693 -1.990262508 0.9705623388 
-6.944789886 -1.899550796 -1.990262508 0.9705623388 
-6.853417873 -2.206611395 -1.990262508 0.9705623388 
-6.498744965 -3.099150419 -1.990262508 0.9705623388 
-6.197573185 -3.664496899 -1.990262508 0.9705623388 
-5.84734869 -4.200825214 -1.990262508 0.9705623388 
-5.654692173 -4.456777096 -1.990262508 0.9705623388 
-5.450834751 -4.703910828 -1.990262508 0.9705623388 
-5.236196041 -4.941718578 -1.990262508 0.9705623388 
-4.776254654 -5.387568474 -1.990262508 0.9705623388 
-4.278510571 -5.790747166 -1.990262508 0.9705623388 
-4.016674519 -5.975341797 -1.990262508 0.9705623388 
-3.746889591 -6.148090839 -1.990262508 0.9705623984 
-3.469707012 -6.30869627 -1.990262508 0.9705623388 
-3.185541868 -6.456777096 -1.990262508 0.9705625176 
-2.599184513 -6.714384556 -1.990262508 0.9705622792 
-1.992143512 -6.918823242 -1.990262508 0.9705622792 
-1.682377934 -7.000585556 -1.990262508 0.9705622792 
-1.36925292 -7.068486214 -1.990262508 0.9705623388 
-0.09628418088 -7.199272156 -1.990262508 0.9705622196 
0.2241162062 -7.196411133 -1.990262508 0.9705622792 
2.418964863 -6.78137207 -1.990262508 0.9705623388 
3.300039053 -6.39907217 -1.990262508 0.9705623388 
4.122387409 -5.902904987 -1.990262508 0.9705623388 
4.38089323 -5.713686466 -1.990262508 0.9705623388 
4.871391296 -5.301694393 -1.990262508 0.9705623388 
5.102406979 -5.07974577 -1.990262508 0.9705623388 
5.733115196 -4.355429649 -1.990262508 0.9705623388 
6.097543716 -3.8286376 -1.990262508 0.9705623388 
6.977495193 -1.775639653 -1.990262508 0.9705623388 
7.049574852 -1.463496089 -1.990262508 0.9705623388 
7.107699871 -1.14845705 -1.990262508 0.9705623388 
7.185913086 0.4482470751 -1.990262508 0.9705623984 
6.909877777 2.022851467 -1.990262508 0.9705623388 
6.702748775 2.628993988 -1.990262508 0.9705623388 
6.579164982 2.924545765 -1.990262508 0.9705623388 
6.131367207 3.774213791 -1.990262508 0.9705623388 
5.957406998 4.043222427 -1.990262508 0.9705623388 
5.574467659 4.556713581 -1.990262508 0.9705623388 
4.918383598 5.258129597 -1.990262508 0.9705623388 
4.67960453 5.471713543 -1.990262508 0.9705623388 
3.358388662 5.738002777 -1.837862492 0.9727855325 
3.099819183 5.881723404 -1.837862492 0.9727854729 
2.835112333 6.013793945 -1.837862492 0.9727854729 
2.56479001 6.133955002 -1.837862492 0.9727854729 
2.00944829 6.337636471 -1.837862492 0.9727855325 
1.725551724 6.420746803 -1.837862492 0.9727855325 
1.438237309 6.491152287 -1.837862492 0.9727854729 
-0.02958496101 6.648505688 -1.837862492 0.9727855325 
-0.3252978325 6.640610218 -1.837862492 0.9727855325 
-0.6203857064 6.619565487 -1.837862492 0.9727855325 
-0.9142333865 6.585410118 -1.837862492 0.9727855325 
-1.206269503 6.538227558 -1.837862492 0.9727855325 
-1.495922804 6.4781003 -1.837862492 0.9727854729 
-1.782612324 6.405141354 -1.837862492 0.9727854729 
-2.344814301 6.221357346 -1.837862492 0.9727855325 
-2.888510704 5.988325119 -1.837862492 0.9727854729 
-3.408891439 5.707895279 -1.837862492 0.9727863073 
-4.072455883 5.615761757 -1.917586803 0.971621871 
-4.728149414 5.429843426 -1.990262508 0.9705622792 
-5.192006588 4.988134861 -1.990262508 0.9705623388 
-5.408705711 4.752231121 -1.990262508 0.9705625176 
-5.993164062 3.990053654 -1.990262508 0.9705622792 
-6.164706707 3.719496965 -1.990262508 0.9705623984 
-6.324086666 3.441586733 -1.990262508 0.9705622792 
-6.604897499 2.86587882 -1.990262508 0.970562458 
-6.833510399 2.267495155 -1.990262508 0.9705623388 
-6.927612305 1.961279273 -1.990262508 0.9705623388 
-7.074516296 1.337792993 -1.990262508 0.9705623388 
-7.127016544 1.021757841 -1.990262508 0.9705623388 
-7.16541481 0.7037158012 -1.990262508 0.9705623388 
-7.189623833 0.3842773438 -1.990262508 0.9705623388 
-7.097197056 -1.211674809 -1.990262508 0.9705623388 
-7.036279202 -1.526181579 -1.990262508 0.9705623388 
-6.961420536 -1.837665915 -1.990262508 0.9705623388 
-6.770527363 -2.449120998 -1.990262508 0.9705623984 
-5.884497166 -4.148618221 -1.990262508 0.9705623388 
-5.694130898 -4.406274319 -1.990262508 0.9705623388 
-5.492485046 -4.655219555 -1.990262508 0.9705623388 
-5.279965878 -4.894926548 -1.990262508 0.9705623388 
-5.056992054 -5.124960899 -1.990262508 0.9705623388 
-4.581469536 -5.554145336 -1.990262508 0.9705623388 
-4.329873085 -5.752436161 -1.990262508 0.9705623388 
-4.069711685 -5.939350605 -1.990262508 0.9705623388 
-3.801459789 -6.114506721 -1.990262508 0.9705623984 
-3.242949247 -6.428183556 -1.990262508 0.9705623984 
-2.658788919 -6.69097662 -1.990262508 0.9705623388 
-2.358618021 -6.80264616 -1.990262508 0.97056216 
-2.053657293 -6.900825024 -1.990262508 0.9705622196 
-1.744594693 -6.985332012 -1.990262508 0.9705623388 
0.1601171792 -7.198110104 -1.990262508 0.9705623388 
0.4802783132 -7.183842659 -1.990262508 0.9705623984 
0.7992627025 -7.155395508 -1.990262508 0.9705623388 
1.116665006 -7.112763405 -1.990262508 0.9705623388 
2.358608246 -6.802612305 -1.990262508 0.9705622792 
2.953793764 -6.566088676 -1.990262508 0.9705623388 
3.242959023 -6.428183556 -1.990262508 0.9705623388 
3.52570796 -6.27756834 -1.990262508 0.9705623388 
3.801469564 -6.114506721 -1.990262508 0.9705623388 
4.069702148 -5.939355373 -1.990262508 0.9705623388 
4.329873085 -5.752446175 -1.990262508 0.9705623388 
4.581484318 -5.554140568 -1.990262508 0.9705623388 
5.492485046 -4.655214787 -1.990262508 0.9705623388 
6.063222408 -3.882748842 -1.990262508 0.9705623388 
6.229946136 -3.609184504 -1.990262508 0.9705623388 
6.38433075 -3.328481436 -1.990262508 0.9705623388 
6.654892445 -2.747870922 -1.990262508 0.9705623388 
6.770541668 -2.449111223 -1.990262508 0.9705623388 
6.87277317 -2.145517588 -1.990262508 0.9705623984 
6.961420536 -1.837665915 -1.990262508 0.9705623388 
7.097182274 -1.211665034 -1.990262508 0.9705623984 
7.144067287 -0.8947558403 -1.990262508 0.9705623984 
7.199599266 0.06407714635 -1.990262508 0.9705623388 
7.074516296 1.337788105 -1.990262508 0.9705623388 
6.927577972 1.961284161 -1.990262508 0.970562458 
6.833554745 2.267499924 -1.990262508 0.97056216 
6.725873947 2.569233418 -1.990262508 0.9705623388 
6.604926586 2.865888596 -1.990262508 0.9705623388 
6.470903397 3.156860352 -1.990262508 0.9705623388 
5.993149281 3.990048647 -1.990262508 0.9705623388 
5.809731483 4.252695084 -1.990262508 0.9705623388 
5.6147995 4.506923676 -1.990262508 0.9705623388 
5.408754826 4.752231121 -1.990262508 0.9705623388 
5.19202137 4.988134861 -1.990262508 0.9705622792 
4.964975357 5.214150429 -1.990262508 0.9705623388 
4.728085995 5.429853439 -1.990262508 0.9705623984 
3.152035952 5.853901386 -1.837862492 0.9727855325 
2.88854003 5.988320351 -1.837862492 0.9727854729 
2.619267464 6.110883713 -1.837862492 0.9727855325 
2.344858408 6.221347332 -1.837862492 0.9727855325 
2.065786123 6.319491863 -1.837862492 0.9727855325 
1.782617092 6.405136585 -1.837862492 0.9727855325 
1.495932579 6.478095531 -1.837862492 0.9727854729 
1.206284165 6.538227558 -1.837862492 0.9727854729 
0.3253173828 6.64060545 -1.837862492 0.9727855325 
-0.5614404082 6.624824047 -1.837862492 0.9727855325 
-0.8555908203 6.593290806 -1.837862492 0.9727855325 
-1.148027301 6.548706055 -1.837862492 0.9727855325 
-1.438207984 6.491152287 -1.837862492 0.9727855325 
-1.725512624 6.420751572 -1.837862492 0.9727855325 
-2.00944829 6.337631702 -1.837862492 0.9727855325 
-2.289360285 6.241972446 -1.837862492 0.9727855325 
-2.835087776 6.0137887 -1.837862492 0.9727855325 
-3.640454054 5.628080845 -1.852725506 0.972566545 
-3.998227358 5.617890358 -1.906087637 0.9717895389 
-4.679409027 5.471708775 -1.990262508 0.9705628753 
-4.918407917 5.258129597 -1.990262508 0.9705622792 
-5.366244793 4.800175667 -1.990262508 0.9705623984 
-5.574472427 4.556708813 -1.990262508 0.9705623388 
-5.957406998 4.043222427 -1.990262508 0.9705623388 
-6.293169022 3.497724533 -1.990262508 0.970562458 
-6.442592621 3.214326143 -1.990262508 0.9705622196 
-6.579140663 2.924550772 -1.990262508 0.9705623984 
-6.909892559 2.022851467 -1.990262508 0.9705622792 
-7.117641449 1.085156202 -1.990262508 0.9705623388 
-7.185932636 0.4482470751 -1.990262508 0.9705622792 
-7.197329044 -0.1921972632 -1.990262508 0.9705623388 
-7.151752949 -0.8311425447 -1.990262508 0.9705623388 
-7.049580097 -1.463496089 -1.990262508 0.9705623388 
-6.679077148 -2.688539982 -1.990262508 0.9705623388 
-6.413686275 -3.271538019 -1.990262508 0.9705623388 
-6.261811256 -3.553593636 -1.990262508 0.9705623984 
-6.097538948 -3.8286376 -1.990262508 0.9705623388 
-5.733119965 -4.355424881 -1.990262508 0.9705623388 
-5.533696175 -4.606142521 -1.990262508 0.9705623388 
-5.102406979 -5.079751015 -1.990262508 0.9705623388 
-4.630712986 -5.513144493 -1.990262508 0.9705623984 
-4.380888462 -5.713676453 -1.990262508 0.9705623984 
-4.122397423 -5.902904987 -1.990262508 0.9705623388 
-3.855737209 -6.080439091 -1.990262508 0.9705623388 
-3.581406116 -6.245932579 -1.990262508 0.9705623984 
-3.29998517 -6.399057388 -1.990262508 0.9705625176 
-3.012084961 -6.539525986 -1.990262508 0.970562458 
-2.419028282 -6.781376839 -1.990262508 0.9705622196 
-2.115043879 -6.882285118 -1.990262508 0.9705621004 
-1.80673337 -6.969535828 -1.990262508 0.9705622792 
-1.180156231 -7.102533817 -1.990262508 0.9705622792 
-0.5443017483 -7.179316044 -1.990262508 0.9705622196 
0.09613280743 -7.1992383 -1.990262508 0.9705623984 
0.7356494069 -7.162201881 -1.990262508 0.9705623388 
1.053383708 -7.122411728 -1.990262508 0.9705623388 
1.36921382 -7.068490982 -1.990262508 0.9705623388 
1.991943359 -6.918823242 -1.990262508 0.970562458 
2.297963858 -6.823334694 -1.990262508 0.9705623388 
2.599135637 -6.714375019 -1.990262508 0.9705623388 
5.654692173 -4.456777096 -1.990262508 0.9705623388 
6.498744965 -3.099145412 -1.990262508 0.9705623388 
6.853413105 -2.20660162 -1.990262508 0.9705623388 
7.022417068 -1.58874023 -1.990262508 0.9705623388 
7.19275856 0.3202783167 -1.990262508 0.9705623388 
7.022407055 1.588735342 -1.990262508 0.9705623984 
6.853422642 2.206596613 -1.990262508 0.9705623388 
6.748471737 2.509277344 -1.990262508 0.9705623388 
6.498744965 3.099145412 -1.990262508 0.9705623388 
6.197568417 3.66449213 -1.990262508 0.9705623388 
5.654682636 4.456772327 -1.990262508 0.9705623984 
5.0111866 5.169755936 -1.990262508 0.9705623388 
4.776206017 5.38755846 -1.990262508 0.970562458 
4.531869888 5.59469223 -1.990262508 0.9705623388 
4.147602558 5.613578796 -1.929370403 0.9714500308 
3.459955931 5.677329063 -1.837862492 0.9727855325 
3.204008818 5.825620174 -1.837862492 0.9727855325 
2.94169426 5.962378025 -1.837862492 0.9727855325 
2.673564434 6.087333679 -1.837862492 0.9727854729 
1.264428735 6.527231216 -1.837862492 0.9727854729 
0.9728271365 6.577016354 -1.837862492 0.9727854729 
0.08875487745 6.647973537 -1.837862492 0.9727855325 
-0.2070556581 6.645346642 -1.837862492 0.9727855325 
-0.502460897 6.629555702 -1.837862492 0.9727855325 
-0.7968603373 6.600644588 -1.837862492 0.9727855325 
-1.089702129 6.558661938 -1.837862492 0.9727855325 
-1.668315411 6.435849667 -1.837862492 0.9727855325 
-2.233725548 6.262104511 -1.837862492 0.9727855325 
-3.047338724 5.909071922 -1.837862492 0.9727855325 
-3.307192326 5.767670631 -1.837862492 0.9727854729 
-3.92478013 5.619970798 -1.894867182 0.971953392 
-4.300654411 5.60904789 -1.953816891 0.971093595 
-4.630727291 5.513144493 -1.990262508 0.9705623388 
-4.871391296 5.301699162 -1.990262508 0.9705623388 
-5.102406979 5.07974577 -1.990262508 0.9705623388 
-5.323315144 4.847748756 -1.990262508 0.9705623388 
-5.733134747 4.355424881 -1.990262508 0.9705622792 
-6.097524166 3.828627825 -1.990262508 0.9705623984 
-6.891586781 2.084248066 -1.990262508 0.970562458 
-7.049574852 1.463500977 -1.990262508 0.9705623388 
-7.151752949 0.8311523199 -1.990262508 0.9705623388 
-7.181650162 0.5121825933 -1.990262508 0.9705623388 
-7.197329044 0.1922119111 -1.990262508 0.9705623388 
-7.198744774 -0.1281591803 -1.990262508 0.9705623388 
-7.185927391 -0.4482568204 -1.990262508 0.9705623388 
-7.158862114 -0.7674706578 -1.990262508 0.9705623388 
-7.117641449 -1.085156202 -1.990262508 0.9705623388 
-7.062324047 -1.400703073 -1.990262508 0.9705623388 
-6.909882545 -2.022846699 -1.990262508 0.9705623388 
-6.813061237 -2.328222513 -1.990262508 0.9705623388 
-6.702748775 -2.62898922 -1.990262508 0.9705623388 
-6.579160213 -2.924560547 -1.990262508 0.9705623388 
-6.442548752 -3.214330912 -1.990262508 0.9705623388 
-6.293188572 -3.497734308 -1.990262508 0.9705623388 
-6.131361961 -3.774218559 -1.990262508 0.9705623388 
-5.957397461 -4.043227673 -1.990262508 0.9705623984 
-5.574467659 -4.556723595 -1.990262508 0.9705623388 
-5.147402287 -5.034145355 -1.990262508 0.9705623388 
-4.918368816 -5.258134842 -1.990262508 0.9705623388 
-4.174780369 -5.865976334 -1.990262508 0.9705623388 
-3.636860371 -6.213808537 -1.990262508 0.9705623984 
-3.070131779 -6.512445927 -1.990262508 0.9705625176 
-2.777504921 -6.642607212 -1.990262508 0.9705622792 
-2.479296923 -6.759584904 -1.990262508 0.9705622196 
-2.176147461 -6.863183498 -1.990262508 0.9705622196 
-1.24337399 -7.091762543 -1.990262508 0.97056216 
-0.9265722632 -7.140024185 -1.990262508 0.9705623388 
0.3522802591 -7.191259384 -1.990262508 0.9705623984 
0.6719287038 -7.168466568 -1.990262508 0.9705623388 
0.9900048375 -7.131489277 -1.990262508 0.9705623984 
1.306391597 -7.080380917 -1.990262508 0.9705623388 
2.539316416 -6.737236023 -1.990262508 0.9705623388 
2.836459875 -6.617612362 -1.990262508 0.9705623984 
3.963344574 -6.010844707 -1.990262508 0.9705623388 
4.226791859 -5.828598499 -1.990262508 0.9705623388 
4.964985371 -5.214155197 -1.990262508 0.9705623388 
5.192016602 -4.988129616 -1.990262508 0.9705623388 
5.408764362 -4.752231121 -1.990262508 0.9705623388 
5.809731483 -4.252700329 -1.990262508 0.9705623388 
6.164711952 -3.719496965 -1.990262508 0.9705623388 
6.833500862 -2.26750493 -1.990262508 0.9705623388 
7.007987976 -1.651166916 -1.990262508 0.9705623984 
7.07450676 -1.33779788 -1.990262508 0.9705623388 
7.12717247 -1.021743178 -1.990262508 0.9705618024 
7.165356159 -0.7037206888 -1.990262508 0.9705625772 
7.189623833 -0.3842724562 -1.990262508 0.9705623388 
7.195322037 0.2562548816 -1.990262508 0.9705623388 
7.176801682 0.5760692954 -1.990262508 0.9705623388 
7.144067287 0.8947558403 -1.990262508 0.9705623984 
7.03628397 1.526176691 -1.990262508 0.9705623388 
6.961440086 1.837670803 -1.990262508 0.9705622792 
6.770424843 2.44913578 -1.990262508 0.9705627561 
6.526069164 3.041191339 -1.990262508 0.9705623388 
6.384325981 3.328481436 -1.990262508 0.9705623388 
6.2299366 3.609179497 -1.990262508 0.9705623984 
6.06321764 3.882744074 -1.990262508 0.9705623984 
5.884497166 4.14862299 -1.990262508 0.9705623388 
5.492553711 4.655210018 -1.990262508 0.97056216 
5.056977272 5.124956131 -1.990262508 0.9705623984 
4.823988914 5.344833851 -1.990262508 0.9705623984 
4.223676682 5.611337662 -1.941444993 0.9712739587 
2.994653225 5.935961723 -1.837862492 0.9727854729 
2.727622032 6.063295841 -1.837862492 0.9727855325 
2.455200195 6.178627968 -1.837862492 0.9727855325 
2.177934408 6.281728268 -1.837862492 0.9727855325 
1.896342754 6.372397423 -1.837862492 0.9727854729 
1.611005783 6.450444221 -1.837862492 0.9727854729 
1.322470665 6.515717506 -1.837862492 0.9727855325 
1.031323195 6.568095684 -1.837862492 0.9727855325 
0.738120079 6.607470512 -1.837862492 0.9727855325 
0.1479247957 6.646928787 -1.837862492 0.9727854729 
-0.1479101479 6.646923542 -1.837862492 0.9727855325 
