# .PCD v0.7 - Point Cloud Data file format
VERSION 0.7
FIELDS x y z intensities
SIZE 4 4 4 4
TYPE F F F F
COUNT 1 1 1 1
WIDTH 925
HEIGHT 1
VIEWPOINT 0 0 0 1 0 0 0
POINTS 925
DATA ascii
10.67482376 8.885551453 -1.852016449 0.9454939365 
7.941195965 11.37107372 -1.849417567 0.9455682635 
4.94183588 7.793281078 -1.230504274 0.9634459019 
6.896410942 12.02718258 -1.848694563 0.9455889463 
5.23157692 12.83163071 -1.847764134 0.9456155896 
4.069286823 13.2421627 -1.847253561 0.9456301928 
3.475844622 13.4084568 -1.847032785 0.9456365108 
2.269897461 13.66157722 -1.846661925 0.9456471205 
0.4312109351 13.83934498 -1.846287966 0.9456578493 
-0.1848974526 13.84426689 -1.846212864 0.9456599951 
-0.7200536728 7.010595322 -0.9397390485 0.9719612002 
-1.034692407 6.995463848 -0.9429512024 0.9718666673 
-2.35229969 6.984931469 -0.9827976823 0.970695436 
-2.793725491 7.216967583 -1.031928062 0.9692533016 
-3.469394445 7.031889439 -1.045576811 0.9688530564 
-3.936313391 7.157148361 -1.089179635 0.9675753713 
-4.80982399 7.155302525 -1.14964509 0.9658064246 
-5.319443226 7.199574947 -1.19363749 0.9645215273 
-6.930248737 7.149467468 -1.327714205 0.9606157541 
-8.414496422 7.261386395 -1.482047677 0.9561395645 
-9.213158607 7.261396408 -1.564222932 0.9537647367 
-10.07981873 7.241449833 -1.654975295 0.951148808 
-11.25372028 7.348671913 -1.792218924 0.9472064972 
-12.23824692 6.519618988 -1.849013209 0.9455798268 
-12.51616192 5.968715668 -1.849013209 0.9455798268 
-14.06839371 5.230996132 -2.001413107 0.9412286878 
-14.95001411 1.334028244 -2.001413107 0.9412287474 
-14.99458981 0.6675976515 -2.001413107 0.9412286282 
-14.02923298 4.882812391e-06 -2.001413107 0.944891572 
-13.53216267 -3.701337814 -2.001413107 0.944891572 
-12.66303158 -6.038798809 -2.001413107 0.944891572 
-12.38184071 -6.596103191 -2.001413107 0.9448916912 
-11.01835918 -8.684179306 -2.001413107 0.944891572 
-5.080200195 -6.271611214 -1.151416421 0.9679149985 
-4.632113934 -6.269335747 -1.112026691 0.9689953923 
-3.812407255 -6.25558567 -1.04509449 0.9708340168 
-3.43778801 -6.250663757 -1.017691255 0.9715878963 
-3.078125 -6.238905907 -0.9924762249 0.9722819328 
-2.735585928 -6.228579044 -0.9704959393 0.9728874564 
-2.428676605 -6.274013519 -0.9597727656 0.9731829166 
-2.039326191 -7.082890511 -1.051496863 0.9706580639 
-1.896430612 -12.82146454 -1.849013209 0.9489789009 
0.9795702696 -12.92387676 -1.849013209 0.9489789009 
2.124306679 -12.78567314 -1.849013209 0.9489789009 
2.690961838 -12.6785202 -1.849013209 0.9489789009 
4.354506969 -12.20755386 -1.849013209 0.9489789009 
5.422275066 -11.77221203 -1.849013209 0.9489789605 
5.940590858 -11.51934528 -1.849013209 0.9489789605 
6.44715786 -11.24368095 -1.849013209 0.9489789009 
6.940932274 -10.94576645 -1.849013209 0.9489789009 
7.420966625 -10.62616634 -1.849013209 0.9489789009 
8.648881912 -10.29698753 -1.918403268 0.9471157193 
9.44871521 -10.28330517 -1.992264986 0.9451363683 
9.942133904 -9.898061752 -2.001413107 0.9448918104 
10.37266541 -9.446001053 -2.001413107 0.944891572 
11.17116642 -8.486694336 -2.001413107 0.9448916316 
11.88125992 -7.460229397 -2.001413107 0.944891572 
12.49710178 -6.37471199 -2.001413107 0.9448922276 
13.01441383 -5.238713264 -2.001413107 0.9448916316 
13.73634243 -2.851674795 -2.001413107 0.944891572 
13.93544197 -1.61950922 -2.001413107 0.944891572 
13.99367905 -0.998000443 -2.001413107 0.9448916316 
14.02699947 0.2496972531 -2.001413107 0.9448916316 
14.00200367 0.8734204173 -2.001413107 0.9448916316 
13.6261549 3.338762045 -2.001413107 0.944891572 
13.2754612 4.536625862 -2.001413107 0.9448916316 
13.06054401 5.122683048 -2.001413107 0.9448915124 
11.60997486 5.79315424 -1.851204515 0.9489247203 
11.32874489 6.29648447 -1.849013209 0.9489789009 
10.72430134 7.278461933 -1.849013209 0.9489788413 
10.38989735 7.748300552 -1.849013209 0.9489789009 
9.420820236 7.700829983 -1.735858679 0.9520251155 
9.279536247 9.075336456 -1.851682186 0.9489071965 
8.864653587 9.477002144 -1.851265192 0.9489184022 
8.432470322 9.859814644 -1.850863814 0.9489291906 
7.983861923 10.2230463 -1.850478292 0.9489395022 
7.040903091 10.88794422 -1.849758863 0.9489588737 
6.548422813 11.18835926 -1.84942627 0.9489678144 
5.526269436 11.72224617 -1.848818183 0.9489841461 
4.46126461 12.16355419 -1.848290324 0.948998332 
3.361713886 12.50892544 -1.847846985 0.949010253 
2.595312357 11.71351051 -1.711581945 0.9526799917 
2.236191273 12.75576115 -1.847491145 0.9490197897 
-0.05762206763 12.9470892 -1.847052574 0.9490315914 
-0.9694042802 6.982827187 -1.005726099 0.9719171524 
-2.680835009 7.112792969 -1.084397435 0.9697540998 
-3.023217678 7.053286076 -1.094764352 0.9694693685 
-3.370517492 6.987563133 -1.10676074 0.9691400528 
-3.865952015 7.179721355 -1.163310409 0.9675890803 
-4.709301472 7.142177582 -1.220462441 0.9660241008 
-6.413842678 7.365751743 -1.393343449 0.9613054991 
-7.442152977 7.149921894 -1.472284794 0.9591585994 
-8.14662075 7.157758713 -1.547065377 0.9571292996 
-11.09749985 6.695707798 -1.849013209 0.9489787817 
-13.96205997 1.371220708 -2.001413107 0.944891572 
-14.00923347 0.7487646341 -2.001413107 0.944891572 
-14.02867126 0.1248583943 -2.001413107 0.944891572 
-13.9204731 -1.743466735 -2.001413107 0.944891572 
-13.71041489 -2.973808527 -2.001413107 0.9448916316 
-13.19263172 -4.772197247 -2.001413107 0.944891572 
-12.96728992 -5.354326248 -2.001413107 0.944891572 
-12.71627426 -5.925873756 -2.001413107 0.9448915124 
-11.81443787 -7.565683365 -2.001413107 0.9448913932 
-11.46619606 -8.083735466 -2.001413107 0.9448914528 
-5.176664829 -6.275702953 -1.160577655 0.9676638842 
-4.719560623 -6.270151138 -1.119579315 0.968788147 
-3.8896873 -6.256411076 -1.050975442 0.970672369 
-3.511313438 -6.25194788 -1.022945285 0.9714432359 
-3.148676634 -6.241298676 -0.9972757697 0.9721497893 
-2.802768469 -6.230341434 -0.97461766 0.97277385 
-2.578007698 -12.70197773 -1.849013209 0.9489789009 
-1.438862324 -12.88082981 -1.849013209 0.9489789009 
-0.8644726276 -12.93210411 -1.849013209 0.9489788413 
0.2883740067 -12.95773888 -1.849013209 0.9489789009 
2.010453939 -12.80408192 -1.849013209 0.9489789009 
4.786254883 -12.04483414 -1.849013209 0.9489789009 
6.346835613 -11.30061531 -1.849013209 0.9489789009 
7.326108456 -10.69179153 -1.849013209 0.9489789009 
7.79430151 -10.35531235 -1.849013209 0.9489792585 
9.283866882 -10.28618622 -1.976736665 0.9455521703 
9.853589058 -9.986146927 -2.001413107 0.9448919892 
10.28818798 -9.537939072 -2.001413107 0.9448916316 
10.70228958 -9.070830345 -2.001413107 0.9448916316 
11.09519958 -8.585771561 -2.001413107 0.9448916316 
12.1392498 -7.032626629 -2.001413107 0.944891572 
12.43989754 -6.485683441 -2.001413107 0.9448921084 
12.96727276 -5.354331017 -2.001413107 0.9448916316 
13.39183807 -4.180620193 -2.001413107 0.9448916316 
13.56456757 -3.580761671 -2.001413107 0.944891572 
13.82913017 -2.360969067 -2.001413107 0.9448916316 
13.92046642 -1.743459463 -2.001413107 0.9448916316 
14.02033424 -0.4993163943 -2.001413107 0.9448916316 
14.02867126 0.1248632818 -2.001413107 0.944891572 
13.96205997 1.371218204 -2.001413107 0.944891572 
13.65531921 3.21737051 -2.001413107 0.944891572 
13.31532478 4.418303013 -2.001413107 0.944891572 
13.10558796 5.006237507 -2.001413107 0.9448916316 
12.86992359 5.584272385 -2.001413107 0.9448916316 
11.38433552 6.195410252 -1.849013209 0.9489789009 
10.12742615 8.129145622 -1.85264945 0.9488811493 
8.038334846 7.722714901 -1.590233445 0.9559598565 
8.520254135 9.784809113 -1.85094285 0.9489270449 
6.173373699 7.76139164 -1.414782882 0.9607219696 
7.613730431 10.49903297 -1.850182176 0.9489474893 
5.1049366 11.91008759 -1.848597169 0.9489901066 
4.569453239 12.12369156 -1.848339438 0.9489970207 
4.025102615 12.31337357 -1.848102689 0.9490033984 
3.472978354 12.47878838 -1.847887397 0.9490091801 
1.780659199 12.82644463 -1.847373962 0.9490229487 
-0.5183691382 12.93651867 -1.84700954 0.9490327835 
-0.5925683379 6.99208498 -1.00106883 0.972045362 
-2.932812452 7.014101505 -1.084586501 0.9697488546 
-3.308627844 7.018202782 -1.10690546 0.9691360593 
-3.783579111 7.179091454 -1.157704949 0.9677426815 
-4.154272556 7.097792625 -1.173261642 0.9673163891 
-4.589428425 7.097002029 -1.205716729 0.9664276242 
-5.485551834 7.024042606 -1.271428823 0.9646306634 
-6.720844746 7.185107231 -1.403558493 0.9610274434 
-8.85908699 7.241625786 -1.632350564 0.9548201561 
-10.41664028 7.069672585 -1.795970082 0.9504055977 
-12.61632252 5.608183384 -1.969660759 0.9457417727 
-13.6261425 3.338759661 -2.001413107 0.9448916316 
-13.86896896 2.114467621 -2.001413107 0.944891572 
-13.94931126 1.49541986 -2.001413107 0.9448915124 
-14.02423286 -0.3745117188 -2.001413107 0.944891572 
-13.99367619 -0.9980028868 -2.001413107 0.9448916316 
-13.93544388 -1.619506836 -2.001413107 0.944891572 
-13.84959412 -2.237817287 -2.001413107 0.9448916316 
-13.4285202 -4.061264515 -2.001413107 0.9448916316 
-13.01442814 -5.238706112 -2.001413107 0.944891572 
-12.20135689 -6.924321175 -2.001413107 0.944891572 
-11.17109871 -8.486684799 -2.001413107 0.94489187 
-10.78259277 -8.9752388 -2.001413107 0.944891572 
-10.37268066 -9.446001053 -2.001413107 0.944891572 
-9.942338943 -9.898061752 -2.001413107 0.944891274 
-4.808168888 -6.270932674 -1.127315164 0.9685758948 
-3.585424662 -6.252900124 -1.028282881 0.9712964296 
-2.542329073 -6.235629559 -0.9606716037 0.9731581807 
-2.258247137 -6.330810547 -0.9588944912 0.9732071757 
-2.690952063 -12.67851543 -1.849013209 0.9489789605 
-1.553442359 -12.86751938 -1.849013209 0.9489789009 
-0.4036376774 -12.95466805 -1.849013209 0.9489789009 
1.896440387 -12.82146931 -1.849013209 0.9489788413 
4.678872108 -12.08695793 -1.849013209 0.9489789009 
5.211899281 -11.86686516 -1.849013209 0.9489789009 
5.734643459 -11.62327099 -1.849013209 0.9489788413 
6.24601078 -11.35665035 -1.849013209 0.9489789009 
6.745019436 -11.06756306 -1.849013209 0.9489789009 
7.230669022 -10.75656223 -1.849013209 0.9489789009 
8.344916344 -10.30199242 -1.891359687 0.9478414655 
9.764467239 -10.07344246 -2.001413107 0.9448916316 
10.20289516 -9.629120827 -2.001413107 0.9448916316 
11.01837349 -8.684179306 -2.001413107 0.944891572 
11.7465868 -7.670507431 -2.001413107 0.9448916316 
13.90440655 -1.86729002 -2.001413107 0.944891572 
13.97369862 -1.246899366 -2.001413107 0.9448916316 
14.02923298 -7.324218586e-06 -2.001413107 0.944891572 
13.97369576 1.246916533 -2.001413107 0.9448916316 
13.90440655 1.867282629 -2.001413107 0.944891572 
13.68340588 3.095703125 -2.001413107 0.9448916316 
13.5321455 3.701337814 -2.001413107 0.9448916316 
11.80062008 5.627543926 -1.865116119 0.94854635 
11.15661144 6.596674442 -1.849013209 0.9489789009 
10.52616692 7.562148094 -1.849013209 0.9489789009 
10.19986343 8.039081573 -1.852740645 0.9488787651 
9.82976532 8.482802391 -1.852290154 0.9488908052 
8.165219307 10.08015156 -1.850630403 0.9489354491 
7.707172871 10.43126965 -1.850255132 0.9489455223 
7.234125614 10.76170349 -1.849897146 0.9489551783 
6.746987343 11.07082462 -1.849557042 0.9489642978 
4.134624004 12.27737808 -1.848148465 0.9490021467 
3.5839746 12.44765568 -1.847928762 0.9490081072 
2.597285032 10.80787086 -1.585754156 0.956081152 
2.462939501 12.71436977 -1.847555161 0.9490181208 
0.1728369147 12.9462595 -1.847079754 0.9490308166 
-0.4032275379 12.94068813 -1.847018957 0.9490325451 
-0.5312841535 7.009740829 -1.002879977 0.9719955325 
-1.174155235 7.066923618 -1.02199173 0.9714695811 
-1.48666501 7.004384518 -1.02150774 0.971482873 
-1.81074214 6.985209942 -1.029452682 0.9712643623 
-3.227778196 7.007714748 -1.100677133 0.9693070054 
-3.650268555 7.078168869 -1.136146307 0.9683337808 
-4.424116135 6.976772308 -1.178553462 0.9671714306 
-5.41954565 7.068305492 -1.270660758 0.9646516442 
-6.096801758 7.258574009 -1.352326155 0.962422967 
-7.164204121 7.132397175 -1.442187309 0.9599765539 
-8.765853882 7.296508789 -1.627071857 0.9549628496 
-9.763451576 7.417226315 -1.749205589 0.9516652822 
-10.21243095 7.064633846 -1.771532297 0.951063633 
-11.27229023 6.397050858 -1.849013209 0.9489788413 
-13.01442814 5.238725662 -2.001413107 0.9448915124 
-13.23458481 4.654589653 -2.001413107 0.944891572 
-13.4285841 4.061259747 -2.001413107 0.9448913932 
-13.5959034 3.459892511 -2.001413107 0.944891572 
-13.99368095 0.9980077744 -2.001413107 0.944891572 
-14.0242281 0.3745263517 -2.001413107 0.944891572 
-14.00201607 -0.8734423518 -2.001413107 0.944891572 
-13.76118088 -2.729321241 -2.001413107 0.944891572 
-13.27545357 -4.536625862 -2.001413107 0.9448916912 
-12.55354023 -6.263237 -2.001413107 0.944891572 
-11.94715309 -7.354179382 -2.001413107 0.9448916912 
-10.45633793 -9.353295326 -2.001413107 0.944891572 
-10.02981949 -9.809204102 -2.001413107 0.9448918104 
-4.460580826 -6.26757288 -1.097458839 0.9693953395 
-3.660288095 -6.25382328 -1.033750892 0.9711460471 
-3.291821241 -6.246030331 -1.007235646 0.971875608 
-2.938950062 -6.234052658 -0.9832252264 0.9725366831 
-2.315126896 -6.312177658 -0.9591547251 0.9731999636 
-2.100092649 -6.623491287 -0.9912685752 0.9723151922 
-2.237993002 -12.76625919 -1.849013209 0.9489789605 
-1.667890549 -12.85317802 -1.849013209 0.9489789605 
0.0577099584 -12.96082497 -1.849013209 0.9489789009 
1.209443331 -12.90440369 -1.849013209 0.9489789009 
1.782265544 -12.8378315 -1.849013209 0.9489789009 
4.571117878 -12.1281004 -1.849013209 0.9489789605 
6.646249771 -11.12716293 -1.849013209 0.9489789009 
7.608906269 -10.49240685 -1.849013209 0.9489789605 
8.961684227 -10.29172325 -1.946837068 0.9463533163 
10.94064426 -8.781899452 -2.001413107 0.944891572 
11.67786598 -7.774755478 -2.001413107 0.944891572 
12.01215267 -7.247582912 -2.001413107 0.944891572 
12.60878181 -6.151232719 -2.001413107 0.9448916316 
12.86992645 -5.584267616 -2.001413107 0.9448916316 
13.10559273 -5.006242752 -2.001413107 0.9448916316 
13.31532669 -4.418310642 -2.001413107 0.944891572 
13.49867439 -3.821616173 -2.001413107 0.9448916316 
13.65532207 -3.21737051 -2.001413107 0.944891572 
13.78491879 -2.606748104 -2.001413107 0.944891572 
14.00922298 -0.7487744093 -2.001413107 0.9448916316 
14.02033424 0.4993163943 -2.001413107 0.9448916316 
13.98424816 1.122499943 -2.001413107 0.944891572 
13.82912827 2.360964298 -2.001413107 0.9448916316 
13.71041489 2.973801136 -2.001413107 0.9448916316 
13.56455994 3.580771446 -2.001413107 0.944891572 
13.39183521 4.180624962 -2.001413107 0.9448916316 
12.06282425 5.621352196 -1.898566961 0.9476479292 
11.49280739 5.99179697 -1.849013209 0.9489789009 
11.21489716 6.497109413 -1.849013209 0.9489789009 
10.91479015 6.989570141 -1.849013209 0.9489788413 
9.90533638 8.395385742 -1.852379203 0.9488884807 
7.800014496 10.36268044 -1.850328922 0.9489435554 
4.379946232 7.798578739 -1.276005268 0.9645055532 
5.837778091 11.57163525 -1.848992467 0.948979497 
5.316440105 11.8180418 -1.848706007 0.9489871264 
4.784770489 12.04109383 -1.848440051 0.9489943385 
3.694711924 12.41555595 -1.847970963 0.9490069151 
3.138408184 12.56624508 -1.847768664 0.9490123391 
2.008715868 12.79312992 -1.847430706 0.949021399 
0.2880419791 12.94430161 -1.847094655 0.9490304589 
-0.4697704911 7.027558327 -1.004792333 0.9719429016 
-1.437973619 7.084843636 -1.031334043 0.9712125063 
-1.763842702 7.062421799 -1.038476944 0.971016109 
-2.03804183 6.848569393 -1.019365549 0.9715418816 
-2.401850462 6.927577972 -1.04600811 0.9708090425 
-2.87757802 7.241547585 -1.11165905 0.9690055847 
-3.513881683 6.965185165 -1.112946868 0.9689702392 
-4.001928806 7.12549305 -1.165878057 0.9675186872 
-4.890590668 7.137358189 -1.234319448 0.9656450152 
-6.543657303 7.250136375 -1.393287301 0.9613070488 
-9.435282707 7.301264286 -1.701985478 0.9529388547 
-10.09891605 7.119809628 -1.762763143 0.9512999058 
-11.49279785 5.99179697 -1.849013209 0.9489789605 
-12.06284618 5.621352196 -1.898567319 0.94764781 
-12.96728516 5.354321003 -2.001413107 0.944891572 
-13.5645752 3.580746889 -2.001413107 0.944891572 
-13.71042442 2.973798752 -2.001413107 0.944891572 
-13.9204731 1.743461847 -2.001413107 0.944891572 
-13.98424816 1.122499943 -2.001413107 0.944891572 
-14.02032661 0.4993261695 -2.001413107 0.9448916316 
-14.02867603 -0.1248437464 -2.001413107 0.944891572 
-13.88724136 -1.990966797 -2.001413107 0.944891572 
-13.78491211 -2.606752872 -2.001413107 0.9448916316 
-12.86992645 -5.584262371 -2.001413107 0.9448916316 
-12.32264614 -6.706059456 -2.001413107 0.9448916316 
-11.67785645 -7.77475071 -2.001413107 0.9448916316 
-10.94062996 -8.781904221 -2.001413107 0.944891572 
-10.53915501 -9.259897232 -2.001413107 0.944891572 
-10.11683559 -9.719535828 -2.001413107 0.9448915124 
-6.088823318 -6.394379616 -1.25963223 0.9649528861 
-5.46451664 -6.275561333 -1.187115312 0.9669368267 
-4.989008904 -6.272377968 -1.143357277 0.9681359529 
-3.735952139 -6.254716873 -1.039353251 0.9709919095 
-3.364438295 -6.248359203 -1.012399673 0.9717334509 
-2.036616087 -7.317797661 -1.083635807 0.9697749019 
-2.916186571 -12.62861824 -1.849013209 0.9489789009 
-2.351547718 -12.74583912 -1.849013209 0.9489789009 
-1.782226562 -12.8378315 -1.849013209 0.9489789009 
-1.209409118 -12.90441418 -1.849013209 0.9489788413 
-0.6341454983 -12.94543934 -1.849013209 0.9489788413 
-0.05765136704 -12.9608202 -1.849013209 0.9489789009 
1.094550729 -12.91465759 -1.849013209 0.9489789009 
1.667939425 -12.85318375 -1.849013209 0.9489789009 
2.238022327 -12.76625919 -1.849013209 0.9489789009 
2.803696156 -12.65406704 -1.849013209 0.9489789009 
5.5268507 -11.72348118 -1.849013209 0.9489789009 
6.54695797 -11.18585873 -1.849013209 0.9489789009 
7.515239239 -10.55969715 -1.849013209 0.9489789605 
9.583627701 -10.24563408 -2.001413107 0.9448916316 
10.02990723 -9.809179306 -2.001413107 0.9448916316 
10.4563818 -9.353301048 -2.001413107 0.9448914528 
11.24625492 -8.386942863 -2.001413107 0.9448916316 
11.60820293 -7.878359318 -2.001413107 0.9448916316 
11.94719219 -7.354189396 -2.001413107 0.944891572 
12.26249981 -6.815449238 -2.001413107 0.944891572 
12.81971645 -5.69857645 -2.001413107 0.9448916316 
13.06052494 -5.122668266 -2.001413107 0.9448916316 
13.62613487 -3.338764668 -2.001413107 0.9448916316 
13.76117611 -2.729316235 -2.001413107 0.944891572 
13.94929886 -1.495434523 -2.001413107 0.944891572 
14.00202084 -0.8734179735 -2.001413107 0.944891572 
13.99367619 0.9980028868 -2.001413107 0.9448916316 
13.84959698 2.23780036 -2.001413107 0.9448916316 
13.73633289 2.851667404 -2.001413107 0.9448916316 
13.42851543 4.061252117 -2.001413107 0.9448916316 
13.23456955 4.654606819 -2.001413107 0.944891572 
12.3344965 5.61490202 -1.933386683 0.9467138648 
11.5456686 5.889282227 -1.849013209 0.9489789009 
10.65908623 7.373598576 -1.849013209 0.9489789009 
8.344023705 9.934057236 -1.850785375 0.9489312768 
7.892241001 10.2932663 -1.85040319 0.9489415884 
7.425082684 10.63205528 -1.85003829 0.9489513636 
6.448349476 11.24581528 -1.849362016 0.948969543 
5.940712929 11.51960468 -1.849052072 0.948977828 
5.421552658 11.77060986 -1.848761678 0.9489856958 
4.352719784 12.20245552 -1.848242283 0.9489996433 
3.805141449 12.38248062 -1.848013997 0.949005723 
3.250190258 12.53809071 -1.847807407 0.9490112662 
2.609213829 12.29326153 -1.792829037 0.9504902363 
2.122553587 12.77494621 -1.847460389 0.9490206242 
1.552026391 12.8557415 -1.847320795 0.9490243793 
-0.1728466749 12.94596672 -1.847040534 0.949031949 
-0.4283154309 7.39574194 -1.056847692 0.9705109596 
-1.952622056 6.781699181 -1.006786227 0.9718880653 
-3.455424786 7.00359869 -1.114127755 0.9689378142 
-4.28650856 7.033525467 -1.175063848 0.9672669768 
-4.800336838 7.141142368 -1.227536798 0.9658305645 
-5.843500614 7.213911057 -1.324417353 0.9631840587 
-6.474038124 7.302612305 -1.392243624 0.9613354206 
-9.165678978 7.223979473 -1.664886951 0.9539406896 
-10.84398937 7.081093788 -1.847624302 0.9490162134 
-11.43903828 6.09383297 -1.849013209 0.9489789009 
-11.80063915 5.627533913 -1.865115881 0.9485462904 
-12.91912556 5.469521523 -2.001413107 0.944891572 
-13.14962864 4.889409065 -2.001413107 0.9448916316 
-13.35411549 4.299638748 -2.001413107 0.944891572 
-13.53216267 3.701347589 -2.001413107 0.944891572 
-13.80757809 2.483940363 -2.001413107 0.944891572 
-13.90440845 1.867275357 -2.001413107 0.944891572 
-13.97370529 1.246904254 -2.001413107 0.944891572 
-14.01533127 0.624057591 -2.001413107 0.9448916316 
-14.02923298 4.882812391e-06 -2.001413107 0.944891572 
-13.97369576 -1.246899366 -2.001413107 0.9448916316 
-13.80757809 -2.483969688 -2.001413107 0.944891572 
-13.35411072 -4.299643517 -2.001413107 0.944891572 
-12.91912079 -5.469516277 -2.001413107 0.944891572 
-12.66303158 -6.038798809 -2.001413107 0.944891572 
-12.07615662 -7.140395164 -2.001413107 0.9448916316 
-11.74663544 -7.670532227 -2.001413107 0.9448913932 
-10.62113762 -9.165727615 -2.001413107 0.944891572 
-10.20283222 -9.629116058 -2.001413107 0.9448918104 
-4.632104397 -6.269335747 -1.112025857 0.9689953923 
-3.81239748 -6.255580902 -1.045093417 0.9708340764 
-3.437778234 -6.250673771 -1.017690897 0.9715878367 
-3.078125 -6.238905907 -0.9924762249 0.9722819328 
-2.735585928 -6.228579044 -0.9704954028 0.9728874564 
-2.152832031 -6.392597675 -0.9622964263 0.9731134176 
-0.7493261695 -12.93928146 -1.849013209 0.9489788413 
-0.1729833931 -12.95980453 -1.849013209 0.9489789009 
0.4036572278 -12.95466805 -1.849013209 0.9489789009 
0.9795556664 -12.92387676 -1.849013209 0.9489789009 
1.553520441 -12.86750412 -1.849013209 0.9489789009 
2.124340773 -12.78567886 -1.849013209 0.9489789009 
2.691010714 -12.67852497 -1.849013209 0.9489788413 
4.354516506 -12.20754814 -1.849013209 0.9489789605 
4.893266678 -12.0017767 -1.849013209 0.9489788413 
5.422270298 -11.77221203 -1.849013209 0.9489789605 
6.447172642 -11.24369144 -1.849013209 0.9489788413 
6.940942287 -10.94575214 -1.849013209 0.9489789009 
7.420961857 -10.62616158 -1.849013209 0.9489789605 
8.648881912 -10.29698753 -1.91840148 0.9471157193 
9.44871521 -10.28331566 -1.992263913 0.9451363683 
9.942212105 -9.898076057 -2.001413107 0.944891572 
10.37268066 -9.445985794 -2.001413107 0.944891572 
10.78260231 -8.97521019 -2.001413107 0.9448916316 
11.53763199 -7.981357098 -2.001413107 0.9448916316 
11.8812542 -7.460219383 -2.001413107 0.9448916316 
12.76848602 -5.812460899 -2.001413107 0.9448916316 
13.42852497 -4.061254978 -2.001413107 0.9448916316 
13.59589767 -3.459894896 -2.001413107 0.944891572 
13.73633003 -2.851667404 -2.001413107 0.9448916316 
13.93544197 -1.619514108 -2.001413107 0.944891572 
13.99367905 -0.9980102181 -2.001413107 0.9448916316 
14.02700138 0.2497143447 -2.001413107 0.944891572 
14.00201607 0.8734374642 -2.001413107 0.944891572 
13.06046391 5.12269783 -2.001413107 0.9448918104 
12.61629868 5.608183384 -1.969656587 0.9457418323 
11.32874489 6.29648447 -1.849013209 0.9489789009 
11.03745556 6.79419899 -1.849013209 0.9489788413 
8.432465553 9.859824181 -1.850863814 0.9489291906 
7.983852386 10.22304153 -1.850478292 0.9489395618 
7.519701958 10.56596661 -1.850109816 0.9489494562 
6.043207645 11.4666357 -1.849112511 0.9489762783 
5.526254654 11.72225571 -1.848818183 0.9489841461 
3.915268421 12.34841251 -1.848057985 0.9490045905 
2.595312357 11.71351051 -1.711581945 0.9526799917 
2.236186504 12.75575161 -1.847491145 0.9490198493 
0.518422842 12.9373436 -1.847127438 0.9490296245 
-0.0575976558 12.9470892 -1.847052574 0.9490315914 
-0.6334521174 12.93134689 -1.847001195 0.9490329623 
-0.6536474228 6.974594593 -0.9993588328 0.9720925093 
-0.9694238305 6.982827187 -1.005725741 0.9719171524 
-1.292221665 7.004003525 -1.016056299 0.9716328382 
-1.640776277 7.105331898 -1.040324092 0.9709652662 
-2.268154144 6.938579082 -1.041406631 0.9709355235 
-2.680844784 7.112792969 -1.08439815 0.9697540402 
-3.023227453 7.053295612 -1.094764948 0.9694693685 
-4.209770203 7.047997952 -1.171175838 0.9673734903 
-4.709296703 7.142172813 -1.220461607 0.9660241008 
-6.413842678 7.365766525 -1.393345118 0.9613054395 
-6.843686581 7.187158108 -1.415799856 0.960694313 
-7.44214344 7.149926662 -1.472285151 0.9591585994 
-8.146645546 7.157739162 -1.547065854 0.9571292996 
-8.97524929 7.204267502 -1.641874313 0.954562664 
-10.6273098 7.075307369 -1.821362615 0.9497223496 
-11.09751892 6.695678711 -1.849013209 0.9489787817 
-11.64893055 5.682831764 -1.849013209 0.9489780664 
-12.86992645 5.584262371 -2.001413107 0.9448916316 
-13.31533623 4.418305397 -2.001413107 0.9448915124 
-13.78490734 2.606743097 -2.001413107 0.9448916316 
-13.96205997 1.371240258 -2.001413107 0.944891572 
-14.02866173 0.1248779297 -2.001413107 0.9448916316 
-14.02033615 -0.4993408024 -2.001413107 0.944891572 
-13.98424244 -1.122534156 -2.001413107 0.944891572 
-13.92047787 -1.743491173 -2.001413107 0.944891572 
-13.82914543 -2.360996008 -2.001413107 0.9448915124 
-13.71041489 -2.973828077 -2.001413107 0.944891572 
-13.19262695 -4.772197247 -2.001413107 0.944891572 
-12.44008255 -6.485663891 -2.001413107 0.944891572 
-11.4661274 -8.083696365 -2.001413107 0.9448916912 
-11.09551239 -8.585790634 -2.001413107 0.9448906779 
-9.853715897 -9.986181259 -2.001413107 0.944891572 
-5.669364929 -6.281479359 -1.207134128 0.966388762 
-4.29329586 -6.265693188 -1.083573699 0.9697766304 
-3.889677763 -6.256411076 -1.050973773 0.9706724286 
-3.511313438 -6.251938343 -1.022945762 0.9714432955 
-2.802768469 -6.230341434 -0.97461766 0.97277385 
-2.485488176 -6.254843712 -0.9601870775 0.9731715322 
-2.200756788 -6.347578049 -0.9584293365 0.9732199907 
-2.058373928 -6.916864872 -1.029527903 0.971262157 
-3.14052248 -12.5747118 -1.849013209 0.9489789009 
-2.578037024 -12.7019577 -1.849013209 0.9489789605 
-2.010429621 -12.80407715 -1.849013209 0.9489789009 
-0.8645068407 -12.93210411 -1.849013209 0.9489788413 
-0.2883105278 -12.95774841 -1.849013209 0.9489789009 
0.2883935571 -12.95775318 -1.849013209 0.9489788413 
0.8645019531 -12.93207932 -1.849013209 0.9489789605 
2.010453939 -12.80408192 -1.849013209 0.9489789009 
2.578061581 -12.7019825 -1.849013209 0.9489788413 
3.140507698 -12.57470703 -1.849013209 0.9489789605 
3.696762562 -12.42256832 -1.849013209 0.9489789009 
4.245707989 -12.24582481 -1.849013209 0.9489789009 
4.786254883 -12.04483414 -1.849013209 0.9489789009 
5.837827206 -11.57177258 -1.849013209 0.9489789009 
6.346821308 -11.30061531 -1.849013209 0.9489789605 
6.843232155 -11.00710869 -1.849013209 0.9489789009 
7.326088905 -10.69180107 -1.849013209 0.9489789009 
7.79430151 -10.35532188 -1.849013209 0.9489792585 
8.49579525 -10.29952145 -1.904709935 0.9474831223 
10.70230961 -9.070815086 -2.001413107 0.944891572 
11.09521008 -8.58576107 -2.001413107 0.9448916316 
11.46615219 -8.083705902 -2.001413107 0.9448916316 
12.43989754 -6.485683441 -2.001413107 0.9448921084 
12.71625996 -5.92585659 -2.001413107 0.9448916316 
12.96727276 -5.354331017 -2.001413107 0.9448916316 
13.19261646 -4.772209167 -2.001413107 0.944891572 
13.9204855 -1.743432522 -2.001413107 0.944891572 
13.9842453 -1.122470737 -2.001413107 0.9448916316 
14.00922298 0.7487963438 -2.001413107 0.9448916316 
13.88723087 1.990961909 -2.001413107 0.9448916316 
13.65531921 3.21737051 -2.001413107 0.944891572 
13.4986763 3.821618557 -2.001413107 0.9448916316 
13.31532478 4.418303013 -2.001413107 0.944891572 
13.10558796 5.006237507 -2.001413107 0.9448916316 
12.86993122 5.584255219 -2.001413107 0.9448916316 
11.38434029 6.19539547 -1.849013209 0.9489789009 
11.09749508 6.695688248 -1.849013209 0.9489788413 
10.78867149 7.182709694 -1.849013209 0.9489788413 
10.45843697 7.655556679 -1.849013209 0.9489789009 
9.753408432 8.569545746 -1.8522017 0.9488931894 
8.520234108 9.784809113 -1.85094285 0.9489270449 
6.173359394 7.76139164 -1.414781332 0.9607220292 
7.613730431 10.49903297 -1.850182176 0.9489474893 
6.145219803 11.4127779 -1.849173665 0.9489746094 
5.630551815 11.67296314 -1.848875523 0.9489825964 
4.025122166 12.3133688 -1.848102689 0.9490033984 
3.472993135 12.47878361 -1.847887397 0.9490091801 
2.914160013 12.61960411 -1.84769392 0.9490143657 
2.349628925 12.73556614 -1.847522736 0.9490190148 
0.05760253593 12.9471674 -1.847065687 0.9490312934 
-1.220414996 6.961547852 -1.008281827 0.9718468189 
-1.573862314 7.103393555 -1.037949085 0.9710305929 
-1.859975576 6.920981407 -1.02238512 0.9714587927 
-2.93279767 7.014096737 -1.084586024 0.9697489142 
-3.308627844 7.018202782 -1.106904626 0.9691360593 
-3.783559561 7.179091454 -1.157704115 0.9677427411 
-5.102519512 7.169540882 -1.25539577 0.9650687575 
-5.485571384 7.024037838 -1.271428704 0.9646306038 
-6.16928196 7.213495731 -1.354107976 0.9623744488 
-6.720854282 7.185102463 -1.403557658 0.9610273838 
-7.225996017 7.066967487 -1.441907883 0.9599841833 
-8.85908699 7.241625786 -1.632350564 0.9548201561 
-10.41664028 7.069672585 -1.795970082 0.9504055977 
-11.03742123 6.79419899 -1.849013209 0.9489789605 
-11.32875443 6.296479225 -1.849013209 0.9489789009 
-11.61135197 5.79315424 -1.8512007 0.9489200711 
-12.61630344 5.608183384 -1.969656348 0.9457418323 
-13.06057072 5.122690201 -2.001413107 0.9448914528 
-13.27547836 4.536654949 -2.001413107 0.9448915124 
-13.46409607 3.941625834 -2.001413107 0.9448916912 
-13.62613773 3.338725567 -2.001413107 0.9448916316 
-13.86896896 2.114438534 -2.001413107 0.944891572 
-13.94929123 1.495405197 -2.001413107 0.9448916316 
-14.00201607 0.8734081984 -2.001413107 0.944891572 
-14.02700138 0.2496874928 -2.001413107 0.944891572 
-14.02423286 -0.3745312393 -2.001413107 0.944891572 
-13.99367619 -0.9980028868 -2.001413107 0.9448916316 
-13.93544388 -1.619506836 -2.001413107 0.944891572 
-13.84959412 -2.237817287 -2.001413107 0.9448916316 
-13.73633766 -2.851669788 -2.001413107 0.9448916316 
-13.23457527 -4.654574871 -2.001413107 0.9448916316 
-12.20133305 -6.924340725 -2.001413107 0.9448916316 
-11.88127422 -7.460258484 -2.001413107 0.9448914528 
-11.53764629 -7.981376648 -2.001413107 0.9448915124 
-10.3726511 -9.446001053 -2.001413107 0.9448916316 
-9.942260742 -9.898071289 -2.001413107 0.9448914528 
-5.777328968 -6.287670612 -1.218158007 0.9660871029 
-5.270727634 -6.27511692 -1.169098139 0.9674304128 
-3.968491077 -6.258246899 -1.057174802 0.9705019593 
-3.585434437 -6.252895355 -1.028283715 0.9712964296 
-2.870512724 -6.232075214 -0.9788478017 0.9726573229 
-2.542348623 -6.235610008 -0.9606717229 0.9731582403 
-0.9794921875 -12.92389107 -1.849013209 0.9489789009 
-0.4036376774 -12.95466805 -1.849013209 0.9489789009 
0.749360323 -12.93926239 -1.849013209 0.9489789605 
1.896440387 -12.82146931 -1.849013209 0.9489788413 
2.464877844 -12.72441864 -1.849013209 0.9489789009 
3.028461933 -12.60216808 -1.849013209 0.9489789009 
5.734658241 -11.62325191 -1.849013209 0.9489789009 
6.246030331 -11.35664082 -1.849013209 0.9489789009 
6.745034218 -11.06755829 -1.849013209 0.9489789009 
7.230688095 -10.75656223 -1.849013209 0.9489788413 
7.702001572 -10.42426205 -1.849013209 0.9489789009 
9.121489525 -10.28898907 -1.9615978 0.9459578991 
12.07618427 -7.14040041 -2.001413107 0.944891572 
13.1496315 -4.889394283 -2.001413107 0.9448916316 
13.68342209 -3.09569335 -2.001413107 0.944891572 
13.80757046 -2.483940363 -2.001413107 0.9448916316 
13.90440178 -1.867275357 -2.001413107 0.9448916316 
14.02923298 -7.324218586e-06 -2.001413107 0.944891572 
13.97369862 1.246906757 -2.001413107 0.9448916316 
13.90440369 1.86727047 -2.001413107 0.944891572 
13.80757332 2.483940363 -2.001413107 0.9448916316 
13.68340778 3.095688343 -2.001413107 0.9448916316 
13.53216076 3.701308489 -2.001413107 0.9448916316 
13.35408688 4.299660683 -2.001413107 0.9448916316 
13.14961433 4.889433384 -2.001413107 0.9448916316 
12.91914272 5.469545841 -2.001413107 0.9448914528 
10.52615738 7.562162876 -1.849013209 0.9489789009 
10.19986343 8.039081573 -1.852740645 0.9488787651 
9.82976532 8.482802391 -1.852290154 0.9488908052 
9.440478325 8.909555435 -1.851853132 0.9489025474 
9.032729149 9.318549156 -1.851430297 0.9489139915 
8.607373238 9.708993912 -1.851022482 0.9489248991 
6.246733189 11.35804653 -1.849235654 0.9489728808 
5.734360218 11.6227684 -1.848933578 0.9489810467 
4.677279949 12.08287525 -1.848389387 0.9489957094 
3.583964825 12.44766617 -1.847928762 0.9490080476 
1.894770503 12.81028271 -1.847401857 0.9490222335 
-0.84135741 6.969135761 -1.001437664 0.9720352292 
-1.17414546 7.066928387 -1.021991253 0.9714695811 
-1.810756803 6.985209942 -1.029451847 0.9712643623 
-2.486518383 6.970668793 -1.055814743 0.9705394506 
-2.950302601 7.236186504 -1.114824653 0.9689187407 
-3.65027833 7.078164101 -1.136145115 0.9683337808 
-5.008832932 7.172197342 -1.248005033 0.9652708173 
-6.096801758 7.258574009 -1.352326155 0.962422967 
-6.576333046 7.157246113 -1.386628032 0.9614883661 
-9.763412476 7.417236328 -1.749202967 0.9516654015 
-10.21238708 7.064628601 -1.771527648 0.9510638118 
-10.97654724 6.892123699 -1.849013209 0.9489789605 
-11.54569817 5.889272213 -1.849013209 0.9489788413 
-13.01450634 5.238700867 -2.001413107 0.944891274 
-13.4285841 4.061259747 -2.001413107 0.9448913932 
-13.73634243 2.851669788 -2.001413107 0.944891572 
-13.84959412 2.237812519 -2.001413107 0.9448916316 
-13.99368095 0.9980077744 -2.001413107 0.944891572 
-14.0242281 0.3745263517 -2.001413107 0.944891572 
-14.02700615 -0.2496874928 -2.001413107 0.944891572 
-13.76116657 -2.729350567 -2.001413107 0.9448916316 
-13.4641161 -3.941625834 -2.001413107 0.9448916316 
-13.27546883 -4.536650181 -2.001413107 0.944891572 
-13.06053162 -5.122694969 -2.001413107 0.944891572 
-12.81971645 -5.698593616 -2.001413107 0.9448916316 
-12.26246548 -6.815449238 -2.001413107 0.9448916912 
-11.94715309 -7.354179382 -2.001413107 0.9448916912 
-10.02974129 -9.809179306 -2.001413107 0.9448920488 
-5.896352291 -6.303647518 -1.23137331 0.9657255411 
-4.048335075 -6.260307312 -1.063565969 0.9703263044 
-2.600283146 -6.218857288 -0.9616156816 0.9731321335 
-2.237993002 -12.76625919 -1.849013209 0.9489789605 
-1.667890549 -12.85317802 -1.849013209 0.9489789605 
-1.094492197 -12.91464806 -1.849013209 0.9489789605 
-0.5189550519 -12.95055676 -1.849013209 0.9489789009 
0.05766113102 -12.96081543 -1.849013209 0.9489789009 
0.6341406107 -12.94543457 -1.849013209 0.9489789009 
1.782270432 -12.83781719 -1.849013209 0.9489789605 
2.351577044 -12.74584484 -1.849013209 0.9489789009 
2.916225433 -12.62860298 -1.849013209 0.9489789605 
3.475092649 -12.48638153 -1.849013209 0.9489789605 
4.571117878 -12.1281004 -1.849013209 0.9489789605 
5.106088638 -11.91276836 -1.849013209 0.9489789009 
6.646249771 -11.12716293 -1.849013209 0.9489789009 
7.608906269 -10.49240685 -1.849013209 0.9489789605 
8.196059227 -10.30440903 -1.87833488 0.9481911659 
8.961640358 -10.29172325 -1.94683373 0.9463533759 
10.11677265 -9.719555855 -2.001413107 0.9448916316 
10.53917503 -9.259853363 -2.001413107 0.9448916316 
10.94064903 -8.78186512 -2.001413107 0.9448916316 
11.32047367 -8.286513329 -2.001413107 0.944891572 
12.32267284 -6.706032753 -2.001413107 0.944891572 
12.60878181 -6.151232719 -2.001413107 0.9448916316 
13.10559273 -5.006242752 -2.001413107 0.9448916316 
13.65532207 -3.21737051 -2.001413107 0.944891572 
13.78491879 -2.606748104 -2.001413107 0.944891572 
14.00923538 -0.7487987876 -2.001413107 0.944891572 
14.02867603 -0.1248730421 -2.001413107 0.944891572 
14.02033138 0.4993505776 -2.001413107 0.9448916316 
13.98424053 1.122534156 -2.001413107 0.9448916316 
13.92047596 1.743488789 -2.001413107 0.944891572 
13.56455994 3.580771446 -2.001413107 0.944891572 
13.19261456 4.772197247 -2.001413107 0.9448916316 
12.96728992 5.354328632 -2.001413107 0.944891572 
10.91479015 6.989570141 -1.849013209 0.9489788413 
10.59305191 7.468159199 -1.849013209 0.9489789009 
10.27152348 7.948369026 -1.852832317 0.9488762617 
9.905356407 8.395365715 -1.852379203 0.9488884807 
9.519848824 8.825575829 -1.851939321 0.9489002824 
9.115683556 9.238237381 -1.851513624 0.9489117265 
8.693788528 9.632455826 -1.85110271 0.9489227533 
8.254926682 10.00751972 -1.85070765 0.948933363 
4.379946232 7.798578739 -1.276005268 0.9645055532 
5.316440105 11.8180418 -1.848706007 0.9489871264 
4.243842602 12.24039555 -1.848194838 0.949000895 
3.138408184 12.56624508 -1.847768664 0.9490123391 
2.008749962 12.79312515 -1.847430706 0.949021399 
1.437568307 12.86887646 -1.847295642 0.9490250349 
0.8635888696 12.91929626 -1.847183585 0.9490280747 
-0.4697851539 7.027553558 -1.004790664 0.9719429016 
-1.095805645 6.978881836 -1.007808328 0.9718598723 
-1.763842702 7.062421799 -1.038476944 0.971016109 
-2.401850462 6.927577972 -1.04600811 0.9708090425 
-3.154741049 7.012729168 -1.097009659 0.9694076777 
-3.513881683 6.965185165 -1.112946868 0.9689702392 
-4.001928806 7.12549305 -1.165878057 0.9675186872 
-4.36315918 7.017983437 -1.178908467 0.9671616554 
-4.890571117 7.137362957 -1.234320521 0.9656450152 
-7.697773457 7.136386395 -1.497481823 0.9584743381 
-10.91477489 6.989560604 -1.849013209 0.9489789009 
-11.21489716 6.497109413 -1.849013209 0.9489789009 
-11.49279785 5.99179697 -1.849013209 0.9489789605 
-12.06284618 5.621352196 -1.898567319 0.94764781 
-12.96728516 5.354321003 -2.001413107 0.944891572 
-13.39197731 4.180649281 -2.001413107 0.9448910952 
-13.71043396 2.973828077 -2.001413107 0.9448915124 
-13.9204731 1.743422866 -2.001413107 0.9448916316 
-14.02033615 0.4993017614 -2.001413107 0.944891572 
-14.0286665 -0.1248730421 -2.001413107 0.9448916316 
-13.78491211 -2.606752872 -2.001413107 0.9448916316 
-13.49868107 -3.821630716 -2.001413107 0.944891572 
-13.10559082 -5.006245136 -2.001413107 0.9448916316 
-12.86992645 -5.584262371 -2.001413107 0.9448916316 
-12.60878849 -6.151249886 -2.001413107 0.944891572 
-12.012187 -7.24756813 -2.001413107 0.9448915124 
-11.67790508 -7.774741173 -2.001413107 0.9448914528 
-11.32042408 -8.286542892 -2.001413107 0.9448916316 
-10.53913593 -9.259906769 -2.001413107 0.944891572 
-10.11668968 -9.719560623 -2.001413107 0.94489187 
-6.088686466 -6.394257545 -1.25960803 0.9649536014 
-5.46451664 -6.275561333 -1.187115312 0.9669368267 
-4.989008904 -6.272377968 -1.143357277 0.9681359529 
-4.129169941 -6.262348652 -1.070114374 0.970146358 
-3.364438295 -6.248359203 -1.012399673 0.9717334509 
-2.667680502 -6.223833084 -0.9660179019 0.973010838 
-2.371899366 -6.293110371 -0.959428668 0.9731924534 
-2.036616087 -7.317729473 -1.083627582 0.9697751403 
-2.351489305 -12.74583912 -1.849013209 0.9489789605 
-1.7822119 -12.83783627 -1.849013209 0.9489789009 
1.094550729 -12.91465759 -1.849013209 0.9489789009 
2.803696156 -12.65406704 -1.849013209 0.9489789009 
3.363823175 -12.51683044 -1.849013209 0.9489789009 
4.462993145 -12.16831017 -1.849013209 0.9489789009 
4.999838829 -11.95774364 -1.849013209 0.9489789605 
5.526821136 -11.72349072 -1.849013209 0.9489789605 
6.04286623 -11.46603489 -1.849013209 0.9489789009 
6.546987057 -11.18585396 -1.849013209 0.9489789009 
7.515268326 -10.55969715 -1.849013209 0.9489789009 
8.049272537 -10.30675316 -1.865635037 0.9485322833 
8.804164886 -10.29438496 -1.9324435 0.9467391968 
10.4563818 -9.353301048 -2.001413107 0.9448914528 
11.24625492 -8.386942863 -2.001413107 0.9448916316 
11.60820293 -7.878359318 -2.001413107 0.9448916316 
12.81970406 -5.698606014 -2.001413107 0.9448916316 
13.06050968 -5.12269783 -2.001413107 0.9448916316 
13.62615967 -3.33874011 -2.001413107 0.944891572 
13.86896706 -2.114435911 -2.001413107 0.9448916316 
14.00202084 -0.8734179735 -2.001413107 0.944891572 
14.02699947 -0.2496874928 -2.001413107 0.9448916316 
14.02421856 0.3745263517 -2.001413107 0.9448916316 
13.99367619 0.9980028868 -2.001413107 0.9448916316 
13.93542957 1.619506836 -2.001413107 0.9448916316 
13.73633289 2.851667404 -2.001413107 0.9448916316 
13.42851543 4.061252117 -2.001413107 0.9448916316 
13.23458004 4.654577732 -2.001413107 0.944891572 
13.01442337 5.238681316 -2.001413107 0.9448916316 
10.97654724 6.892172813 -1.849013209 0.9489788413 
9.255629539 7.704257488 -1.717990637 0.952507019 
9.598432541 8.740942001 -1.852026343 0.9488979578 
9.197973251 9.157143593 -1.851597548 0.9489094615 
7.892241001 10.2932663 -1.85040319 0.9489415884 
6.448378563 11.24580097 -1.849362016 0.948969543 
5.940746784 11.51959419 -1.849052072 0.948977828 
4.891904354 11.99837875 -1.848491669 0.9489928484 
3.805107355 12.38248062 -1.848013997 0.9490057826 
3.250156164 12.53808594 -1.847807407 0.9490113258 
2.122539043 12.77494621 -1.847460389 0.9490206242 
1.552026391 12.8557415 -1.847320795 0.9490243793 
-0.1728466749 12.94596672 -1.847040534 0.949031949 
-0.4283154309 7.39574194 -1.056847692 0.9705109596 
-1.353715777 6.988222599 -1.015474081 0.9716488719 
-1.720722675 7.160331726 -1.050577879 0.9706833363 
-2.7564013 7.120551586 -1.089277625 0.969620049 
-3.080610275 7.014081955 -1.09289062 0.9695208073 
-5.288027287 7.157060623 -1.269492149 0.9646835327 
-6.474038124 7.302612305 -1.392243624 0.9613354206 
-7.6098876 7.181923866 -1.492764831 0.9586024284 
-9.165678978 7.223979473 -1.664886951 0.9539406896 
-10.03514671 7.209423542 -1.762763143 0.9512999058 
-10.84393978 7.081093788 -1.847618937 0.9490163922 
-11.15662098 6.596674442 -1.849013209 0.9489789009 
-11.43904781 6.093857288 -1.849013209 0.9489787817 
-11.80069351 5.627543926 -1.865123391 0.9485461116 
-12.91913509 5.46948719 -2.001413107 0.944891572 
-13.35412121 4.299613953 -2.001413107 0.944891572 
-13.53214359 3.701318264 -2.001413107 0.9448916316 
-13.80757809 2.483940363 -2.001413107 0.944891572 
-14.01533127 0.624057591 -2.001413107 0.9448916316 
-14.02923298 4.882812391e-06 -2.001413107 0.944891572 
-14.01533127 -0.6240722537 -2.001413107 0.9448916316 
-13.80756283 -2.483935595 -2.001413107 0.9448916316 
-13.68341732 -3.09569335 -2.001413107 0.944891572 
-13.14960861 -4.889443398 -2.001413107 0.9448916316 
-12.91909599 -5.469541073 -2.001413107 0.9448916316 
-12.66300297 -6.038813114 -2.001413107 0.9448916316 
-12.38183117 -6.596132755 -2.001413107 0.9448916316 
-11.74663544 -7.670532227 -2.001413107 0.9448913932 
-11.39373493 -8.185454369 -2.001413107 0.9448916316 
-10.20283222 -9.629116058 -2.001413107 0.9448918104 
-9.764467239 -10.07344246 -2.001413107 0.9448916316 
-5.565004826 -6.277245998 -1.196757793 0.9666727781 
-4.632123947 -6.269335747 -1.11202836 0.9689953327 
-3.812416792 -6.25558567 -1.045094609 0.9708340168 
-2.735576153 -6.228583813 -0.970494926 0.9728874564 
-2.152827024 -6.392626762 -0.9623000622 0.9731132984 
-3.028452158 -12.60216236 -1.849013209 0.9489789605 
-1.324174762 -12.89312458 -1.849013209 0.9489789009 
-0.7493261695 -12.93928146 -1.849013209 0.9489788413 
-0.1729833931 -12.95980453 -1.849013209 0.9489789009 
0.4036572278 -12.95466805 -1.849013209 0.9489789009 
0.9795458913 -12.92388153 -1.849013209 0.9489789009 
4.354555607 -12.20754337 -1.849013209 0.9489789009 
4.893261433 -12.00175285 -1.849013209 0.9489789009 
5.422309399 -11.77220631 -1.849013209 0.9489789009 
5.940634727 -11.51934528 -1.849013209 0.9489789009 
6.447172642 -11.24369144 -1.849013209 0.9489788413 
6.940942287 -10.94575214 -1.849013209 0.9489789009 
7.910185337 -10.3166647 -1.854608417 0.9488285184 
8.648881912 -10.29698753 -1.91840148 0.9471157193 
9.44871521 -10.28331566 -1.992263913 0.9451363683 
11.17115688 -8.486703873 -2.001413107 0.9448916316 
11.53764629 -7.981332779 -2.001413107 0.9448916316 
11.88127422 -7.460190296 -2.001413107 0.9448916316 
12.20136738 -6.924282074 -2.001413107 0.9448916316 
13.01442146 -5.238688946 -2.001413107 0.9448916316 
13.23458004 -4.654599667 -2.001413107 0.944891572 
13.42852497 -4.061254978 -2.001413107 0.9448916316 
13.73633003 -2.851667404 -2.001413107 0.9448916316 
13.93544197 -1.619514108 -2.001413107 0.944891572 
14.0242281 -0.3745385706 -2.001413107 0.944891572 
14.02700138 0.2496850491 -2.001413107 0.944891572 
14.00200367 0.8734081984 -2.001413107 0.9448916316 
13.94930649 1.495402813 -2.001413107 0.944891572 
13.86895943 2.114499569 -2.001413107 0.944891572 
13.76116467 2.729350567 -2.001413107 0.9448916316 
13.62613297 3.338786602 -2.001413107 0.9448916316 
13.27545643 4.536643028 -2.001413107 0.9448916316 
11.61181164 5.79315424 -1.851201534 0.9489185214 
11.03745556 6.79419899 -1.849013209 0.9489788413 
10.38989735 7.748300552 -1.849013209 0.9489789009 
9.6763134 8.655570984 -1.852113724 0.9488955736 
9.279545784 9.07532692 -1.851682186 0.9489071965 
8.864658356 9.476996422 -1.851265311 0.9489184022 
8.432479858 9.859814644 -1.850863814 0.9489291906 
7.983828068 10.22305679 -1.850478292 0.9489395618 
6.548398495 11.18837357 -1.84942627 0.9489678144 
5.526254654 11.72225571 -1.848818183 0.9489841461 
4.998598576 11.95471668 -1.848544002 0.9489914775 
4.461254597 12.16355419 -1.848290324 0.948998332 
3.915268421 12.34841251 -1.848057985 0.9490045905 
2.236186504 12.75575161 -1.847491145 0.9490198493 
1.666420817 12.8415966 -1.847346902 0.9490237236 
0.518422842 12.9373436 -1.847127438 0.9490296245 
-0.6334521174 12.93134689 -1.847001195 0.9490329623 
-0.9694238305 6.982827187 -1.005725741 0.9719171524 
-1.292221665 7.004003525 -1.016056299 0.9716328382 
-1.640776277 7.105331898 -1.040324092 0.9709652662 
-2.680844784 7.112792969 -1.08439815 0.9697540402 
-3.023227453 7.053295612 -1.094764948 0.9694693685 
-3.865952015 7.179721355 -1.163310409 0.9675890803 
-4.209770203 7.047997952 -1.171175838 0.9673734903 
-4.709296703 7.142172813 -1.220461607 0.9660241008 
-5.180326939 7.143476486 -1.258853316 0.9649742842 
-6.413842678 7.365766525 -1.393345118 0.9613054395 
-6.843686581 7.187158108 -1.415799856 0.960694313 
-8.146645546 7.157739162 -1.547065854 0.9571292996 
-8.97524929 7.204267502 -1.641874313 0.954562664 
-9.952915192 7.285468578 -1.75963378 0.9513841867 
-11.64893055 5.682831764 -1.849013209 0.9489780664 
-13.10559082 5.006239891 -2.001413107 0.9448916316 
-13.78490734 2.606743097 -2.001413107 0.9448916316 
-13.96205997 1.371240258 -2.001413107 0.944891572 
-14.00924301 0.7487987876 -2.001413107 0.9448915124 
-14.0286665 0.1248193309 -2.001413107 0.9448916316 
-13.98424244 -1.122534156 -2.001413107 0.944891572 
-13.92047787 -1.743491173 -2.001413107 0.944891572 
-13.71041489 -2.973828077 -2.001413107 0.944891572 
-13.19262695 -4.772197247 -2.001413107 0.944891572 
-12.13924313 -7.032626629 -2.001413107 0.9448916316 
-11.81440449 -7.565668583 -2.001413107 0.944891572 
-11.4661274 -8.083696365 -2.001413107 0.9448916912 
-11.09551239 -8.585790634 -2.001413107 0.9448906779 
-10.70230484 -9.070835114 -2.001413107 0.944891572 
-10.28817844 -9.537959099 -2.001413107 0.944891572 
-9.853715897 -9.986181259 -2.001413107 0.944891572 
-5.669364929 -6.281479359 -1.207134128 0.966388762 
-5.176645279 -6.275702953 -1.160574794 0.9676639438 
-3.889677763 -6.256411076 -1.050973773 0.9706724286 
-3.148671865 -6.241298676 -0.9972755909 0.9721497893 
-2.485488176 -6.254843712 -0.9601870775 0.9731715322 
-2.058373928 -6.916864872 -1.029527903 0.971262157 
-3.14052248 -12.5747118 -1.849013209 0.9489789009 
-2.010429621 -12.80407715 -1.849013209 0.9489789009 
-1.438906193 -12.88082981 -1.849013209 0.9489789009 
-0.8644433618 -12.93207932 -1.849013209 0.9489789605 
0.2883935571 -12.95775318 -1.849013209 0.9489788413 
1.438935518 -12.88083935 -1.849013209 0.9489788413 
4.245707989 -12.24582481 -1.849013209 0.9489789009 
4.786254883 -12.04483414 -1.849013209 0.9489789009 
6.346821308 -11.30061531 -1.849013209 0.9489789605 
6.843232155 -11.00710869 -1.849013209 0.9489789009 
7.79430151 -10.35532188 -1.849013209 0.9489792585 
9.283901215 -10.28618145 -1.976740479 0.9455521107 
9.853589058 -9.986132622 -2.001413107 0.9448919892 
10.28817844 -9.537973404 -2.001413107 0.944891572 
11.09517097 -8.585800171 -2.001413107 0.9448916316 
11.81437016 -7.565707684 -2.001413107 0.944891572 
12.13925743 -7.032621861 -2.001413107 0.944891572 
12.71625996 -5.92585659 -2.001413107 0.9448916316 
12.96729469 -5.35427475 -2.001413107 0.9448916316 
13.19261646 -4.772209167 -2.001413107 0.944891572 
13.39185524 -4.180573463 -2.001413107 0.9448916316 
13.82912064 -2.360996008 -2.001413107 0.9448916316 
13.98423767 -1.122531772 -2.001413107 0.9448916316 
14.02866459 0.124812007 -2.001413107 0.9448916316 
13.96204758 1.371179223 -2.001413107 0.9448916316 
13.88723087 1.990961909 -2.001413107 0.9448916316 
