# .PCD v0.7 - Point Cloud Data file format
VERSION 0.7
FIELDS x y z intensities
SIZE 4 4 4 4
TYPE F F F F
COUNT 1 1 1 1
WIDTH 942
HEIGHT 1
VIEWPOINT 0 0 0 1 0 0 0
POINTS 942
DATA ascii
17.99528313 -18.23704529 4.134353161 0.9013978839 
18.07335854 -15.31820774 3.823063612 0.9084708691 
18.29483795 -14.15714836 3.732884645 0.9105302691 
19.37577629 -13.66005802 3.825531721 0.9084146023 
113.822731 32.22494888 19.08922958 0.6192122698 
79.63825226 30.42158127 13.75675011 0.7079264522 
70.5508194 30.61199379 12.41012096 0.7322722673 
70.58081055 42.58542252 13.30199528 0.7160561085 
69.26052856 46.11126709 13.4267931 0.7138158679 
69.32191467 50.74353409 13.86300468 0.7060402036 
41.63208389 110.4593887 19.04857063 0.6198447943 
24.55937386 88.24552917 14.7811718 0.6899493337 
20.42507362 88.44992065 14.64857101 0.6922503114 
12.48289967 89.9152298 14.64857101 0.6922503114 
-50.65659714 96.11724091 17.532444 0.6438959241 
-6.071879864 10.37420368 1.939715505 0.9524630904 
-62.38693619 96.47357178 18.53923035 0.6278228164 
-50.0165863 22.23306084 8.832532883 0.8010963798 
-26.25389671 7.685830116 4.414343357 0.8950831294 
-54.30138016 -27.69825554 9.836591721 0.781152606 
-55.33919144 -38.28199768 10.85842228 0.7613655329 
-55.584095 -46.26728821 11.67018986 0.7460041046 
-10.11649418 -15.95371532 3.048374176 0.9263150096 
-7.499833584 -14.54295349 2.640445709 0.9358516335 
-6.54339838 -16.04922867 2.796802521 0.9321846962 
-5.732656002 -16.07088852 2.753373384 0.9332017899 
-4.005537033 -13.03470707 2.200453758 0.9462478757 
-1.571792006 -13.01946735 2.116173983 0.9482523799 
0.1744921803 -13.06617641 2.108645201 0.9484316707 
0.762260735 -13.16223621 2.127517939 0.9479823709 
1.353510737 -13.17804623 2.137698412 0.947740078 
1.951518536 -13.19404221 2.152255535 0.947393775 
4.465961933 -13.26130295 2.258034229 0.9448807836 
5.109052658 -13.19815445 2.283760309 0.94427073 
8.995746613 -13.38246059 2.602044344 0.9367544055 
18.02799225 -17.01415443 4.000129223 0.9044408798 
19.00030518 -13.65001965 3.775227308 0.9095627069 
20.98483658 -13.7031002 4.044308186 0.9034381509 
23.27933693 -13.76447964 4.364058971 0.8962138891 
34.46059799 -14.58953571 6.038661957 0.8593118787 
113.7933197 31.12472153 19.03705025 0.6200239658 
72.20159912 30.56784439 12.65215397 0.7278355956 
68.84283447 32.82984924 12.30753231 0.7341608405 
29.67206383 88.10881042 15.00250721 0.6861256957 
25.40177155 88.2230072 14.81470299 0.6893687248 
21.22799683 88.33462524 14.66017818 0.6920486689 
13.28237247 89.80062103 14.64857101 0.6922503114 
9.274199486 90.30260468 14.64857101 0.6922503114 
5.201835632 89.82199097 14.51865482 0.6945121884 
-6.138319969 10.7050581 1.99128747 0.9512305856 
-50.11762238 22.81461334 8.885899544 0.8000236154 
-56.86302185 19.99886131 9.726813316 0.7833086848 
-60.66989517 -17.76112747 10.20106697 0.7740366459 
-55.90766907 -21.92852974 9.690839767 0.7840166688 
-54.85506058 -24.38381386 9.686964035 0.7840928435 
-55.13489532 -30.64413452 10.17885971 0.7744681835 
-59.1258812 -36.39546204 11.20372772 0.7547929287 
-55.70189667 -37.80462265 10.86316395 0.7612749338 
-55.52931213 -45.39146042 11.57343769 0.7478186488 
-7.458105087 -14.15122509 2.58128047 0.9372429252 
-6.883315086 -14.60085392 2.604800701 0.9366895556 
-6.708891392 -16.04480362 2.806333303 0.931961596 
-5.892783165 -16.06661034 2.761512995 0.933011055 
-4.131733418 -13.03133774 2.206002474 0.9461160898 
-2.876870155 -12.98455048 2.146097898 0.9475402236 
-2.293124914 -13.08052254 2.14296174 0.947614789 
-1.699433565 -13.09640121 2.131052732 0.9478982091 
0.05811034888 -13.06306648 2.10797596 0.9484475851 
0.6407177448 -13.07864189 2.113000393 0.9483279586 
1.234726548 -13.1748724 2.135313988 0.9477968216 
1.83127439 -13.19083023 2.148988247 0.9474714398 
3.684897423 -13.24040508 2.217774391 0.9458364844 
4.333827972 -13.25775814 2.250777245 0.945053041 
6.422001839 -13.31362247 2.385266066 0.9418670535 
7.179643631 -13.33388138 2.443746805 0.9404851198 
7.977143288 -13.35520935 2.510273695 0.9389154315 
10.68016052 -13.42751408 2.768590927 0.9328452945 
18.02001381 -17.31233788 4.032378197 0.9037088156 
18.52027512 -13.55683327 3.70369029 0.9111979604 
22.65216446 -13.66736031 4.269134521 0.8983525038 
113.8719788 30.05994987 19.00472069 0.6205275655 
74.0533905 30.57780266 12.92846394 0.7228034139 
68.82255554 32.07172394 12.25240707 0.7351777554 
70.6891861 40.95230484 13.18291759 0.718200326 
32.29032516 20.67813873 6.187459469 0.8561073542 
29.41159439 20.73532104 5.806973934 0.8643251657 
39.98807526 88.8915863 15.72880554 0.6737264991 
39.96710968 100.57901 17.46465492 0.6449928284 
18.0565033 88.96366882 14.64857101 0.6922503114 
-48.4708519 96.07884216 17.36526871 0.6466044188 
-6.012104511 10.70452595 1.981159329 0.9514724612 
-56.353508 39.72959518 11.12636852 0.7562604547 
-61.4654808 -17.4018116 10.30838871 0.7719535232 
-58.04021835 -22.17121506 10.02589226 0.7774484754 
-54.95304108 -23.84414482 9.666420937 0.7844974399 
-54.30909729 -26.49516106 9.751030922 0.7828325629 
-55.11754227 -29.99517059 10.12593937 0.775497973 
-8.236606598 -13.78988743 2.591960192 0.9369915724 
-7.783696175 -14.45571232 2.649347782 0.9356424212 
-7.036806583 -14.58850098 2.613662243 0.9364811778 
-6.875292778 -16.04035568 2.816142797 0.9317321181 
-6.053866863 -16.06230927 2.769922018 0.9328140616 
-4.258710861 -13.02794361 2.211760521 0.9459792972 
-3.01611805 -13.0611763 2.163116693 0.9471353889 
-0.05810058489 -13.0599556 2.107474566 0.9484595656 
2.314726591 -13.20376396 2.163152456 0.9471345544 
4.20252943 -13.25424767 2.24374485 0.945219934 
5.557182312 -13.29047775 2.324587107 0.9433032274 
7.772275448 -13.27944279 2.482922554 0.9395604134 
10.45574665 -13.38816357 2.741188049 0.9334873557 
11.43212414 -13.36728001 2.838317394 0.9312135577 
18.01189995 -17.61566925 4.065505981 0.9029574394 
20.03489304 -13.59734344 3.907247543 0.9065526724 
22.31920052 -13.73879814 4.229253769 0.8992525339 
33.05529404 -14.69353485 5.837302208 0.8636674285 
68.87223816 31.35211372 12.21110439 0.735940516 
68.90481567 35.14719772 12.48197079 0.7309523225 
70.47893524 39.99722672 13.07679749 0.7201161385 
32.6580925 20.50587273 6.222691536 0.8553503752 
29.94692612 20.71635437 5.876058102 0.8628274202 
27.09677124 88.17767334 14.88570976 0.6881407499 
18.84727478 88.79949188 14.64857101 0.692250371 
10.88027763 90.12319946 14.64857101 0.6922503114 
6.860844612 90.51794434 14.64857101 0.692250371 
-6.015302658 9.870170593 1.865204692 0.9542467594 
-50.67433929 21.45391083 8.87985611 0.80014503 
-26.40271378 3.545810461 4.298799038 0.8976837397 
-61.66040421 -16.86545372 9.716713905 0.7721021771 
-54.93737793 -23.2586174 9.068071365 0.7855485082 
-61.4487648 -36.33333588 10.85084248 0.7491420507 
-54.90940857 -39.4477272 10.27682304 0.7606758475 
-8.55644989 -14.03985786 2.499157906 0.935642004 
-6.216049671 -16.05797768 2.617319584 0.932703793 
-3.731977463 -12.96167946 2.050225496 0.9468896389 
-3.118818283 -12.97807598 2.028842688 0.9474287629 
-0.7552587986 -13.04130363 1.9856112 0.9485195875 
-0.1743115187 -13.0568409 1.984828115 0.9485393763 
1.581987262 -13.10381317 2.006254196 0.9479985833 
4.047050476 -13.16975021 2.094201088 0.9457819462 
4.732954025 -13.26844215 2.141284466 0.9445973635 
5.417153358 -13.28673267 2.181004047 0.9435992837 
7.652934551 -13.34653759 2.338531256 0.9396510124 
9.352523804 -13.39201164 2.48285675 0.9360480309 
10.28732395 -13.41701126 2.569871426 0.9338825345 
11.29209423 -13.44387627 2.668684244 0.9314295053 
17.96025276 -19.54676247 4.034891129 0.8981660604 
18.00366211 -17.92372513 3.861516237 0.9023205638 
18.0435791 -16.43160629 3.70947051 0.9059797525 
18.37853813 -15.29794884 3.634689569 0.9077848792 
19.76150513 -13.67037773 3.65244031 0.9073560834 
66.94706726 -17.03676224 10.50034904 0.7561638355 
69.26380157 30.78896713 11.52145767 0.7358881831 
68.88396454 34.36763763 11.70123959 0.7323750854 
68.9903183 38.34461212 11.99745846 0.7266232371 
69.10244751 42.53660202 12.33411217 0.7201410532 
69.28443146 47.02261734 12.72771168 0.7126356363 
72.37621307 59.16217804 14.2090168 0.6850836873 
20.84705925 94.08978271 14.64857101 0.6771149635 
12.40184498 95.57028961 14.64857101 0.6771149635 
8.138251305 96.0273819 14.64857101 0.6771149039 
-46.52532578 108.5458603 17.95079231 0.620138526 
-47.55270767 98.58390045 16.63701439 0.6422083974 
-57.98567581 97.07952881 17.18804932 0.6328576207 
-55.5727272 40.67895889 10.46833706 0.7568084598 
-50.01511002 21.70160675 8.287146568 0.8020483255 
-68.50047302 19.3932457 10.82137394 0.7497300506 
-63.06724167 -16.6484127 9.914663315 0.768044591 
-60.00089264 -18.73085403 9.554260254 0.7754480243 
-54.77600861 -22.61756325 9.007852554 0.7868087292 
-55.00081253 -25.63074684 9.223368645 0.7823081017 
-54.48249435 -28.40459442 9.33929348 0.779897809 
-60.15657425 -34.85054016 10.56748295 0.7548139095 
-58.66680908 -37.56890106 10.58915138 0.7543786168 
-55.35916519 -39.02865601 10.2956028 0.7602960467 
-55.64263916 -43.05779648 10.69429588 0.7522702217 
-7.938642502 -14.13486767 2.464179277 0.9365135431 
-7.307290077 -14.4844923 2.465964079 0.9364690781 
-6.379218578 -16.05360794 2.625758886 0.9324943423 
-4.486908913 -12.94148922 2.081993103 0.9460893273 
-3.856230497 -12.958354 2.055047274 0.9467681646 
-3.24044919 -12.97482872 2.032762289 0.9473299384 
-2.636694193 -12.99097633 2.0149014 0.9477803707 
-1.454721689 -13.02259731 1.991758108 0.9483644366 
-0.8715673685 -13.03818798 1.986239552 0.9485037923 
0.8746874928 -13.08490181 1.993355036 0.9483240843 
1.463437438 -13.10063934 2.003695726 0.9480631351 
2.059521437 -13.11659145 2.018160105 0.9476981759 
3.918100595 -13.16629887 2.088024616 0.9459374547 
4.599028111 -13.26485348 2.134016275 0.9447801709 
5.983959675 -13.30189896 2.217069626 0.9426938295 
7.493505478 -13.34228516 2.326006413 0.9399642348 
8.308603287 -13.36408615 2.391933918 0.938316226 
10.09512138 -13.41186523 2.551577091 0.9343374372 
17.9952774 -18.23713303 3.894378185 0.9015316367 
18.3712368 -15.57073212 3.660509348 0.9071612358 
19.37574005 -13.66005802 3.603469372 0.9085396528 
21.29940605 -13.63965988 3.844466686 0.9027301669 
113.8855438 32.2421875 17.99107552 0.6194739342 
79.66123199 30.42998695 12.96194553 0.7082064748 
70.55060577 30.61200142 11.68972874 0.7325994968 
68.86331177 33.59529114 11.6464777 0.7334433198 
69.07952118 41.67934418 12.2633276 0.7214992046 
70.83696747 56.85978699 13.80692577 0.692455411 
33.9887352 90.17900085 14.64857101 0.6771149635 
29.94359398 91.60167694 14.64857101 0.6771149635 
25.83917999 92.84300232 14.64857101 0.6771149635 
13.25192833 95.45613098 14.64857101 0.6771149635 
4.917016506 100.3733749 15.27512932 0.6659157872 
-47.49689865 100.7498398 16.93053055 0.6372105479 
-51.06538391 96.89362335 16.64812279 0.6420185566 
-53.41752243 57.10752487 11.88596058 0.7287832499 
-52.83351898 39.40078354 10.01800728 0.7659348249 
-49.95374298 22.20529747 8.30939579 0.8015735149 
-26.25391006 7.685776234 4.158108711 0.8952251673 
-60.68573761 -18.35355949 9.636919022 0.7737436891 
-58.64690781 -36.82429123 10.52598381 0.7556480765 
-18.09892464 -13.74967766 3.45490551 0.9121399522 
-10.11657238 -15.95371532 2.87143302 0.9264163375 
-6.462416649 -14.03037548 2.347979069 0.93941468 
-6.543442249 -16.04922295 2.634460926 0.9322783351 
-5.732616901 -16.07089233 2.593548775 0.9332941771 
-3.981074095 -12.95500946 2.060055256 0.9466419816 
-3.362553596 -12.97156239 2.036858797 0.9472266436 
-1.571811438 -13.01946259 1.993339777 0.9483245015 
-0.9879589677 -13.03507805 1.987026572 0.9484838843 
1.939589858 -13.11338329 2.014930725 0.9477796555 
5.840497971 -13.29806137 2.207678556 0.9429295063 
7.335741997 -13.33804703 2.313796043 0.9402698874 
8.141894341 -13.35962391 2.378072739 0.9386624694 
9.905630112 -13.40679646 2.533739805 0.9347811341 
10.88103008 -13.4328804 2.627634287 0.9324477911 
18.3638382 -15.84743595 3.686991692 0.9065220356 
18.39982605 -14.50191402 3.561038494 0.9095663428 
23.27916908 -13.76447487 4.110719681 0.8963550329 
25.81430817 -13.7519331 4.445849419 0.8883947134 
30.37448692 -14.48509216 5.115066528 0.8727096319 
40.82719421 -7.344731331 6.305396557 0.8454923034 
69.17286682 45.16973877 12.55751228 0.7158715129 
70.93711853 55.90950394 13.7289257 0.6938945651 
38.75336838 88.23640442 14.64857101 0.6771149635 
26.66438484 92.609375 14.64857101 0.6771149635 
14.10088348 95.33441162 14.64857101 0.6771149635 
9.846122742 95.86732483 14.64857101 0.6771149039 
-49.78204346 22.66172218 8.314053535 0.8014740348 
-56.75105667 19.95923233 9.14415741 0.7839592695 
-26.45236206 4.274145603 4.072936058 0.89725703 
-54.74046326 -21.47060013 8.937735558 0.7882785201 
-54.96882248 -24.43466187 9.14362812 0.7839705348 
-54.97940826 -27.43044281 9.33929348 0.7798977494 
-55.70238495 -37.80461502 10.23265743 0.7615709901 
-8.111517906 -13.85898876 2.440871716 0.937094748 
-7.620824814 -14.46002865 2.4845047 0.9360070825 
-6.846010685 -14.52165031 2.440295696 0.9371091127 
-2.8769238 -12.98455524 2.021527767 0.9476132393 
-1.689096689 -13.01632786 1.995082378 0.9482805133 
-1.104457974 -13.03196716 1.987971425 0.9484600425 
-0.5228027105 -13.04752445 1.984825969 0.9485394359 
3.662402153 -13.15946293 2.076271057 0.9462334514 
5.003647327 -13.27567387 2.156486511 0.9442152381 
5.698242188 -13.2942524 2.198541164 0.943158865 
7.977065086 -13.35520935 2.364556551 0.9390003085 
9.718745232 -13.40180111 2.516347885 0.9352139831 
18.02000999 -17.31240654 3.798321724 0.9038396478 
18.35632706 -16.12817764 3.714154959 0.9058668613 
18.52037048 -13.55683804 3.488716125 0.9113189578 
25.32517052 -13.78203106 4.382553101 0.8898926973 
34.08773804 -14.79067802 5.648093224 0.8604151011 
40.78891754 -7.713242054 6.309838772 0.8453923464 
27.48759651 92.36838531 14.64857101 0.6771149635 
14.25634289 90.79563904 13.9699192 0.6894543171 
-46.75606918 103.9353714 17.32323456 0.630584538 
-48.85144043 96.83328247 16.48571968 0.6447998881 
-6.043471336 10.76048851 1.875912428 0.9512932897 
-6.119799614 9.843437195 1.761802912 0.9541870952 
-55.23596191 25.74034691 9.2628088 0.7814873457 
-56.78445816 20.5407753 9.178634644 0.7832400203 
-60.03270721 -19.92011261 9.614240646 0.774210453 
-55.61899948 -21.2460289 9.049948692 0.7859275937 
-55.11755371 -29.995327 9.538181305 0.7757799625 
-56.74167252 -37.77680969 10.36140633 0.7589655519 
-54.63013077 -39.98899841 10.29076862 0.7603937387 
-6.998583794 -14.50910091 2.448554993 0.9369031191 
-6.87528801 -16.04034615 2.652676105 0.9318264723 
-6.053905964 -16.06230927 2.609140158 0.9329069257 
-4.232636452 -12.94828606 2.070637703 0.94637537 
-1.806581974 -13.01318359 1.996985793 0.9482324719 
-1.221069336 -13.02884293 1.989074349 0.9484322071 
-0.6390185356 -13.04441357 1.985139728 0.9485315084 
0.5239501595 -13.07551765 1.989085317 0.9484319091 
1.700864196 -13.1070013 2.008979559 0.9479297996 
2.30057621 -13.12303638 2.025132418 0.9475223422 
2.911225557 -13.13936996 2.045630693 0.9470054507 
4.176777363 -13.17321777 2.100579977 0.9456213713 
5.557148457 -13.29048347 2.189651728 0.9433820844 
6.274643421 -13.30967236 2.236628294 0.9422031641 
7.025121689 -13.32975101 2.290298939 0.9408581257 
7.772275448 -13.27938461 2.338790655 0.9396444559 
8.648022652 -13.37315845 2.420729399 0.9375973344 
10.45574188 -13.38822269 2.582079172 0.9335791469 
17.96924782 -19.21051216 3.998338223 0.8990403414 
18.01190376 -17.61552238 3.829504728 0.9030897617 
18.34870529 -16.41312027 3.742019176 0.9051951766 
18.38573456 -15.02894497 3.609515667 0.908393383 
24.84040642 -13.80623055 4.319763184 0.8913812637 
29.03132057 -14.4843502 4.931519985 0.876983881 
40.87572861 -8.107068062 6.334177017 0.8448448181 
76.37531281 30.74350739 12.51435375 0.7166944742 
68.87229156 31.35198593 11.50229836 0.7362635732 
29.94615173 20.71573448 5.534823895 0.8630131483 
69.43882751 52.7522583 13.25509739 0.7027016282 
36.38396835 89.23953247 14.64857101 0.6771149635 
32.36080933 90.72064209 14.64065838 0.6772575974 
28.30852509 92.12010193 14.64857101 0.6771149635 
23.61811447 91.11038971 14.30660343 0.6833065152 
20.00893593 94.2715683 14.64857101 0.6771149635 
-46.59123611 106.0821381 17.61123848 0.6257689595 
-47.8578949 97.00093842 16.44111633 0.6455661654 
-6.027983189 9.89103508 1.760648727 0.9542164207 
-51.3974762 21.75991631 8.483771324 0.7978616357 
-26.36481857 4.742944241 4.071812153 0.8972839117 
-57.02544403 -21.20370483 9.247725487 0.7818009853 
-26.05052757 -12.42307568 4.386914253 0.8897894621 
-56.62298203 -36.97478104 10.27923775 0.760627389 
-54.90930176 -39.44774628 10.27682304 0.7606760859 
-55.62722015 -43.84293365 10.76590347 0.7508376837 
-8.55644989 -14.03988743 2.499160767 0.9356419444 
-7.621235371 -13.85714817 2.403844833 0.9380187988 
-6.922563553 -15.76179123 2.616694212 0.9327193499 
-6.216064453 -16.05797386 2.617320299 0.932703793 
-4.359447956 -12.9448967 2.076218605 0.9462347627 
-3.731957912 -12.96167946 2.050224781 0.9468896985 
-2.517143488 -12.99416447 2.011842966 0.9478576183 
-1.924301744 -13.01003361 1.999051452 0.9481803775 
0.991987288 -13.088027 1.995099187 0.9482801557 
1.582001925 -13.10381794 2.006254911 0.9479985833 
2.788095713 -13.13607407 2.041174173 0.9471178055 
3.409501791 -13.1526947 2.06530118 0.9465097785 
4.047050476 -13.16975021 2.094201088 0.9457819462 
4.732954025 -13.26844215 2.141283751 0.9445973635 
9.352534294 -13.39200211 2.482857227 0.9360480905 
11.29208469 -13.44388676 2.668683529 0.9314295053 
17.96025276 -19.54678154 4.03489399 0.8981660008 
18.37853813 -15.29791927 3.634687185 0.9077849388 
18.41355133 -13.98868656 3.514944077 0.9106829762 
19.76153564 -13.67038059 3.652445316 0.9073559642 
24.30265808 -13.79184532 4.247424126 0.893099308 
32.39169693 -14.74531746 5.409710407 0.865891993 
68.88396454 34.36771393 11.70124149 0.7323749661 
37.17669296 88.91218567 14.64857101 0.6771150231 
32.64200592 88.99802399 14.40897179 0.6814471483 
16.64096069 94.92398071 14.64857101 0.6771149635 
12.40193367 95.57028198 14.64857101 0.6771149635 
8.138363838 96.02735901 14.64857101 0.6771149635 
-46.52534485 108.545639 17.9507637 0.6201390624 
-52.18903732 96.92425537 16.73253441 0.6405776143 
-76.08850098 29.06522942 12.38061333 0.7192503214 
-60.00089264 -18.73089409 9.554261208 0.7754479647 
-58.51811981 -21.16789436 9.458864212 0.7774195075 
-54.77600861 -22.61761093 9.007856369 0.7868086696 
-54.48249435 -28.40459442 9.33929348 0.779897809 
-55.64263153 -43.05770111 10.69428921 0.7522704005 
-9.921826363 -15.95892048 2.856361628 0.9267880321 
-7.307284832 -14.4844923 2.465963125 0.9364690781 
-6.379218578 -16.05360794 2.625758886 0.9324943423 
-3.240453959 -12.97482395 2.032762289 0.9473299384 
-0.8715869188 -13.03818798 1.986239552 0.9485037327 
-0.2904540896 -13.05373478 1.984669805 0.9485433698 
0.8747069836 -13.08489704 1.993355393 0.9483241439 
1.463461876 -13.10064411 2.003695965 0.9480631351 
2.05953598 -13.11659145 2.018160582 0.9476981759 
2.665493011 -13.13279724 2.036897898 0.9472256303 
3.284038067 -13.14934063 2.060103178 0.9466407299 
5.983950138 -13.30189896 2.217069149 0.9426938295 
6.720624924 -13.3216114 2.26798296 0.941417098 
7.493481159 -13.34228992 2.326004505 0.9399642944 
11.08492661 -13.438344 2.64789176 0.9319451451 
17.99528313 -18.23705482 3.894370317 0.9015318155 
18.0358448 -16.72055054 3.738321781 0.9052842855 
18.40673637 -14.24360847 3.537699223 0.9101315737 
23.78257751 -13.77793694 4.177793026 0.8947561383 
27.68941879 -14.43594742 4.746470451 0.881314218 
67.00262451 -17.68735886 10.53333855 0.7555000782 
40.83565521 -8.857373238 6.35139513 0.8444576859 
68.86330414 33.59521103 11.64647579 0.7334434986 
69.07952118 41.67922592 12.26331806 0.7214993834 
69.19691467 46.06890106 12.63579941 0.7143812776 
37.96663666 88.57777405 14.64857101 0.6771149635 
17.48484421 94.77218628 14.64857101 0.6771149635 
8.992339134 95.95117188 14.64857101 0.6771149039 
-51.06524658 96.89362335 16.64811325 0.6420187354 
-6.071884632 10.37419415 1.827122092 0.9525295496 
-62.38691711 96.47357178 17.46309662 0.6282413006 
-53.41761017 57.10746765 11.88596535 0.7287831306 
-52.83351898 39.40078354 10.01800728 0.7659348249 
-26.25389671 7.685830116 4.158108711 0.8952251673 
-63.2178154 -16.08768082 9.915431976 0.7680288553 
-54.75571823 -22.04079628 8.971897125 0.7875620723 
-54.98474884 -25.02997589 9.182945251 0.7831502557 
-54.7330513 -27.91874504 9.33929348 0.779897809 
-58.64690781 -36.82450485 10.52599812 0.7556477189 
-55.33919144 -38.28195572 10.22812843 0.7616627812 
-18.09890175 -13.74969196 3.454904318 0.9121400118 
-10.11659145 -15.95371532 2.87143445 0.9264162779 
-8.025468826 -13.99621582 2.452364445 0.9368081093 
-7.463461876 -14.47225094 2.475093365 0.9362415671 
-6.543486118 -16.04922295 2.634463549 0.9322782755 
-5.732573032 -16.07089233 2.593547106 0.9332942367 
-2.756591797 -12.98776817 2.018128633 0.9476990104 
-2.160527229 -13.00372505 2.003671885 0.9480636716 
0.1744384766 -13.06616688 1.986246347 0.9485036135 
2.54335928 -13.12953091 2.032799721 0.9473289847 
3.789872885 -13.16287041 2.082048655 0.9460879564 
4.438657284 -13.18022442 2.113960505 0.9452846646 
5.840527058 -13.29806614 2.207681179 0.9429294467 
7.335785866 -13.33807087 2.313799143 0.9402697086 
8.141913414 -13.35962391 2.378073692 0.9386624098 
8.995834351 -13.38247013 2.451014042 0.9368417859 
9.905658722 -13.40679646 2.533742666 0.9347810745 
10.88104916 -13.43288517 2.627636909 0.9324477315 
11.86072731 -13.37874508 2.717665911 0.9302160144 
18.02798843 -17.01415443 3.767936707 0.9045709372 
25.81424713 -13.7519331 4.445840836 0.8883948922 
30.3744812 -14.48517036 5.115071774 0.8727095723 
66.12773132 -18.08724976 10.42068291 0.7577689886 
40.82720184 -7.34469223 6.305396557 0.8454923034 
30.75750923 91.33159637 14.64857101 0.6771149635 
26.66434097 92.60939026 14.64857101 0.6771149635 
22.5183239 93.70384216 14.64857101 0.6771149635 
18.32773399 94.61279297 14.64857101 0.6771149635 
14.10088348 95.33441162 14.64857101 0.6771149635 
-49.95319748 96.86331177 16.56588173 0.6434255242 
-61.12763214 96.39730072 17.35011101 0.6301336288 
-49.78179932 22.66149902 8.314008713 0.8014751077 
-56.75105667 19.95923233 9.14415741 0.7839592695 
-65.60593414 -16.07531738 10.26716042 0.7608719468 
-54.74046326 -21.47073746 8.937744141 0.7882784009 
-54.97940826 -27.43044281 9.33929348 0.7798977494 
-59.12587357 -36.39547348 10.55339241 0.7550969124 
-29.66763115 -22.12470245 5.625411034 0.8609346747 
-7.620776176 -14.46003914 2.484501362 0.9360071421 
-6.845976353 -14.52165985 2.440293312 0.9371091723 
-5.892783165 -16.06661034 2.601217985 0.9331036806 
-4.106537819 -12.95166016 2.065251112 0.9465110302 
-2.279096603 -13.00054646 2.006230116 0.9479991794 
-1.104457974 -13.03196716 1.987971425 0.9484600425 
-0.522832036 -13.04751968 1.984825969 0.9485394359 
0.6406689286 -13.07863712 1.990349054 0.9484000206 
1.227226496 -13.09432602 1.999071956 0.948179841 
1.820073247 -13.11019039 2.011871576 0.9478567839 
3.662431479 -13.15946293 2.076272011 0.9462333918 
4.307338715 -13.17671394 2.107167244 0.9454555511 
5.003647327 -13.27567387 2.156486511 0.9442152381 
7.179643631 -13.33388138 2.301896334 0.9405676723 
7.977065086 -13.35520935 2.364556551 0.9390003085 
8.820819855 -13.37777328 2.435678244 0.9372243285 
9.718745232 -13.40180111 2.516347885 0.9352139831 
10.68016052 -13.42751408 2.607885361 0.9329380989 
11.7162981 -13.45522881 2.711905718 0.9303585291 
17.97807503 -18.88037491 3.962765217 0.8998920321 
18.52045059 -13.5568409 3.48872757 0.9113187194 
20.43989372 -13.60817337 3.73245573 0.9054256678 
25.32517052 -13.78203106 4.382553101 0.8898926973 
30.09920311 -14.68400383 5.09051466 0.8732801676 
34.08773804 -14.79067802 5.648093224 0.8604151011 
113.9306793 30.07543945 17.91079712 0.6207990646 
73.91894531 30.52191544 12.15588951 0.7235654593 
68.82255554 32.07172775 11.54120064 0.7355015874 
69.14910889 44.28146362 12.48116016 0.7173278332 
69.43834686 48.95443344 12.91400528 0.7091104984 
39.53702927 87.88796997 14.64857101 0.677115202 
31.56926155 91.05421448 14.64857101 0.6771149039 
27.48759651 92.36838531 14.64857101 0.6771149635 
19.16919899 94.44589996 14.64857101 0.6771149635 
14.25629807 90.7940979 13.9696722 0.6894586086 
6.427602291 96.1570282 14.64857101 0.6771149039 
-48.85144043 96.83328247 16.48571968 0.6447998881 
-6.043471336 10.76048851 1.875912428 0.9512932897 
-56.84663391 40.07725906 10.57223606 0.7547183037 
-55.23596191 25.74034691 9.2628088 0.7814873457 
-56.78445816 20.5407753 9.178634644 0.7832400203 
-26.37691879 4.503222466 4.06733036 0.8973909616 
-61.4654808 -17.40151787 9.710012436 0.7722398043 
-60.03270721 -19.92011261 9.614240646 0.774210453 
-55.61899948 -21.2460289 9.049948692 0.7859275937 
-55.11753464 -29.99513054 9.538168907 0.7757803202 
-60.27138901 -36.36481857 10.69965458 0.7521629333 
-56.74189758 -37.77680206 10.36143303 0.7589650154 
-8.196811676 -13.7231245 2.429694176 0.9373735785 
-6.998583794 -14.50910091 2.448554993 0.9369031191 
-6.053940296 -16.06230927 2.609142065 0.9329068661 
-4.232666016 -12.94829082 2.070638657 0.9463753104 
-2.997622013 -12.98131847 2.025097609 0.9475232363 
-2.397929668 -12.99735355 2.008952379 0.9479305148 
-1.806562424 -13.01318836 1.996985078 0.9482324719 
-1.22104001 -13.02884769 1.989073753 0.9484322071 
-0.6389892697 -13.04441357 1.98513937 0.9485315084 
-0.05810058489 -13.0599556 1.985143661 0.9485313892 
0.5239501595 -13.07551765 1.989085317 0.9484319091 
1.10947752 -13.09118176 1.997004032 0.9482319951 
1.700864196 -13.1070013 2.008979559 0.9479297996 
2.30057621 -13.12303638 2.025132418 0.9475223422 
2.911225557 -13.13936996 2.045630693 0.9470054507 
3.535619974 -13.1560688 2.070689917 0.9463740587 
4.867807388 -13.27205086 2.148772478 0.944409132 
6.274609089 -13.30967712 2.236626625 0.9422032237 
7.772280216 -13.27931595 2.338782072 0.9396446943 
9.53445816 -13.39686489 2.499396086 0.9356361032 
11.50254345 -13.44951153 2.6900208 0.9309006929 
17.96924782 -19.21051216 3.998338223 0.8990403414 
18.01190376 -17.61552238 3.829504728 0.9030897617 
18.34870529 -16.41312027 3.742019176 0.9051951766 
18.38573456 -15.02894497 3.609515667 0.908393383 
18.42028618 -13.73700142 3.49275589 0.9112210274 
20.0347023 -13.59734058 3.680422544 0.9066805243 
29.03132057 -14.4843502 4.931519985 0.876983881 
33.05528641 -14.69370556 5.498476505 0.8638484478 
68.8723526 31.35184479 11.50229836 0.7362636328 
68.9048233 35.14757919 11.75747013 0.7312797308 
69.17139435 39.25521851 12.08918476 0.7248503566 
69.1256485 43.40406036 12.40672588 0.7187504768 
69.43883514 52.75252914 13.25512409 0.7027011514 
36.38415909 89.23944855 14.64857101 0.6771149635 
32.36083603 90.72136688 14.64076424 0.6772556901 
28.3082962 92.12017059 14.64857101 0.6771149635 
11.55074692 95.67687225 14.64857101 0.6771150231 
7.283232212 96.09601593 14.64857101 0.6771149039 
-46.59125519 106.0815506 17.61115646 0.6257702708 
-47.85810089 97.00080109 16.44109154 0.6455662251 
-5.965317249 10.84623528 1.881534696 0.9511509538 
-51.39762878 21.75987816 8.483787537 0.7978612185 
-26.36481857 4.742944241 4.071812153 0.8972839117 
-61.66081238 -16.86543465 9.716767311 0.7721009851 
-60.01675034 -19.3237648 9.583796501 0.7748385668 
-54.93737793 -23.25875473 9.068080902 0.785548389 
-26.05050659 -12.42313004 4.386916637 0.8897894621 
-61.44861603 -36.33332443 10.8508234 0.7491424084 
-54.90930176 -39.44774628 10.27682304 0.7606760859 
-1.924301744 -13.01003361 1.999051452 0.9481803775 
-1.337812424 -13.0257225 1.990336299 0.9484003186 
0.4073144495 -13.072402 1.987980604 0.9484598041 
0.9919579625 -13.08803654 1.995098472 0.9482800961 
2.788066387 -13.13607883 2.041173458 0.9471178055 
3.409531116 -13.1526947 2.06530261 0.9465097785 
6.128676414 -13.30576611 2.226718664 0.9424517751 
6.872143269 -13.32565403 2.278997421 0.9411411881 
7.652944088 -13.34654236 2.338531256 0.9396509528 
10.28732395 -13.41701126 2.569871426 0.9338825345 
11.29208469 -13.44388676 2.668683529 0.9314295053 
18.00366211 -17.92375374 3.861520052 0.9023204446 
18.04356956 -16.4316349 3.709473372 0.9059796929 
24.30278969 -13.79185295 4.247441769 0.8930988908 
28.71483612 -14.64697266 4.899703503 0.8777268529 
32.39188004 -14.74532223 5.409733772 0.865891397 
40.85286713 -8.481071472 6.342077732 0.8446671367 
77.56803894 30.42431831 12.66491795 0.713827908 
69.28443146 47.02261734 12.72771168 0.7126356363 
69.41189575 51.76409912 13.16149902 0.7044545412 
32.64200592 88.99802399 14.40897179 0.6814471483 
29.12716675 91.86454773 14.64857101 0.6771149635 
24.02270508 89.38863373 14.06925488 0.6876370907 
16.64096069 94.92398071 14.64857101 0.6771149635 
12.40193367 95.57028198 14.64857101 0.6771149635 
8.138363838 96.02735901 14.64857101 0.6771149635 
-47.55271912 98.58378601 16.63700104 0.6422086358 
-52.18903732 96.92425537 16.73253441 0.6405776143 
-57.98567581 97.07952881 17.18804932 0.6328576207 
-76.08850098 29.06522942 12.38061333 0.7192503214 
-68.50047302 19.3932457 10.82137394 0.7497300506 
-60.00089264 -18.73089409 9.554261208 0.7754479647 
-54.77600861 -22.61761093 9.007856369 0.7868086696 
-55.00081253 -25.63074684 9.223368645 0.7823081017 
-54.48249435 -28.40459442 9.33929348 0.779897809 
-58.66680908 -37.56884003 10.5891428 0.754378736 
-55.64263153 -43.05770111 10.69428921 0.7522704005 
-9.921826363 -15.95892048 2.856361628 0.9267880321 
-7.93862772 -14.13487244 2.464180231 0.9365135431 
-7.307284832 -14.4844923 2.465963125 0.9364690781 
-7.046806335 -15.66455555 2.610859632 0.9328642488 
-6.379218578 -16.05360794 2.625758886 0.9324943423 
-2.636708975 -12.9909668 2.014901638 0.9477804303 
-1.454746008 -13.02259731 1.991757751 0.9483644366 
-0.2904540896 -13.05373478 1.984669805 0.9485433698 
1.463461876 -13.10064411 2.003695965 0.9480631351 
3.284038067 -13.14934063 2.060103178 0.9466407299 
4.599028111 -13.26485348 2.134016275 0.9447801709 
5.278271198 -13.28303146 2.172597408 0.9438104033 
5.983950138 -13.30189896 2.217069149 0.9426938295 
8.308584213 -13.36409187 2.391932249 0.938316226 
10.09508801 -13.41187 2.55157423 0.9343374968 
11.08502388 -13.438344 2.647901058 0.9319449067 
17.99528313 -18.23705482 3.894370317 0.9015318155 
18.03583908 -16.7206974 3.738336325 0.9052839279 
18.37124252 -15.57067871 3.660505056 0.907161355 
18.40673637 -14.24373531 3.537711382 0.9101312757 
19.37577629 -13.66005802 3.603473186 0.9085395336 
21.29940605 -13.63976765 3.844475269 0.9027299285 
23.78257751 -13.77793694 4.177793026 0.8947561383 
27.68942261 -14.43579102 4.746461391 0.8813143969 
67.00262451 -17.68735886 10.53333855 0.7555000782 
113.8855667 32.242733 17.9910984 0.6194735169 
79.66030884 30.43000984 12.96181774 0.7082089186 
68.86331177 33.59558105 11.64649963 0.7334429622 
68.9686203 37.53293991 11.93511105 0.727830112 
69.38533783 50.78993607 13.07025719 0.7061674595 
37.96663666 88.57777405 14.64857101 0.6771149635 
33.98844147 90.1791153 14.64857101 0.6771149635 
29.94371986 91.60163879 14.64857101 0.6771149635 
25.83892059 92.84306335 14.64857101 0.6771150231 
21.68372917 93.90047455 14.64857101 0.6771150231 
17.48484421 94.77218628 14.64857101 0.6771149635 
-47.49688721 100.7501144 16.9305687 0.6372098923 
-6.071884632 10.37419415 1.827122092 0.9525295496 
-52.83351898 39.40078354 10.01800728 0.7659348249 
-49.95384216 22.20516014 8.309400558 0.8015733957 
-63.21736526 -16.08784676 9.915385246 0.768030107 
-60.68573761 -18.35350037 9.636919022 0.7737437487 
-54.98476028 -25.03023911 9.182965279 0.7831498384 
-54.73318863 -27.91849136 9.33929348 0.7798977494 
-55.33919144 -38.28195572 10.22812843 0.7616627812 
-7.463378906 -14.47227478 2.475088358 0.9362416267 
-6.46245575 -14.03040981 2.34798789 0.9394145012 
-6.543407917 -16.04922867 2.634459257 0.9322783947 
-3.362582922 -12.97155285 2.036859751 0.9472266436 
-2.756591797 -12.98776817 2.018128633 0.9476990104 
-2.160590887 -13.00370121 2.003673315 0.9480637312 
-1.571792006 -13.01946735 1.993339777 0.9483245015 
-0.4066357315 -13.05062485 1.984669447 0.9485434294 
0.1744970679 -13.06617165 1.986246586 0.9485035539 
2.543417931 -13.12953091 2.032801151 0.9473289251 
3.159160137 -13.14599609 2.05509305 0.9467670321 
4.438657284 -13.18022442 2.113960505 0.9452846646 
6.530439377 -13.23617172 2.243458748 0.94203192 
9.905658722 -13.40679646 2.533742666 0.9347810745 
11.86072731 -13.37874508 2.717665911 0.9302160144 
18.36384201 -15.84729958 3.686979055 0.9065223336 
18.39982605 -14.50194263 3.561040163 0.9095662832 
19.00029755 -13.65001678 3.55608964 0.9096862078 
20.98482704 -13.7031002 3.809551001 0.9035695195 
23.27933693 -13.76447964 4.110742569 0.8963544965 
30.37448692 -14.48501396 5.11506176 0.8727098107 
34.46059799 -14.58953571 5.688139439 0.8594983816 
66.12773132 -18.08724976 10.42068291 0.7577689886 
40.82720184 -7.34469223 6.305396557 0.8454923034 
72.20153809 30.5678463 11.91773891 0.728166759 
69.11371613 40.8651886 12.20433712 0.722633183 
69.35912323 49.8282814 12.98121834 0.7078430653 
70.93711853 55.90950394 13.7289257 0.6938945651 
34.79017639 89.87284851 14.64857101 0.6771149635 
26.66470718 92.60927582 14.64857101 0.6771149635 
22.5183239 93.70384216 14.64857101 0.6771149635 
18.32813835 94.61270905 14.64857101 0.6771149635 
-49.95269012 96.86329651 16.56584358 0.6434261799 
-61.12817764 96.39732361 17.35015678 0.6301327944 
-49.7822876 22.66196632 8.314101219 0.8014730215 
-58.71989441 12.19030762 9.115790367 0.7845515013 
-26.45243645 4.27403307 4.072945118 0.8972568512 
-65.60610962 -16.07507324 10.26717472 0.7608716488 
-60.66989517 -17.76111794 9.608925819 0.7743204832 
-54.74046326 -21.47073746 8.937744141 0.7882784009 
-54.96882248 -24.43438911 9.143600464 0.7839708924 
-55.13489532 -30.64413452 9.588017464 0.7747516036 
-59.12587357 -36.39547348 10.55339241 0.7550969124 
-8.111498833 -13.85901833 2.440874815 0.9370946884 
-6.845976353 -14.52165985 2.440293312 0.9371091723 
-5.892783165 -16.06661034 2.601217985 0.9331036806 
-4.1064744 -12.95166016 2.065248728 0.9465111494 
-1.689033151 -13.01633263 1.995081186 0.9482805133 
-1.104457974 -13.03196716 1.987971425 0.9484600425 
-0.5227685571 -13.04752445 1.98482573 0.9485394359 
0.05811034888 -13.06305599 1.985615849 0.9485195279 
1.227172852 -13.09432125 1.999070644 0.9481799006 
3.034941435 -13.14268017 2.050271034 0.9468885064 
4.307338715 -13.17671394 2.107167244 0.9454555511 
5.698242188 -13.2942524 2.198541164 0.943158865 
7.179643631 -13.33388138 2.301896334 0.9405676723 
8.820819855 -13.37777328 2.435678244 0.9372243285 
10.68016052 -13.42751408 2.607885361 0.9329380989 
11.7164011 -13.45522881 2.711916208 0.9303582907 
20.43989372 -13.60817337 3.73245573 0.9054256678 
22.65217781 -13.66735554 4.021328926 0.8984903097 
25.32517052 -13.78203106 4.382553101 0.8898926973 
113.9306793 30.07543945 17.91079712 0.6207990646 
73.91810608 30.52193832 12.15577221 0.7235677242 
68.82255554 32.07172775 11.54120064 0.7355015874 
68.92588043 35.93506241 11.81517887 0.7301573157 
69.50147247 40.26423264 12.20905972 0.7225422263 
69.14911652 44.28184891 12.4811945 0.7173272371 
69.46616364 53.75514221 13.35115242 0.7009073496 
35.58840179 89.55977631 14.64857101 0.6771149039 
31.56887054 91.05433655 14.64857101 0.6771149635 
23.35111237 93.49980164 14.64857101 0.6771149635 
19.16919899 94.44589996 14.64857101 0.6771149635 
14.25638676 90.79714966 13.97027302 0.6894500852 
10.69905758 95.77585602 14.64857101 0.6771149635 
-46.75651932 103.9351959 17.32323456 0.6305844784 
-6.043520451 10.76047325 1.87591517 0.9512932301 
-56.84663391 40.07725906 10.57223606 0.7547183037 
-55.23596191 25.74034691 9.2628088 0.7814873457 
-26.37691879 4.503222466 4.06733036 0.8973909616 
-61.4654808 -17.4018116 9.710025787 0.7722395658 
-55.03337097 -26.84851074 9.307514191 0.7805578113 
-54.63014221 -39.98921204 10.29078865 0.7603933811 
-7.683066368 -14.26882744 2.463300467 0.9365354776 
-6.87528801 -16.04034615 2.652676105 0.9318264723 
-6.053866863 -16.06230927 2.609138012 0.9329069853 
-2.997680664 -12.98131847 2.025099516 0.9475231767 
-2.397929668 -12.99735355 2.008952379 0.9479305148 
-1.806606412 -13.01318836 1.996986032 0.9482324719 
-1.22104001 -13.02884769 1.989073753 0.9484322071 
-0.6390478611 -13.04441357 1.985140085 0.9485315084 
0.5238915682 -13.07551765 1.989084721 0.9484319091 
1.700917959 -13.1070013 2.008980751 0.94792974 
4.176836014 -13.17321777 2.100583076 0.9456213117 
4.867807388 -13.27205086 2.148772478 0.944409132 
5.557182312 -13.29047775 2.189653873 0.9433820248 
7.025160789 -13.32975101 2.290302038 0.9408580065 
8.64805603 -13.37315845 2.420732975 0.9375972152 
10.45574665 -13.38816357 2.582072496 0.9335793257 
17.96924782 -19.21051216 3.998338223 0.8990403414 
18.38573456 -15.02881813 3.609503508 0.908393681 
20.03488922 -13.59734344 3.680446386 0.9066799879 
22.3191967 -13.73879337 3.98375988 0.899389267 
24.84068298 -13.80624008 4.319801331 0.8913804293 
29.03132057 -14.4843502 4.931519985 0.876983881 
76.37547302 30.74339104 12.51436901 0.7166941762 
69.17139435 39.25521851 12.08918476 0.7248503566 
69.12564087 43.40368652 12.40669632 0.7187510729 
32.3608017 90.72003937 14.6405735 0.6772591472 
28.3082962 92.12017059 14.64857101 0.6771149635 
23.61808968 91.10948944 14.30646706 0.683308959 
20.0087204 94.2716217 14.64857101 0.6771149635 
11.55074692 95.67687225 14.64857101 0.6771150231 
-46.5912056 106.0828171 17.61133003 0.6257674098 
-5.965297699 10.84630871 1.881541967 0.9511507154 
-6.028012753 9.891019821 1.760648489 0.9542164207 
-68.95720673 18.86121559 10.86657429 0.7488285303 
-26.36481857 4.742944241 4.071812153 0.8972839117 
-61.16387939 -16.72964287 9.04616642 0.7739791274 
-57.03723907 -21.20809937 8.681235313 0.7820203304 
-56.62308121 -36.97480011 9.647579193 0.7609072924 
-9.162153244 -15.03373528 2.511623383 0.931335628 
-7.565834999 -13.75640583 2.239724398 0.9385354519 
-7.113544941 -14.41810513 2.293611765 0.9371041059 
-6.913886547 -15.74203587 2.452816725 0.9328881502 
-4.359438419 -12.9448967 1.948631525 0.9463051558 
-3.731967688 -12.96168423 1.924236059 0.9469591975 
-1.924311519 -13.01003361 1.876206636 0.9482482672 
-1.337812424 -13.0257225 1.868027329 0.9484679699 
-0.7552587986 -13.04130363 1.863592505 0.9485871196 
-0.1743115187 -13.0568409 1.86285758 0.9486068487 
0.4073290825 -13.072402 1.865815997 0.9485273361 
2.179833889 -13.11980915 1.89733243 0.9476810694 
2.788095713 -13.13607407 1.915741205 0.9471870661 
4.04706049 -13.16975021 1.965509295 0.9458529353 
5.384037971 -13.20551205 2.034463644 0.9440075159 
6.091186523 -13.22442818 2.077105284 0.9428681135 
8.477294922 -13.36858845 2.258288145 0.9380421042 
9.352523804 -13.39201164 2.330281734 0.9361312985 
17.96025276 -19.54676247 3.786941051 0.8982958794 
18.41355133 -13.9887104 3.29894805 0.910797596 
19.76150513 -13.67038345 3.427992821 0.9074748158 
21.84308052 -13.71524906 3.679495573 0.9010336995 
24.30265617 -13.79184818 3.98641324 0.8932352066 
66.90410614 -17.0258255 9.848761559 0.7565838695 
77.56832123 30.42431068 11.88667297 0.714151144 
68.94765472 34.39942169 10.99233532 0.7324714661 
70.36219788 39.10709381 11.48410511 0.7223402262 
69.10244751 42.53659439 11.57616425 0.720459342 
69.2212677 46.97974014 11.9346838 0.7131806612 
32.64205551 88.99802399 13.52352047 0.6817989945 
24.02274323 89.38863373 13.20467949 0.6879837513 
22.21203041 100.2503128 14.64857101 0.6604164243 
13.21385193 101.8277588 14.64857101 0.6604164243 
-54.72634125 26.69853973 8.686813354 0.7818968892 
-50.03406525 21.70982933 7.780837059 0.8022195101 
-63.2970047 -16.70907593 9.339294434 0.767580092 
-60.00564957 -18.73234749 8.967847824 0.7756978869 
-58.97751236 -21.33404732 8.947296143 0.7761495113 
-54.77600861 -22.61759186 8.454307556 0.787062645 
-55.17878342 -25.71367645 8.684587479 0.781946063 
-55.21878433 -28.78847122 8.883838654 0.7775457501 
-58.44831467 -37.42897034 9.901410103 0.7554564476 
-55.35916519 -39.02865601 9.662924767 0.7605765462 
-54.69251251 -42.32255173 9.865722656 0.7562204599 
-7.899990082 -14.06606388 2.30149436 0.9368948936 
-4.486908913 -12.94148922 1.954051733 0.9461598992 
-3.856225491 -12.95835876 1.928761244 0.9468378425 
-0.8715673685 -13.03818798 1.864182353 0.9485712647 
-0.2904833853 -13.05373478 1.862709045 0.9486108422 
1.463437438 -13.10063934 1.880565405 0.9481312037 
2.059516668 -13.11659145 1.894141555 0.9477667212 
7.49350071 -13.3422699 2.183069706 0.9400426745 
8.308603287 -13.36408615 2.244945526 0.9383966327 
10.09513187 -13.41187477 2.394778967 0.934422791 
12.08036137 -13.38462353 2.572171211 0.9297398329 
18.33311081 -16.99619675 3.56643033 0.9039236903 
19.37574005 -13.66005802 3.382030249 0.9086569548 
21.29940605 -13.63965511 3.608217478 0.9028545022 
23.78253174 -13.77793407 3.92105484 0.8948902488 
31.59623528 -14.72404766 4.972930908 0.8686230779 
36.95526123 -15.25923347 5.70379734 0.8508273959 
40.80846024 -10.77257824 6.021177769 0.8432136774 
70.68817902 30.67166901 10.99276829 0.7324624658 
70.34005737 38.27941513 11.4244318 0.7235620022 
69.32189941 50.74327087 12.25583553 0.706723094 
71.12068939 57.08758163 13.01037788 0.6917802095 
40.45236206 94.37745667 14.64857101 0.6604164243 
23.10329056 100.0486679 14.64857101 0.6604164243 
4.917016506 100.3733749 14.33645439 0.6662802696 
-46.71927261 99.10034943 15.62996674 0.6423125267 
-50.60868454 96.0270462 15.48532581 0.6449491978 
-52.68786621 39.29219055 9.376469612 0.766772449 
-57.41953659 19.62192917 8.65657711 0.7825666666 
-26.25391006 7.685776234 3.902586937 0.8953585625 
-63.44321823 -16.14510155 9.339294434 0.7675800323 
-60.24921417 -21.18964386 9.111250877 0.7725536823 
-54.75571823 -22.04088402 8.420566559 0.7878151536 
-55.24473953 -28.17957497 8.847312927 0.7783504725 
-57.73257065 -36.25017929 9.725118637 0.7592378855 
-55.33919144 -38.2818985 9.599589348 0.7619420886 
-18.09848022 -13.74934006 3.24251008 0.9122549295 
-10.11656189 -15.95372009 2.694978952 0.9265116453 
-7.161606312 -15.54836369 2.442116976 0.933170855 
-6.543442249 -16.04922295 2.472569942 0.9323663712 
-3.981074095 -12.95500946 1.933461547 0.9467118382 
-2.756601572 -12.98776817 1.894111872 0.9477674961 
-2.16054678 -13.00370598 1.88054347 0.9481317997 
-0.9879589677 -13.03507805 1.864920616 0.9485514164 
0.1744384766 -13.06616688 1.864188552 0.9485710859 
0.7575976253 -13.08176708 1.869374394 0.9484317899 
1.345180631 -13.09747982 1.878318787 0.9481915832 
1.939589858 -13.11338329 1.891110539 0.9478480816 
2.543374062 -13.12953568 1.907881737 0.9473979473 
3.159169912 -13.14600086 1.92880547 0.94683671 
5.80479002 -13.21676254 2.059345961 0.9433424473 
6.530395508 -13.23616695 2.105591774 0.9421077371 
8.141894341 -13.35962391 2.231935978 0.9387424588 
9.90563488 -13.40679646 2.378038645 0.9348660111 
10.88102531 -13.43288994 2.466161966 0.9325355887 
11.86072731 -13.37874508 2.550660849 0.9303065538 
18.28321266 -18.86175156 3.747489929 0.899300158 
18.32513237 -17.29458427 3.59467864 0.9032008052 
18.39982605 -14.50191402 3.342206717 0.9096823931 
20.98488235 -13.70310497 3.57545495 0.9036926627 
23.27916718 -13.7644701 3.858108044 0.8964870572 
30.3744812 -14.48509216 4.800739288 0.8728696704 
34.46082306 -14.58954525 5.338624001 0.8596728444 
113.7933197 31.12498474 16.83008766 0.6208469272 
81.53790283 30.31814957 12.41031075 0.703637898 
72.33849335 30.62563705 11.2065773 0.7280403376 
70.31815338 37.46022034 11.36627293 0.7247548699 
69.63955688 41.17642593 11.54152584 0.7211664915 
69.17286682 45.16979218 11.78584003 0.7161935568 
39.69429779 90.37876892 14.08220387 0.6710956097 
32.77142334 97.31150055 14.64857101 0.6604164839 
28.41022873 98.67298889 14.64857101 0.6604164243 
23.9928112 99.83909607 14.64857101 0.6604164243 
19.52773857 100.8075562 14.64857101 0.6604164839 
-61.62071609 97.17490387 16.41526985 0.6281840205 
-56.53875351 19.88456535 8.550128937 0.7849295139 
-26.34646988 5.469535828 3.838734865 0.8969791532 
-59.97422409 -17.5573101 8.915029526 0.7768592238 
-60.23300171 -20.5833931 9.080734253 0.7732217312 
-55.1348877 -30.64382172 8.998796463 0.7750182152 
-54.65063858 -40.75585175 9.725756645 0.759224236 
-8.072402 -13.79217243 2.279831171 0.9374698997 
-7.68885231 -14.5891161 2.352642059 0.9355386496 
-6.708769321 -16.04480362 2.480988503 0.9321440458 
-5.892773151 -16.06661606 2.441369295 0.9331906438 
-2.8769238 -12.98455524 1.89730072 0.9476818442 
-1.104457974 -13.03196716 1.865807176 0.9485275745 
-0.5228027105 -13.04751968 1.862855792 0.9486069083 
0.05813964829 -13.06305599 1.863597035 0.9485870004 
0.6406982541 -13.07864189 1.86803925 0.9484676123 
1.227202177 -13.09433079 1.876225591 0.9482477307 
1.820053697 -13.11018562 1.888238788 0.9479251504 
2.421738148 -13.12627411 1.904200673 0.9474967122 
3.662402153 -13.15946293 1.948681235 0.9463038445 
4.307338715 -13.17671394 1.977678776 0.9455269575 
6.382666111 -13.23221684 2.09584403 0.9423678517 
7.179648399 -13.33387184 2.160441637 0.9406452775 
7.977070332 -13.35521412 2.219250202 0.9390798211 
8.820824623 -13.37778282 2.286002159 0.9373060465 
10.68016052 -13.42751408 2.447626591 0.9330252409 
17.97807503 -18.88030624 3.719239712 0.9000200033 
18.35632706 -16.12817764 3.485913277 0.9059873819 
18.39282417 -14.76367188 3.364670753 0.9091038108 
22.65229034 -13.66736031 3.774226189 0.8986194134 
25.32517052 -13.78203106 4.113240719 0.8900324106 
28.32638931 -13.81912327 4.496293068 0.8804286122 
68.88500214 32.10086441 10.84180737 0.7356009483 
70.00328827 40.55495071 11.54152679 0.7211664915 
69.40110016 53.7045784 12.51894474 0.7014761567 
39.98853302 88.89157867 13.90537834 0.6744648814 
37.91854858 95.4236908 14.64857101 0.6604164839 
29.28734398 98.41620636 14.64857101 0.6604164243 
24.88043404 99.62159729 14.64857101 0.6604164243 
20.42406273 100.6297989 14.64857101 0.6604164243 
-46.65362549 103.7077026 16.22307396 0.6316128969 
-48.42467117 95.98734283 15.33748055 0.6476555467 
-59.91132355 96.36476135 16.18771553 0.632245779 
-56.48316956 39.82101059 9.859110832 0.7563620806 
-72.57462311 46.47505188 12.29446983 0.7059502602 
-50.33374405 23.4558239 7.922026157 0.7990179658 
-68.6572113 24.83554077 10.41578388 0.7445307374 
-69.58390045 18.36859894 10.26690292 0.7476766109 
-26.34535599 5.714335918 3.845832825 0.8967989087 
-60.21743393 -19.98141098 9.051223755 0.7738683224 
-56.74167252 -37.77680969 9.724682808 0.7592473626 
-54.74845123 -43.94585419 10.01536846 0.7530226111 
-7.625868797 -14.16260242 2.294716358 0.9370747805 
-6.960800648 -14.43078136 2.285682678 0.93731457 
-6.87528801 -16.04034615 2.48966527 0.9319150448 
-2.997646332 -12.98131847 1.900652766 0.9475919604 
-0.6390185356 -13.04441357 1.863150001 0.9485989809 
-0.05812500045 -13.05994606 1.863153338 0.9485989213 
0.5239501595 -13.07551765 1.866852641 0.9484995008 
1.10947752 -13.09118176 1.874285221 0.9482998252 
1.700854421 -13.10699654 1.885524511 0.9479980469 
2.30057621 -13.12303638 1.900685072 0.9475910664 
2.911225557 -13.13936996 1.919924021 0.9470748901 
3.535619974 -13.1560688 1.943442702 0.9464442134 
4.838041782 -13.19090271 2.004397631 0.9448117614 
5.523169041 -13.20922852 2.04253006 0.9437918663 
6.236284256 -13.22830582 2.086350679 0.9426212311 
7.025121689 -13.32975101 2.149557114 0.9409353137 
7.772275448 -13.27938461 2.195068359 0.9397231936 
8.648022652 -13.37315845 2.271971464 0.9376786351 
11.50249004 -13.44950676 2.524708748 0.9309905171 
17.96924782 -19.21051216 3.752635002 0.8991690874 
20.0347023 -13.59734058 3.454254389 0.9068000913 
24.84041786 -13.80623055 4.054307938 0.8915192485 
33.05528641 -14.69361305 5.160583496 0.8640187979 
68.92759705 31.37716293 10.80413151 0.7363862395 
68.96893311 35.18009949 11.04521084 0.7313753963 
38.76622772 95.08248138 14.64857101 0.6604164243 
30.16202164 98.15167999 14.64857101 0.6604164243 
23.61811066 91.11038971 13.42743874 0.6836568713 
21.31900787 100.4440002 14.64857101 0.6604164839 
12.30703068 101.9413223 14.64857101 0.6604164839 
-5.976088524 10.86587334 1.769105434 0.9511290193 
-58.70890045 96.33261871 16.09388924 0.6339281201 
