# .PCD v0.7 - Point Cloud Data file format
VERSION 0.7
FIELDS x y z intensities
SIZE 4 4 4 4
TYPE F F F F
COUNT 1 1 1 1
WIDTH 909
HEIGHT 1
VIEWPOINT 0 0 0 1 0 0 0
POINTS 909
DATA ascii
-12.33910656 10.08628368 0.07284957916 0.9382409453 
-13.01022434 9.70242691 0.07418868691 0.9371429682 
-19.56562042 13.27897453 0.108089596 0.9097495675 
-19.66310501 9.810341835 0.1004481465 0.9158533216 
-55.85228729 21.90677261 0.2742443681 0.786642015 
-55.98643875 19.1323185 0.2704516649 0.7892568111 
-26.25389671 7.685830116 0.1250480562 0.8963500261 
-66.92461395 16.39816856 0.3149704039 0.759101212 
-112.2263489 12.03097153 0.5159388781 0.6366837025 
-60.68573761 -18.35350037 0.2898089588 0.7759988308 
-60.0777092 -21.12924194 0.2911112905 0.7751160264 
-55.14715195 -22.19835472 0.2717393339 0.7883670926 
-55.18341064 -31.31697655 0.2900398076 0.7758434415 
-57.09399796 -39.4958725 0.3173484802 0.7575258017 
-55.39955521 -46.11369705 0.3294888139 0.7495182157 
-48.36925125 -48.1545639 0.3119912744 0.7610820532 
-57.1318779 -62.17856979 0.3859887719 0.7133620381 
-10.11610317 -15.95293903 0.08634826541 0.9272233844 
-9.162089348 -15.9784565 0.0841947943 0.9289723635 
-7.381655216 -16.02606392 0.0806542933 0.9318549037 
-6.543198109 -16.04848671 0.07922241092 0.9330232143 
-5.73231411 -16.07017517 0.07799209654 0.9340283275 
-2.897685528 -13.6525383 0.06379745156 0.9457024932 
-2.271113157 -13.66929626 0.06334045529 0.9460808039 
-1.65224123 -13.68583965 0.06301376224 0.9463512897 
-1.038505793 -13.70226574 0.06281402707 0.9465165138 
-0.4274462759 -13.71859837 0.06273971498 0.9465782642 
1.414033175 -13.76786137 0.06326537579 0.9461428523 
3.320849419 -13.81885719 0.06496597081 0.9447360635 
6.864692211 -13.91363239 0.07092056423 0.9398261309 
9.604013443 -14.28719711 0.07869262248 0.9334561825 
11.47617626 -14.16757298 0.08334121853 0.9296653271 
11.86072731 -13.37874985 0.08172668517 0.9309797287 
18.36248779 -15.84627438 0.1108705103 0.907538414 
22.00558281 -14.36964798 0.1201351881 0.9002090693 
40.64681244 -13.0870142 0.1951957643 0.8429830074 
69.38417816 -18.97797775 0.3288128674 0.7499608994 
87.97747803 28.32639313 0.4224857986 0.6909382939 
87.83968353 32.66152573 0.4283837676 0.6873815656 
70.65132904 33.69265366 0.3577984571 0.7311775684 
71.16246033 42.07697296 0.3779005408 0.7184284329 
72.18862915 47.13916779 0.3941059709 0.7083124518 
71.53491211 56.3806572 0.4163499475 0.6946592331 
77.15551758 87.03041077 0.5316415429 0.6279894114 
34.26764679 88.52416992 0.4339164495 0.6840631962 
29.84956551 88.63557434 0.4275222719 0.6879004836 
13.17159176 89.05173492 0.4114945829 0.6976162791 
9.15748024 89.16297913 0.4097178578 0.6987014413 
1.19314456 89.37248993 0.408568114 0.6994048357 
-0.5783203244 18.56067276 0.08488403261 0.9284121394 
-2.413935423 9.312046051 0.04397323355 0.9622511864 
-2.865322113 9.324120522 0.04458862171 0.961733222 
-9.464028358 23.21244621 0.1145867929 0.9045917392 
-10.34522438 22.4601841 0.1130351201 0.905820787 
-9.951489449 15.69335461 0.08494323492 0.9283641577 
-10.54220676 15.09549236 0.08416458219 0.928996861 
-9.985024452 13.02272892 0.07501251251 0.9364668131 
-10.33326626 12.3023386 0.07343994081 0.9377558827 
-9.715551376 9.672426224 0.06262817234 0.9466382861 
-12.76269531 9.69580555 0.07326538116 0.9378995299 
-56.45780563 22.72588348 0.2781988382 0.7839242816 
-55.55648804 19.5390873 0.2692041099 0.7901191115 
-96.56661987 15.60311985 0.447141856 0.6761905551 
-106.2703323 -16.20181084 0.4913865626 0.6505106091 
-69.53832245 -17.03887177 0.3272706568 0.7509737611 
-55.13919449 -21.62710381 0.2707418799 0.7890559435 
-55.46645737 -30.82811928 0.2900711 0.7758204937 
-58.86137009 -36.23265076 0.3159512281 0.7584489584 
-55.84399796 -41.64582443 0.3184368908 0.756801188 
-56.12251282 -45.87598038 0.3313464224 0.7483006716 
-74.00946808 -66.20230103 0.4539051652 0.672201395 
-42.7167244 -49.94717026 0.3004246354 0.7688245773 
-45.61219025 -58.40509033 0.3387446404 0.7434712648 
-41.92167282 -64.82727814 0.3528941274 0.7343221307 
-7.584965706 -14.39209461 0.07436523587 0.9369974732 
-7.553046703 -16.02147865 0.08096648753 0.9316005707 
-6.70846653 -16.0440712 0.07949218899 0.9328030944 
-5.89250946 -16.06589317 0.07822265476 0.933839798 
-3.485156059 -12.96827126 0.06138183549 0.9477028847 
-2.395751953 -13.6659565 0.0634213239 0.9460138679 
-1.160986304 -13.69898415 0.06284423918 0.9464918375 
0.6734570265 -13.74805164 0.06291931123 0.9464295506 
3.190273285 -13.81536579 0.06481353939 0.9448620677 
3.849892378 -13.83299732 0.06563537568 0.944182694 
5.227597713 -13.86985302 0.06775451452 0.9424335957 
6.709350586 -13.90949631 0.07059203833 0.9400961995 
7.445287704 -13.82723141 0.07178619504 0.9391145706 
11.64467239 -13.37296867 0.0810598731 0.9315271378 
18.2730484 -19.19016075 0.1211271659 0.8994293213 
18.35498238 -16.12692833 0.111687012 0.9068901539 
18.39147758 -14.76251888 0.1078010499 0.9099780917 
18.52044106 -13.55683804 0.1049162298 0.9122793674 
21.95602036 -14.61756325 0.1205718964 0.8998667002 
22.65241432 -13.66736317 0.1209341437 0.8995813727 
25.92350578 -14.10764599 0.1349099725 0.888646543 
64.05062866 -24.46686554 0.3134166002 0.7601333261 
76.23313141 -17.96151733 0.3580117822 0.7310412526 
94.05567169 -17.78605843 0.4375593364 0.6818849444 
89.34389496 27.89111519 0.4278387427 0.6877095699 
75.26232147 31.0766201 0.3722064197 0.7220167518 
71.30294037 33.22759628 0.3595861793 0.7300346494 
71.01515198 37.02391052 0.3660859466 0.7258940339 
71.15699768 41.22332001 0.375908047 0.7196822166 
71.50691986 55.33386612 0.4133041203 0.6965133548 
39.76059341 88.38491821 0.4430166483 0.6786363125 
30.72301292 88.61343384 0.4287165701 0.687181294 
26.4035244 88.72556305 0.4231515527 0.6905357838 
14.39946747 70.94573975 0.3309130669 0.7485837936 
13.97950172 89.03126526 0.4119575322 0.6973330379 
-1.465595722 9.333930016 0.04318908602 0.962911725 
-2.774008751 9.321679115 0.04445739463 0.9618439078 
-9.753432274 15.68805122 0.08444122225 0.9287720323 
-10.5347414 15.37455082 0.08519408852 0.9281601906 
-12.52134705 9.689340591 0.07237213105 0.9386331439 
-19.48396873 12.47706509 0.1057600379 0.9116060138 
-20.01912117 11.59764576 0.1057568341 0.9116085172 
-21.72148895 10.12234306 0.1095433012 0.9085930586 
-54.7306366 19.79781723 0.2660452127 0.7923058271 
-80.12495422 17.37935066 0.3747766018 0.7203947902 
-96.0636673 12.03119564 0.4425495863 0.6789141297 
-93.22984314 -17.62990761 0.4337165654 0.6841812134 
-70.0015564 -16.4932766 0.3287469447 0.7500042915 
-60.13840103 -17.0258255 0.2857040465 0.7787923813 
-56.05544281 -21.41275787 0.2742935121 0.7866070271 
-56.34846878 -24.44961357 0.2807768285 0.7821573019 
-59.67564011 -36.00537491 0.3185896277 0.7567003369 
-66.16471863 -58.13374329 0.4026031494 0.7030650377 
-51.98570633 -54.59481812 0.3445968628 0.7396717668 
-54.88225937 -63.02789307 0.3820263445 0.7158399224 
-52.86423111 -66.46291351 0.3881918192 0.7119865417 
-42.42337418 -64.33982086 0.3522828519 0.7347154021 
-9.537919998 -15.96840286 0.08502288908 0.9282993674 
-7.725863934 -16.01684952 0.08128738403 0.9313389659 
-4.232670784 -12.94829082 0.06227004901 0.9469672441 
-0.6716943383 -13.71206474 0.06275451183 0.9465659857 
-0.06107421592 -13.72839355 0.06275481731 0.9465658665 
0.5507665873 -13.74477005 0.06287933141 0.9464626312 
1.166264653 -13.7612257 0.06312957406 0.9462553859 
1.787919879 -13.77785587 0.06350830197 0.945941925 
3.716586828 -13.82944298 0.06545898318 0.9443284869 
4.390561581 -13.84746552 0.06640396267 0.9435480237 
7.339506626 -13.92634201 0.07195846736 0.9389728308 
11.4956007 -13.44138145 0.08084899932 0.9316970706 
18.2640686 -19.52570724 0.1222145036 0.898573935 
18.3074379 -17.90454483 0.1170538291 0.9026409984 
18.38437653 -15.02784157 0.1085406467 0.9093905091 
21.52077293 -14.6059227 0.1188909858 0.9011912942 
28.40955925 -14.17414474 0.1451287866 0.8807354569 
69.34877014 -20.30156136 0.330306083 0.7489820719 
69.88356781 -17.12314415 0.328894943 0.7499069571 
64.34714508 7.478135586 0.2961195409 0.771727562 
87.02153778 30.60533905 0.4216703773 0.691432178 
77.08241272 31.02793884 0.379827261 0.7172182202 
71.70677948 32.64209747 0.3601432741 0.7296788692 
70.97653961 36.20433807 0.3642123342 0.7270854115 
71.17919159 44.69348526 0.384185642 0.7144847512 
29.9334507 20.70703888 0.1663780212 0.8645100594 
71.46881866 54.29469299 0.4102735817 0.6983616948 
45.19492722 87.63671875 0.4507311881 0.6740704179 
40.69942856 88.3611145 0.444694519 0.6776400208 
23.02190399 88.81126404 0.4193850756 0.6928162575 
10.75941372 89.12238312 0.410346657 0.6983172297 
6.762397289 89.22367859 0.4090212882 0.6991275549 
2.783427715 89.33218384 0.4085455239 0.6994185448 
-0.3578515649 26.80359268 0.1225329563 0.8983234763 
-0.9640282989 9.386288643 0.04313140735 0.9629603624 
-1.809892535 9.343139648 0.04350234941 0.9626477361 
-2.236674786 9.307304382 0.04375610128 0.9624342322 
-9.914907455 22.57482338 0.1127038524 0.9060816765 
-9.818593979 19.90073204 0.1014373749 0.9150603414 
-10.40952587 18.92675209 0.09873809665 0.9172247052 
-9.557778358 15.68282223 0.08395187557 0.9291696548 
-9.957138062 12.2922802 0.07231201231 0.9386832714 
-10.62539005 11.9852972 0.0732159391 0.9379403591 
-10.65203571 10.98909664 0.0699583441 0.9406177402 
-19.09121132 12.4665575 0.1042262241 0.9128302932 
-23.40904808 9.910531998 0.1161999479 0.9033157825 
-58.88653564 18.95957565 0.2827848792 0.7807841897 
-67.07022858 18.34509277 0.3178479075 0.7571920156 
-72.44076538 16.38881302 0.3395040929 0.7429777384 
-96.01583862 12.89425278 0.442843169 0.6787413359 
-112.1732025 -15.06412601 0.5173594356 0.6358926892 
-93.55146027 -16.82962418 0.4344987273 0.6837131381 
-58.02427292 -21.57524872 0.282977432 0.780652523 
-57.14686966 -24.19418335 0.2836709619 0.7801787257 
-26.05051231 -12.42313004 0.1319281012 0.890969038 
-55.86999512 -36.48308945 0.305015713 0.7657418251 
-56.18335342 -40.36305237 0.3162254393 0.7582674026 
-52.18584442 -53.83720016 0.3427386284 0.7408789992 
-52.82982635 -65.21951294 0.3836625516 0.7148150802 
-9.728700638 -15.9633007 0.08545348793 0.9279497266 
-7.899990082 -16.01220703 0.08161728084 0.9310700893 
-7.042572975 -16.03513718 0.08005630225 0.9323427081 
-6.21574688 -16.05724525 0.07870681584 0.9334442616 
-4.359414101 -12.9448967 0.06243789569 0.9468283057 
-3.278437376 -13.64234352 0.06413619965 0.9454222918 
-2.645976543 -13.65926266 0.06359863281 0.945867002 
-2.022797823 -13.67593193 0.0631942749 0.9462017417 
1.042734385 -13.75791931 0.06306945533 0.9463052154 
2.291386604 -13.79131794 0.06390594691 0.9456127882 
2.930771351 -13.80842209 0.06452590972 0.9450998902 
5.659628868 -13.88142586 0.06852447242 0.9417984486 
6.402973652 -13.90130329 0.06996078044 0.9406155348 
7.179716587 -13.92207527 0.07160339504 0.9392645359 
9.984828949 -14.29738235 0.07971496135 0.9326214194 
10.98280716 -14.32407665 0.08250884712 0.930344224 
11.48925304 -13.67861748 0.08165694773 0.9310380816 
18.33962059 -16.70123482 0.1133850068 0.9055436254 
18.3771801 -15.29685497 0.1092970222 0.9087882042 
24.80663109 -14.07777596 0.130380854 0.8921753764 
64.98146057 -22.8539257 0.3148760796 0.7591654062 
69.33094025 -20.96813393 0.3310970962 0.7484638691 
69.41927338 -17.66586304 0.3274377286 0.750864327 
84.43491364 -17.52873421 0.3941914141 0.7082597017 
42.40747833 8.410959244 0.1976261884 0.8411914706 
88.38145447 30.20277023 0.426940918 0.6882505417 
78.97775269 30.97725105 0.3877932727 0.7122360468 
72.11172485 32.05498886 0.3607241809 0.7293041348 
70.93829346 35.39266586 0.3623837233 0.7282489538 
60.40710831 40.99767303 0.3337168694 0.7467492819 
41.6450119 88.3371582 0.446421206 0.6766169667 
36.98563385 88.45529175 0.4382621646 0.6814656258 
15.70981884 70.90367126 0.3319686949 0.7478926182 
11.5613184 89.09254456 0.4106664956 0.6981216073 
7.56000948 89.20346832 0.4092208743 0.699005425 
3.578818321 89.31201935 0.408583045 0.6993957758 
-0.6951855421 14.19146442 0.06494857371 0.9447503686 
-1.288608313 9.28194809 0.04283569381 0.9632095695 
-1.723364234 9.340825081 0.0434185788 0.9627184272 
-2.148730516 9.304955482 0.04365325719 0.962520659 
-2.592993021 9.316840172 0.04420699924 0.962054491 
-9.514614105 29.10645485 0.1399771124 0.8847150207 
-9.758720398 25.89183998 0.1264817715 0.8952246904 
-9.596420288 19.89478874 0.1009686291 0.9154365659 
-10.18795395 18.92082405 0.09823027998 0.9176325202 
-9.697890282 16.23619652 0.08644866943 0.9271418452 
-10.35475063 15.70413494 0.0859855637 0.9275177121 
-10.55660152 14.55716228 0.08219787478 0.9305971265 
-9.773300171 12.28736305 0.07176849246 0.939129889 
-10.01566887 9.622328758 0.06348876655 0.945958674 
-10.98111343 9.64814949 0.06681808084 0.943205893 
-12.34386158 9.908198357 0.072354123 0.9386478662 
-13.26408195 9.709218979 0.07513809204 0.9363627434 
-20.00646019 12.07090759 0.1068081632 0.9107702971 
-20.03765488 10.90454102 0.1042788699 0.9127880931 
-22.80324745 9.89432621 0.1136256382 0.9053530693 
-56.31009293 18.6848278 0.2712008655 0.788739562 
-71.96518707 16.95596123 0.3379690349 0.7439763546 
-85.93878937 16.25112724 0.3997976482 0.704793036 
-95.71337891 13.72207451 0.4419918656 0.6792458892 
-118.7403717 -14.8718214 0.5470161438 0.6196023822 
-93.88366699 -16.02843285 0.4353623986 0.6831968427 
-106.454567 -23.09035683 0.4979312122 0.6467959285 
-65.30608368 -17.23950577 0.3087481558 0.7632454038 
-60.7016716 -18.9496727 0.2906818986 0.7754082084 
-58.54011154 -21.17586327 0.2845623791 0.7795704603 
-55.18983841 -31.97310066 0.2915565372 0.7748139501 
-58.44830322 -37.42889023 0.3172601163 0.7575808764 
-56.06493378 -39.52611542 0.3135661185 0.7600340247 
-7.211484432 -16.03062057 0.08035095036 0.932102263 
-3.375585794 -13.51590347 0.06367813051 0.9457994103 
-2.146840811 -13.67262173 0.0632647723 0.9461433887 
-0.9161376953 -13.70552731 0.06278930604 0.9465371966 
-0.3053222597 -13.7218647 0.06273986399 0.9465782642 
0.9194775224 -13.75462818 0.06301437318 0.9463508725 
2.801923752 -13.80497551 0.06439086795 0.9452116489 
4.118652344 -13.84019947 0.06600707769 0.9438757896 
6.251777172 -13.89725113 0.06965774298 0.9408650994 
7.459863186 -13.28240681 0.06963592023 0.9408832192 
8.257787704 -13.28237724 0.07149139047 0.939355731 
9.793139458 -14.29226017 0.07919707894 0.9330440164 
10.77758789 -14.31858349 0.08192123473 0.9308226109 
12.08041 -13.38462353 0.08241378516 0.9304181337 
18.29053497 -18.53628349 0.1190368608 0.9010762572 
18.36989021 -15.56952572 0.1100738496 0.9081711769 
20.68573952 -14.5835886 0.1156912223 0.9037162662 
24.2756176 -14.06357193 0.1282427907 0.8938460946 
33.88220215 -13.99015617 0.1675628573 0.8636142015 
66.83961487 -17.64434052 0.3159976006 0.7584184408 
81.42153931 -17.66020012 0.3808413744 0.7165820003 
107.1459351 -18.29263115 0.4968627691 0.6474009156 
117.0995102 11.50002861 0.5378507972 0.624592185 
88.97652435 29.52428818 0.4285285771 0.6872947216 
71.16797638 42.93970108 0.3799447417 0.7171445489 
58.45597458 42.78968048 0.3311468363 0.7484304905 
71.15795898 57.1172142 0.4171084464 0.6942051053 
42.59803009 88.31300354 0.448197633 0.6755665541 
33.37323761 88.54683685 0.4325517118 0.6848791242 
13.09672356 70.98752594 0.3299679458 0.7492030859 
12.36584949 89.07216644 0.4110636711 0.6978790164 
4.374409199 89.29185486 0.4086527824 0.6993530989 
0.214428708 48.20044327 0.2203311175 0.8246421814 
-0.6445116997 16.08592224 0.07358947396 0.9376336336 
-1.204243183 9.279686928 0.04277374223 0.9632614851 
-2.957187414 9.326581955 0.04472442344 0.9616188407 
-9.433896065 22.56196213 0.1117858887 0.9068116546 
-10.3582859 21.9719429 0.1110375971 0.9074056745 
-9.968745232 18.91496086 0.09773528576 0.9180299044 
-6.071879864 10.37419891 0.05494674668 0.9530552626 
-10.15193844 15.69870567 0.08545776457 0.9279460907 
-10.54948711 14.82321262 0.08316650242 0.9298086166 
-10.52575684 12.30749035 0.07402770966 0.9372743964 
-10.64166927 11.37675762 0.07120925933 0.9395888448 
-9.833798409 9.617465973 0.06287521124 0.9464657903 
-10.77993584 9.642767906 0.06611465663 0.9437875152 
-13.01022434 9.70242691 0.07418868691 0.9371429682 
-19.56581497 13.27898407 0.1080903634 0.9097489119 
-19.66310501 9.810341835 0.1004481465 0.9158533216 
-55.85228729 21.90677261 0.2742443681 0.786642015 
-66.92461395 16.39816856 0.3149704039 0.759101212 
-48.16106033 -12.25627422 0.2271684259 0.8197248578 
-55.14715195 -22.19835472 0.2717393339 0.7883670926 
-55.86595154 -28.49629402 0.2866726518 0.7781324387 
-55.18341064 -31.31697655 0.2900398076 0.7758434415 
-57.98729706 -36.40997314 0.3129864335 0.7604195476 
-18.0887146 -13.74183559 0.1038397178 0.9131391644 
-55.39955521 -46.11369705 0.3294888139 0.7495182157 
-66.49152374 -60.55089188 0.4110848904 0.6978670955 
-54.45088196 -64.82696533 0.3869947791 0.7127344608 
-10.1160059 -15.95293903 0.08634810895 0.9272235632 
-9.162089348 -15.9784565 0.0841947943 0.9289723635 
-8.252660751 -16.00276756 0.08230483532 0.9305100441 
-7.381655216 -16.02606392 0.0806542933 0.9318549037 
-5.732397556 -16.07016563 0.07799224555 0.9340282679 
-2.897685528 -13.6525383 0.06379745156 0.9457024932 
-1.038574219 -13.70225525 0.06281433254 0.9465165734 
-0.4274462759 -13.71859837 0.06273971498 0.9465782642 
0.7963769436 -13.75133228 0.06296417117 0.9463923573 
3.320849419 -13.81885719 0.06496597081 0.9447360635 
4.66584444 -13.85482883 0.06682678312 0.9431988597 
5.370551586 -13.8736763 0.06800369173 0.9422278404 
7.452685356 -13.55074692 0.07069198787 0.9400140047 
8.092133522 -13.27794933 0.0710772723 0.9396962523 
11.47617626 -14.16769981 0.08334182203 0.9296649694 
18.32378578 -17.29331589 0.1151721179 0.9041286707 
18.88413811 -13.56656456 0.106288299 0.9111847878 
22.00558281 -14.36964798 0.1201351881 0.9002090693 
23.76197243 -14.04983139 0.126184687 0.895457387 
26.51150131 -14.12337589 0.137310639 0.8867816925 
29.80061531 -14.21135235 0.1509184241 0.8762845993 
33.82132721 -14.31889153 0.1678854376 0.8633701801 
69.38417816 -18.97797775 0.3288128674 0.7499608994 
100.7300873 -18.12104416 0.4678399563 0.6640534997 
115.6374512 10.31859875 0.5306933522 0.6285167933 
87.97747803 28.32639313 0.4224857986 0.6909382939 
70.65154266 33.69236374 0.3577989042 0.7311773896 
20.02078819 36.40254974 0.1899061501 0.8468927145 
38.82875443 88.40853119 0.441382736 0.6796059608 
13.74748516 70.96668243 0.3304272294 0.748902142 
13.17159176 89.05173492 0.4114945829 0.6976162791 
9.157118797 89.16298676 0.4097178578 0.6987015009 
5.16995573 89.271698 0.4087548852 0.6992906332 
-0.5783203244 18.56067276 0.08488403261 0.9284121394 
-0.7434276938 9.808251381 0.04496398941 0.9614180326 
-1.120034099 9.277436256 0.04271636903 0.9633104205 
-1.98402822 9.347792625 0.04368164018 0.9624968171 
-10.34522438 22.4601841 0.1130351201 0.905820787 
-10.45813942 18.23870659 0.09610473365 0.9193409085 
-9.951586723 15.69335461 0.08494354039 0.9283639193 
-10.54220676 15.09549236 0.08416458219 0.928996861 
-11.61124992 9.66500473 0.06905761361 0.9413594604 
-12.76282692 9.695800781 0.07326583564 0.9378991127 
-14.06633282 9.73067379 0.07818222046 0.93387115 
-20.02535057 11.36450195 0.1052514613 0.9120118022 
-19.20902824 9.798202515 0.09856978804 0.9173597693 
-55.55627441 19.53928185 0.269203335 0.7901195884 
-57.358078 17.34703636 0.2739192247 0.7868654728 
-58.75431061 12.19744587 0.2742997706 0.7866036892 
-96.56654358 15.60267067 0.4471411109 0.6761909127 
-106.4014206 -21.10336304 0.4958468378 0.6479766369 
-69.53831482 -17.03855896 0.3272706568 0.7509739995 
-60.06153488 -20.52467155 0.2901363969 0.7757776976 
-55.13919449 -21.62710381 0.2707418799 0.7890559435 
-55.09322739 -24.48967171 0.2755969167 0.7857106924 
-55.46595001 -30.82812881 0.2900692821 0.7758218646 
-58.86137009 -36.23265076 0.3159512281 0.7584489584 
-55.16762924 -37.44199753 0.3047720194 0.7659049034 
-56.12207413 -45.87598038 0.3313443065 0.7483016849 
-54.44392776 -53.24622345 0.3481010497 0.737406671 
-9.349038124 -15.97344685 0.08460327238 0.928640306 
-7.585043907 -14.39209461 0.07436538488 0.936997354 
-6.708544731 -16.04406738 0.07949218899 0.9328029752 
-4.106469631 -12.95166016 0.06210815161 0.9471016526 
-3.485156059 -12.96827126 0.06138183549 0.9477028847 
-3.024116039 -13.64914513 0.06390487403 0.9456136823 
-1.160986304 -13.69898415 0.06284423918 0.9464918375 
-0.5495312214 -13.71533203 0.06274459511 0.9465742111 
0.6735156178 -13.74805164 0.06291931123 0.9464295506 
1.289985299 -13.76453114 0.06319488585 0.9462012649 
2.545659065 -13.79812431 0.06413742155 0.9454213977 
3.190273285 -13.81536579 0.06481353939 0.9448620677 
3.84982419 -13.83300781 0.06563537568 0.9441827536 
5.953280926 -13.88925743 0.06907562166 0.9413445592 
6.709423542 -13.90949631 0.0705921948 0.9400960803 
10.37588882 -14.3078413 0.08079025149 0.9317440987 
11.40220165 -14.33528805 0.08372909576 0.9293512106 
18.2730484 -19.19016075 0.1211271659 0.8994293213 
18.39147758 -14.76251888 0.1078010499 0.9099780917 
18.52027702 -13.55683041 0.1049156189 0.9122799039 
25.92350578 -14.10764599 0.1349099725 0.888646543 
32.94649506 -14.29549313 0.1641679406 0.8661835194 
64.05063629 -24.46657181 0.3134162724 0.7601336241 
63.47317886 -21.06175232 0.3057058752 0.7652841806 
76.23313141 -17.96151733 0.3580117822 0.7310412526 
94.05825806 -17.78612709 0.4375712574 0.6818779707 
89.34385681 27.89066505 0.4278376698 0.6877100468 
71.30294037 33.22759628 0.3595861793 0.7300346494 
71.15699768 41.22332001 0.375908047 0.7196822166 
70.74812317 45.30582047 0.3840205371 0.7145880461 
71.50692749 55.33439255 0.4133103788 0.6965124607 
20.02960968 35.66270065 0.1869699061 0.8490716815 
39.76014709 88.38491821 0.4430139065 0.6786368489 
35.1678009 88.50134277 0.4353195131 0.6832225323 
22.18545914 88.83248138 0.4185354412 0.6933311224 
13.97911072 89.03128052 0.411958307 0.6973331571 
1.988481402 89.35232544 0.4085406363 0.6994216442 
-0.4881249964 21.9330368 0.100283049 0.915985465 
-0.7183398008 10.74628353 0.04923248291 0.9578332901 
-1.465556622 9.333925247 0.04318923876 0.962911725 
-1.89680171 9.345463753 0.04359008744 0.9625738859 
-2.325043917 9.309667587 0.04386260733 0.9623444676 
-2.774008751 9.321679115 0.04445739463 0.9618439078 
-10.09697723 29.12203026 0.1408926398 0.8840052485 
-10.25566387 25.8088665 0.1269482374 0.8948594332 
-10.44838333 18.60332489 0.09753234684 0.9181931615 
-9.79843235 13.01773453 0.07447845489 0.9369046688 
-10.65708447 10.8002634 0.06935729831 0.9411125779 
-12.52124023 9.68934536 0.07237166911 0.9386334419 
-19.48377419 12.47705555 0.1057592779 0.9116066694 
-20.01912117 11.59764576 0.1057568341 0.9116085172 
-54.7306366 19.79781723 0.2660452127 0.7923058271 
-67.61250305 21.10680199 0.3237745464 0.7532752156 
-80.12488556 17.37895012 0.3747760057 0.720395267 
-106.1791611 -15.22255325 0.4903195202 0.6511183977 
-70.0015564 -16.4932766 0.3287469447 0.7500042915 
-56.30954361 -30.6438427 0.2930441201 0.7738061547 
-55.30374527 -36.81932068 0.3037010133 0.7666234374 
-65.97179413 -63.38096237 0.4181863368 0.6935429573 
-54.88222122 -63.02729034 0.3820242286 0.7158413529 
-8.611542702 -15.99318314 0.08303100616 0.9299189448 
-7.725780964 -16.01685524 0.08128722757 0.9313390851 
-3.60825181 -12.96498966 0.06151565537 0.9475917816 
-3.151113272 -13.64575672 0.06401778758 0.9455201626 
-2.520659208 -13.66261673 0.06350722909 0.9459426403 
-1.283530235 -13.69570255 0.06287887692 0.9464629889 
3.060297728 -13.81188965 0.06466689706 0.9449833035 
3.716586828 -13.82944298 0.06545898318 0.9443284869 
4.390625 -13.84747028 0.06640396267 0.9435479641 
5.085673809 -13.86607361 0.06751205027 0.94263345 
6.555439472 -13.90538025 0.07027190924 0.940359354 
7.339584827 -13.92634773 0.07195877284 0.938972652 
9.23272419 -14.27727032 0.07772048563 0.9342505932 
11.4956007 -13.44149876 0.08085174114 0.931696713 
18.2640686 -19.52570724 0.1222145036 0.898573935 
18.30743408 -17.90470123 0.1170544401 0.9026406407 
18.34736061 -16.4119091 0.112525329 0.9062252641 
18.38438225 -15.02770996 0.1085397303 0.9093908072 
18.41893196 -13.73599052 0.1050295979 0.912188828 
21.52097893 -14.60592747 0.1188917533 0.9011906385 
32.10949326 -14.27311039 0.1606240869 0.8688741326 
64.03327179 -25.11563873 0.3144131303 0.7594707012 
65.04125214 -22.22636223 0.3141912818 0.7596182823 
92.37505341 -18.3213768 0.4304820299 0.6861207485 
64.34714508 7.478135586 0.2961195409 0.771727562 
87.02171326 30.60580254 0.4216709733 0.691431284 
77.08241272 31.02793884 0.379827261 0.7172182202 
71.70658875 32.64236832 0.3601431251 0.7296790481 
70.97651672 36.20394516 0.3642112613 0.7270860076 
70.47894287 39.99726486 0.3704369962 0.7231395245 
29.9334507 20.70703888 0.1663780212 0.8645100594 
71.46879578 54.29418945 0.4102720618 0.6983625889 
45.19398499 87.63579559 0.4507260025 0.6740737557 
40.69942856 88.3611145 0.444694519 0.6776400208 
36.07344055 88.47839355 0.4367671013 0.6823570132 
23.02230453 88.81125641 0.4193838537 0.6928160191 
15.05346203 70.9247818 0.3314270079 0.7482472062 
10.75941372 89.12238312 0.410346657 0.6983172297 
6.762729168 89.22367096 0.4090214372 0.6991274953 
-0.7398583889 12.77545357 0.05849609151 0.9501000643 
-0.9640624523 9.386274338 0.04313140735 0.9629603624 
-1.809936523 9.343139648 0.04350250214 0.9626477361 
-9.804706573 29.11421776 0.1404276937 0.8843656778 
-10.02560043 25.89897919 0.1269476265 0.8948598504 
-9.914785385 22.57482338 0.1127053797 0.9060818553 
-9.818593979 19.90073204 0.1014373749 0.9150603414 
-9.557778358 15.68282223 0.08395187557 0.9291696548 
-10.52709007 15.66053677 0.08625625074 0.9272980094 
-10.62539005 11.9852972 0.0732159391 0.9379403591 
-10.20095634 9.627280235 0.06411651522 0.9454382062 
-11.18665028 9.653652191 0.06754333526 0.9426076412 
-13.52455521 9.716181755 0.07612151653 0.9355580211 
-19.09121132 12.4665575 0.1042262241 0.9128302932 
-20.04372597 10.67780209 0.103812404 0.9131611586 
-23.40873909 9.910527229 0.116198726 0.9033167958 
-67.07022858 18.34509277 0.3178479075 0.7571920156 
-112.1725922 -15.06412601 -0.5173565745 0.6358941793 
-79.31814575 -14.26919365 -0.3683929443 0.7244307399 
-53.31058121 -14.58159637 -0.2526414394 0.8016545177 
-49.47296143 -18.39549255 -0.2412734926 0.8096677661 
-26.05052185 -12.42307568 -0.1319265664 0.890969038 
-49.45528793 -26.34606934 -0.2561445534 0.7992007732 
-49.75665283 -29.42006302 -0.2642288208 0.7935671806 
-49.70954514 -35.71206284 -0.2797869742 0.7828347683 
-49.75844955 -39.21738815 -0.2896026671 0.7761385441 
-46.8337059 -48.31569672 -0.3075848222 0.7640220523 
-43.92387009 -54.22501373 -0.3189913929 0.7564380169 
-40.44865799 -60.17271805 -0.3314248621 0.7482488751 
-9.728676796 -15.9633007 -0.08545333892 0.9279497266 
-8.793354034 -15.98830986 -0.08340850472 0.9296116829 
-7.900029182 -16.01220131 -0.08161697537 0.9310700893 
-7.042612076 -16.03513145 -0.08005645871 0.9323426485 
-3.731967688 -12.96168423 -0.06165618822 0.947476089 
-2.645986319 -13.65926266 -0.06359863281 0.945867002 
-2.022802591 -13.67593765 -0.0631942749 0.9462017417 
-0.1832372993 -13.72512627 -0.06274475157 0.9465741515 
0.4281738102 -13.74149418 -0.06284438819 0.9464915395 
1.662963867 -13.77451134 -0.06342193484 0.9460132718 
5.659609318 -13.88140583 -0.06852493435 0.9417985082 
6.402954102 -13.90129852 -0.06996124238 0.9406155944 
7.179701805 -13.92206955 -0.07160370052 0.9392645359 
10.98280716 -14.32407665 -0.08250823617 0.930344224 
18.25492859 -19.86746597 -0.1233317554 0.8976958394 
18.29905891 -18.21780777 -0.1180323735 0.901868403 
18.41219902 -13.98767567 -0.1056968644 0.9116563201 
21.09753799 -14.59460449 -0.1172654703 0.9024738073 
22.0201149 -13.82640553 -0.1188529953 0.9012205005 
34.75790787 -13.9911499 -0.1712712049 0.8608161807 
87.2493515 1.55315423 -0.3988897502 0.7053533792 
42.40756607 8.410870552 -0.1976249665 0.8411912322 
87.50695038 29.90374947 -0.4227153063 0.6907995939 
78.9780426 30.97724342 -0.3877935708 0.7122352719 
30.70416832 17.0652771 -0.1605737209 0.8689122796 
47.84434509 29.45099831 -0.2568141222 0.7987308502 
51.2060051 34.75297546 -0.2828862071 0.7807151675 
58.42807388 43.57291794 -0.3331722915 0.7471054196 
11.58311462 16.27549744 -0.09131469578 0.9232023358 
21.00712395 39.85983276 -0.2059591562 0.8350792527 
23.86184502 88.78997803 -0.4202700853 0.6922793388 
12.31188202 55.56764603 -0.2601658702 0.7963923216 
7.559911728 89.20347595 -0.4092204273 0.699005425 
-0.6951904297 14.19124508 -0.06494750828 0.9447512031 
-2.592973471 9.316835403 -0.04420684651 0.9620545506 
-9.673339844 22.56836319 -0.1122392267 0.9064517617 
-9.596405983 19.89478874 -0.1009675562 0.9154365659 
-10.18795395 18.92082405 -0.09823027998 0.9176325202 
-9.697890282 16.23619652 -0.08644881845 0.9271418452 
-10.35476017 15.70413494 -0.08598571271 0.9275176525 
-10.55660152 14.55715752 -0.08219787478 0.9305971861 
-9.773310661 12.28736305 -0.07176879793 0.9391298294 
-10.61975574 12.19590282 -0.07392196357 0.9373608828 
-10.01561546 9.62232399 -0.06348861754 0.9459588528 
-12.34386158 9.908246994 -0.072354123 0.938647747 
-13.26404762 9.709213257 -0.07513854653 0.9363628626 
-20.0320549 13.336689 -0.1100091562 0.9082249403 
-20.03765488 10.90456963 -0.1042799354 0.9127880335 
-22.80321312 9.894330978 -0.1136254892 0.9053531885 
-75.72431946 28.92616653 -0.370539099 0.7230711579 
-79.86058044 18.81611824 -0.3750472963 0.7202242613 
-70.01844788 -15.18717289 -0.3275032043 0.7508199811 
-55.3477478 -14.61062908 -0.2616693079 0.7953466177 
-49.38899612 -17.86557007 -0.2400788814 0.8105145097 
-49.33997345 -20.37298203 -0.2440081686 0.8077321649 
-49.36540604 -23.0045948 -0.2489533871 0.8042445183 
-49.51013184 -28.68274879 -0.2615512013 0.7954269648 
-49.5451889 -31.72762108 -0.2689356804 0.7903052568 
-49.66543198 -35.01452637 -0.2777740359 0.7842150331 
-49.81454468 -38.54784393 -0.2879185379 0.7772815228 
-48.83229828 -41.38837433 -0.2926098704 0.7741014361 
-47.83845901 -44.34985733 -0.2981895506 0.770329237 
-47.04702377 -47.67930984 -0.306186378 0.7649572492 
-45.68860626 -50.62142944 -0.3117082119 0.7612709999 
-44.28239822 -53.68374252 -0.3181141615 0.7570196986 
-8.976836205 -15.98340797 -0.08379653841 0.9292961955 
-8.075639725 -16.00749969 -0.08195617795 0.9307937622 
-4.486908913 -12.94148922 -0.06261154264 0.9466843605 
-3.375585794 -13.51593208 -0.06368392706 0.9457992911 
-2.146826029 -13.67261219 -0.0632647723 0.9461434484 
-0.9161767364 -13.70552731 -0.06278930604 0.9465371966 
-0.3053515553 -13.72187424 -0.06273971498 0.9465782046 
0.9194530845 -13.75462341 -0.06301406771 0.9463508725 
2.801904202 -13.80497074 -0.06439056247 0.9452117085 
3.452119112 -13.82236767 -0.06512420624 0.9446051121 
5.514511585 -13.87752438 -0.06826080382 0.9420162439 
6.25178194 -13.89726067 -0.06965774298 0.9408650994 
8.257807732 -13.28237247 -0.07149169594 0.9393556714 
9.79317379 -14.2922554 -0.07919692993 0.9330439568 
10.7776165 -14.31858349 -0.08192092925 0.9308225513 
11.4827776 -13.92059994 -0.08248824626 0.9303611517 
18.40537834 -14.24259758 -0.1063818336 0.91111058 
24.27560043 -14.06357193 -0.1282431036 0.8938461542 
27.12117577 -14.13968277 -0.1398109347 0.8848436475 
33.88219833 -13.99032688 -0.1675630212 0.8636139631 
66.83383942 -17.64273834 -0.3159701526 0.7584366202 
81.42153168 -17.66048241 -0.3808411956 0.716581881 
87.04191589 8.548431396 -0.3997927904 0.7047963142 
87.27198792 12.51177692 -0.4030093253 0.7028154731 
87.2283783 16.49489403 -0.4057972729 0.7011027336 
47.39772797 13.41879654 -0.2251739502 0.821154058 
87.41732025 29.00689697 -0.4210174382 0.6918259859 
72.24546051 31.34737206 -0.3599894643 0.7297771573 
31.17907906 16.9677906 -0.162261039 0.8676301837 
51.36811066 37.60118866 -0.2909947038 0.7751950026 
71.15797424 57.11745834 -0.4171282947 0.6942046881 
10.99179649 16.67029762 -0.09127563238 0.9232339859 
19.81981087 33.18236542 -0.176676631 0.8567532301 
19.65847206 36.50930405 -0.1895433068 0.8471617699 
37.90397263 88.43196869 -0.4397994876 0.6805488467 
24.70522499 88.76860046 -0.4211932421 0.6917205453 
0.2144580036 48.20148849 -0.2203373611 0.8246387243 
-0.6445361376 16.08511162 -0.07358581573 0.9376366735 
-1.204204082 9.279686928 -0.04277526587 0.9632614851 
-2.957158089 9.326577187 -0.04472442344 0.9616189003 
-9.493823051 25.88475609 -0.1260296553 0.8955791593 
-10.3582859 21.97187996 -0.1110371351 0.9074059129 
-6.071899414 10.37416935 -0.05494735762 0.9530553222 
-10.1518898 15.69870567 -0.08545776457 0.9279461503 
-10.54949188 14.82314873 -0.08316619694 0.9298087955 
-10.17427254 13.02778816 -0.07556030154 0.9360181093 
-10.64166451 11.37678719 -0.0712087974 0.9395887852 
-10.77991199 9.642767906 -0.06611236185 0.9437875748 
-13.01023388 9.702421188 -0.07418762147 0.9371429086 
-20.00003433 12.31118107 -0.1073545814 0.9103348255 
-20.03153229 11.13342762 -0.1047582999 0.912405014 
-19.6631546 9.810341835 -0.1004481465 0.9158531427 
-47.33209229 9.387582779 -0.2205741853 0.8244669437 
-96.13427734 14.65662575 -0.444519788 0.6777446866 
-70.19004059 -14.57153797 -0.3276873827 0.7506997585 
-49.47817612 -17.40147018 -0.2397500575 0.8107477427 
-49.57314682 -19.95473099 -0.2442736775 0.8075447679 
-49.51800156 -22.54151726 -0.2487016171 0.8044219017 
-49.47495651 -25.23649788 -0.2538775504 0.8007864952 
-18.0877533 -13.74120045 -0.1038343757 0.9131433368 
-49.07759094 -40.85129166 -0.2918896377 0.7745895982 
-48.07339096 -43.77856827 -0.2972155809 0.7709875107 
-47.19048309 -46.98093033 -0.3043875098 0.7661629319 
-41.22839355 -59.03533554 -0.329146564 0.7497395277 
-8.252729416 -16.0027771 -0.08230499178 0.9305098653 
-7.381630898 -16.02606392 -0.08065444976 0.9318549037 
-5.732358456 -16.07017136 -0.07799194008 0.9340283275 
-3.362558603 -12.97155762 -0.06125488132 0.9478094578 
-1.652255774 -13.68584442 -0.06301391125 0.9463512897 
-1.038525343 -13.70226002 -0.06281433254 0.9465165734 
-0.4274511635 -13.71860313 -0.06273971498 0.9465782642 
0.1833740175 -13.73493576 -0.06278961152 0.9465370178 
0.7963769436 -13.75133228 -0.06296417117 0.9463923573 
1.414033175 -13.76786137 -0.06326537579 0.9461428523 
2.038867235 -13.78456974 -0.06369628757 0.9457861781 
2.673554659 -13.80153751 -0.06426131725 0.9453188181 
3.983876944 -13.83659649 -0.06581817567 0.9440318346 
4.665863991 -13.85482883 -0.06682693213 0.9431988001 
6.101899147 -13.89323235 -0.06936278939 0.9411081076 
6.864648342 -13.91365719 -0.07092071325 0.9398261309 
8.092119217 -13.27794933 -0.0710772723 0.9396962523 
10.57531738 -14.31317806 -0.08134795725 0.9312891364 
11.47617626 -14.16760254 -0.08334472775 0.9296652675 
18.39847374 -14.50083923 -0.1070823669 0.9105513096 
22.00558281 -14.36961842 -0.1201376319 0.9002091289 
26.51158142 -14.12338066 -0.1373110861 0.8867813945 
33.82154846 -14.31889629 -0.1678866595 0.8633694649 
64.06786346 -23.82230377 -0.3124516308 0.7607757449 
69.38417053 -18.97803116 -0.3288131654 0.7499608994 
79.81572723 -18.05735779 -0.3740666211 0.7208423018 
92.51720428 8.255605698 -0.4245869219 0.6896692514 
47.81937408 10.8185463 -0.2241105586 0.8219188452 
47.38684845 12.96133995 -0.2245661914 0.8215914965 
87.44800568 28.1556797 -0.4199438393 0.6924775243 
70.65142059 33.69252396 -0.357799381 0.7311775088 
31.81806374 16.95026779 -0.1647943109 0.8657085896 
30.65680122 18.12672806 -0.1627995223 0.8672214746 
47.91342163 31.28740883 -0.2615768313 0.7954090238 
51.33315659 36.8784523 -0.2889260948 0.7765996456 
12.03075123 16.28301811 -0.09254394472 0.9222099185 
19.62941933 35.69075775 -0.1861970425 0.8496488929 
27.47465706 70.97556305 -0.347897172 0.7375406027 
21.35409164 88.8589859 -0.4177476466 0.6938086152 
-0.57833004 18.5602932 -0.08488219976 0.9284135699 
-1.120043874 9.277436256 -0.04271636903 0.9633104205 
-2.865297794 9.324120522 -0.04458862171 0.961733222 
-10.34522438 22.46022415 -0.113035582 0.9058206677 
-9.751582146 18.90915489 -0.09725295752 0.918417573 
-10.45813465 18.23875427 -0.09610489011 0.9193407893 
-9.951489449 15.69335461 -0.08494323492 0.9283641577 
-10.54220676 15.09549236 -0.0841647312 0.928996861 
-9.985024452 13.02272892 -0.07501266152 0.9364668131 
-9.715551376 9.672426224 -0.06269149482 0.9466382861 
-10.58294392 9.637504578 -0.06542877108 0.9443531036 
-11.61129856 9.664995193 -0.06905791909 0.9413593411 
-12.76277351 9.69580555 -0.07326583564 0.9378992915 
-14.06640148 9.730664253 -0.07818389684 0.9338709712 
-89.47806549 36.01781845 -0.4409072697 0.6798895597 
-58.74897766 12.19633293 -0.2742735147 0.7866207957 
-106.2703323 -16.20204544 -0.4913868606 0.6505105495 
-59.3845253 -14.55075645 -0.2794831693 0.7830432653 
-49.97239685 -14.62931156 -0.2380107045 0.8119787574 
-49.62748337 -16.95918465 -0.2397322059 0.8107600808 
-49.65003204 -19.47400856 -0.2437893599 0.8078874946 
-49.73711395 -22.10907745 -0.248803854 0.8043497801 
-49.76206589 -30.63149834 -0.2671060264 0.7915682793 
-49.78488541 -33.7884903 -0.2750357091 0.7860972285 
-49.07081604 -40.11172104 -0.2897112966 0.7760653496 
-46.30569839 -49.50450516 -0.3098550439 0.7625051141 
-41.60995483 -58.466362 -0.3280293345 0.7504751086 
-39.55360794 -61.1650238 -0.3329595923 0.7472447157 
-9.349081993 -15.97344685 -0.08460357785 0.9286402464 
-7.579360008 -14.38139153 -0.0743098408 0.9370427728 
-7.553081036 -16.02148438 -0.08096648753 0.9316004515 
-5.89250946 -16.06589317 -0.07822265476 0.933839798 
-4.106528282 -12.95166016 -0.06210815161 0.947101593 
-3.485156059 -12.96827126 -0.06138381734 0.9477028847 
-3.024179697 -13.64914989 -0.06390503049 0.9456136227 
-2.395751953 -13.6659565 -0.0634213239 0.9460138679 
-1.160986304 -13.69898415 -0.06284408271 0.9464918375 
1.290014625 -13.76454067 -0.06319503486 0.9462012053 
2.545693398 -13.79811954 -0.06413742155 0.9454213977 
5.953276157 -13.88927746 -0.06907577068 0.9413444996 
6.709350586 -13.90949631 -0.0705921948 0.9400961995 
7.928300381 -13.27356911 -0.07067321986 0.9400285482 
10.37579536 -14.30783653 -0.08079009503 0.9317442775 
18.52036285 -13.55683517 -0.1049159244 0.9122796059 
25.92350578 -14.10764599 -0.1349102706 0.888646543 
32.94649506 -14.29549313 -0.1641680896 0.8661835194 
64.05062103 -24.46686554 -0.3134158254 0.7601333261 
63.47318268 -21.06175232 -0.3057006896 0.765284121 
69.36650848 -19.63842773 -0.3295442164 0.7494809031 
76.23313141 -17.96151733 -0.3580117822 0.7310412526 
96.00333405 -18.15436554 -0.4466198683 0.676499784 
100.3345566 8.05373764 -0.4601154923 0.6685572267 
87.00927734 10.89739132 -0.4008366168 0.7041528225 
47.37368011 12.50569534 -0.223967582 0.8220220208 
87.51964569 31.65870094 -0.4254333377 0.6891595125 
75.26232147 31.07662201 -0.3722068667 0.7220167518 
33.67675781 17.55745506 -0.1736053377 0.8590598106 
30.65468025 17.75914764 -0.1619422883 0.8678721786 
47.89067841 30.66805077 -0.2599526942 0.7965406775 
51.28086853 36.15346146 -0.2868096828 0.778039217 
11.18060017 16.31702995 -0.09041702002 0.9239280224 
19.60636902 34.90948105 -0.1830204725 0.8520111442 
39.7605896 88.38491821 -0.4430154264 0.6786363721 
35.1678009 88.50134277 -0.4353202581 0.6832225323 
12.08526611 34.85715485 -0.1686410457 0.8627998233 
14.39916992 70.94502258 -0.330910027 0.7485860586 
-0.4881005883 21.93397903 -0.1002874747 0.915982008 
-1.04499507 9.354804039 -0.04302779958 0.9630476832 
-2.325087786 9.309672356 -0.04386260733 0.962344408 
-9.536586761 18.90340233 -0.0967829898 0.9187953472 
-10.44837856 18.60350037 -0.09753295779 0.918192625 
-10.63091278 11.77869129 -0.07252868265 0.9385044575 
-21.72148895 10.12234306 -0.1095433012 0.9085930586 
-65.07186127 26.86884308 -0.3218092322 0.7545706034 
-73.56838226 26.61208344 -0.3576152027 0.731295228 
-77.4213028 24.16917419 -0.3707438707 0.722940743 
-69.53807068 18.35647964 -0.3287545741 0.7499989271 
-101.4163284 17.31420326 -0.4702926576 0.6626296639 
-116.8955841 -1.040297866 -0.534363389 0.6265004873 
-76.20214844 -14.40994644 -0.3545037806 0.7332901359 
-60.61424255 -14.28148937 -0.2846632302 0.7795031667 
-52.26380157 -14.79641056 -0.2482928485 0.8047094345 
-49.47472 -16.41677284 -0.2382791042 0.811791718 
-49.48980713 -18.90473175 -0.2421656698 0.8090352416 
-49.56114578 -21.5045948 -0.2469566315 0.8056513071 
-49.49472046 -32.95198822 -0.271799773 0.7883250117 
-49.41075516 -36.16843033 -0.2799066007 0.7827532291 
-49.47009277 -39.70896912 -0.2899717689 0.7758891582 
-47.4120636 -45.55034637 -0.3005383313 0.7687473893 
-46.69514847 -49.0384903 -0.3095292449 0.7627236247 
-45.14966202 -51.85079575 -0.3142800927 0.7595603466 
-43.69060898 -54.92949677 -0.3208341897 0.7552184463 
-42.07398987 -58.01841354 -0.3276052773 0.7507545352 
-40.05250549 -60.74411392 -0.3325958252 0.7474828362 
-8.611542702 -15.99318314 -0.0830308497 0.9299189448 
-7.725863934 -16.01684952 -0.08128722757 0.9313389659 
-6.874975204 -16.03961372 -0.07977005094 0.9325762391 
-3.151078939 -13.64575672 -0.06401763856 0.9455202222 
-2.520688534 -13.66261196 -0.06350738555 0.9459426403 
-0.6717236042 -13.71207523 -0.0627546683 0.9465659261 
0.5507665873 -13.74477005 -0.06287933141 0.9464626312 
1.787919879 -13.77785587 -0.06350830197 0.945941925 
2.418325186 -13.7947216 -0.064018704 0.9455193281 
3.060239077 -13.81188488 -0.06466689706 0.9449833632 
4.390561581 -13.84746552 -0.06640396267 0.9435480237 
5.805869102 -13.88531685 -0.06879653782 0.9415746331 
6.555483341 -13.90538502 -0.07027252018 0.9403592348 
7.766332626 -13.26922798 -0.07028121501 0.9403526187 
10.17899895 -14.3025732 -0.08024505526 0.9321882725 
11.19097137 -14.32963371 -0.08311080933 0.9298539162 
11.4956007 -13.44144058 -0.08084975928 0.9316968918 
18.2640686 -19.52570724 -0.12221466 0.898573935 
18.3074379 -17.90454483 -0.1170541346 0.9026409984 
18.38437653 -15.02784157 -0.1085400358 0.9093905091 
18.41893196 -13.73599052 -0.1050295979 0.912188828 
22.18275261 -13.65480709 -0.1190708876 0.9010491967 
69.88273621 -17.12311935 -0.3288912773 0.7499094009 
92.37505341 -18.3211956 -0.4304818511 0.6861208081 
103.3313065 -6.445529461 -0.4732571244 0.6609131098 
64.34714508 7.478135586 -0.2961164713 0.771727562 
87.19688416 14.0892067 -0.4037564099 0.7023559213 
87.5259552 30.78294182 -0.4241105616 0.6899546385 
77.08201599 31.02794838 -0.3798251152 0.7172192931 
30.66346359 17.4016304 -0.161164239 0.8684632778 
47.86737061 30.05586052 -0.2583641112 0.7976487279 
68.20558167 88.955513 -0.5123947263 0.6386612654 
11.37507343 16.28806114 -0.09081374854 0.9236072302 
19.57972336 34.14671707 -0.1799279749 0.8543199897 
20.57668495 39.90011978 -0.2052126974 0.835624814 
40.69919968 88.36112976 -0.4446935952 0.6776401997 
23.02210808 88.81126404 -0.4193844497 0.6928160787 
15.05347157 70.92404938 -0.3314239383 0.748249352 
6.762397289 89.22367859 -0.4090208411 0.6991275549 
2.783427715 89.33218384 -0.4085455239 0.6994185448 
-0.9640282989 9.386288643 -0.04313140735 0.9629603624 
-1.809892535 9.343139648 -0.04350250214 0.9626477361 
-2.236694336 9.307304382 -0.04375610128 0.9624342322 
-2.683242083 9.319252968 -0.04432998598 0.9619509578 
-9.914838791 22.57482338 -0.1127047688 0.9060817957 
-9.818544388 19.90073204 -0.1014390513 0.9150604606 
-10.40946293 18.92674828 -0.09873809665 0.9172248244 
-10.62539005 11.9852972 -0.07321563363 0.9379403591 
-10.65203571 10.98909664 -0.06995849311 0.9406177402 
-10.20095634 9.627280235 -0.06411773711 0.9454382062 
-11.18654728 9.653642654 -0.06754287332 0.9426079392 
-20.04372597 10.67775345 -0.1038119495 0.9131612182 
-20.72629356 9.884017944 -0.1049638316 0.9122413397 
-67.34363556 25.04033661 -0.3284266591 0.7502142787 
-70.05875397 22.55695724 -0.3364360034 0.7449744344 
-102.6519318 28.0775528 -0.4864709377 0.6533156633 
-80.22007751 18.14871597 -0.3759611547 0.7196480036 
-79.31819916 -14.26929188 -0.3683932424 0.7244305611 
-49.71528625 -16.00688934 -0.2387420535 0.8114628196 
-49.47296143 -18.39549255 -0.2412734926 0.8096677661 
-49.43202591 -20.92784691 -0.245375365 0.8067667484 
-49.45530701 -26.34602928 -0.2561433315 0.7992008328 
-49.66472244 -32.4310379 -0.2711379826 0.7887818813 
-48.69774628 -42.02471161 -0.2940329015 0.7731379271 
-47.93081284 -45.23528671 -0.3012631238 0.7682604194 
-43.92393112 -54.22499466 -0.318990171 0.7564379573 
-42.46096039 -57.46891785 -0.3266224563 0.7513999939 
-40.44861603 -60.17276764 -0.3314244151 0.7482488751 
-8.793354034 -15.98830986 -0.08340850472 0.9296116829 
-7.900029182 -16.01220131 -0.08161697537 0.9310700893 
-7.042622089 -16.03513718 -0.08005630225 0.9323426485 
-3.731957912 -12.96167946 -0.06165618822 0.9474761486 
-2.022797823 -13.67593193 -0.0631942749 0.9462017417 
-1.406284094 -13.69242668 -0.06291870028 0.9464299083 
-0.793915987 -13.70879364 -0.06276946515 0.9465536475 
0.4281640649 -13.74147892 -0.06284438819 0.9464915991 
2.291420937 -13.79132271 -0.06390609592 0.9456127882 
3.584018469 -13.82589817 -0.06528869271 0.9444692731 
6.40293932 -13.90130329 -0.06996108592 0.9406155944 
10.98280716 -14.32407665 -0.08250823617 0.930344224 
11.48925304 -13.67861748 -0.08165374398 0.9310380816 
18.25492859 -19.86749458 -0.1233319044 0.8976957798 
18.29905891 -18.21784592 -0.118032679 0.9018683434 
18.33962631 -16.70116615 -0.1133850068 0.9055437446 
18.41219902 -13.98765564 -0.1056970209 0.9116563797 
22.0201149 -13.82639599 -0.1188528389 0.9012205005 
27.75335884 -14.15659142 -0.142414853 0.8828297853 
34.7580452 -13.99115181 -0.1712719649 0.8608157635 
69.33094025 -20.96813393 -0.3310955763 0.7484638691 
85.45146179 -17.73977089 -0.3989365995 0.705324471 
87.2493515 1.553249478 -0.3988897502 0.7053533792 
86.8615036 9.311964035 -0.3993290663 0.7050824165 
87.50695038 29.90371704 -0.4227148294 0.6907996535 
78.97775269 30.97725105 -0.3877924979 0.7122360468 
72.11172485 32.05498886 -0.3607302904 0.7293041348 
74.47395325 79.61854553 -0.4983453155 0.6465616226 
11.58311462 16.27549744 -0.09131469578 0.9232023358 
41.6450119 88.3371582 -0.4464205801 0.6766169667 
18.21700478 49.66848373 -0.2418293655 0.8092740774 
23.86182594 88.78997803 -0.4202700853 0.6922793984 
11.5613184 89.09254456 -0.4106666446 0.6981216073 
7.56000948 89.20346832 -0.4092204273 0.699005425 
-0.1532714814 34.45261002 -0.1574882418 0.8712614179 
-0.6951806545 14.19146442 -0.06494857371 0.9447503686 
-1.288608313 9.28194809 -0.04283569381 0.9632095695 
-2.592993021 9.316840172 -0.04420684651 0.962054491 
-9.596420288 19.89478874 -0.1009675562 0.9154365659 
-10.18795395 18.92082405 -0.09823027998 0.9176325202 
-10.61976051 12.19593239 -0.07392212003 0.9373608232 
-10.64689445 11.18124962 -0.07057739049 0.9401099086 
-10.98111343 9.64814949 -0.06681838632 0.943205893 
-13.26408195 9.709218979 -0.07514083385 0.9363627434 
-20.03765488 10.90454102 -0.1042791754 0.9127880931 
-22.80324745 9.89432621 -0.1136253327 0.9053530693 
-81.4308548 23.05391121 -0.3868588209 0.7128180861 
-79.86054993 18.81614685 -0.3750468493 0.7202243209 
-95.82183075 13.73761177 -0.4424892962 0.6789482832 
-118.7403717 -14.8718214 -0.5470557809 0.6196023822 
-83.01039124 -14.17204571 -0.3849433959 0.7140163183 
-55.34762955 -14.61064911 -0.2616700828 0.7953469753 
-49.51015091 -28.6826992 -0.2615512013 0.7954269648 
-49.66546249 -35.01446533 -0.2777738869 0.7842150927 
-47.83876419 -44.34998322 -0.2981922925 0.7703282237 
-45.68844986 -50.62146759 -0.3117076159 0.7612712383 
-42.72398758 -56.76095963 -0.3247457743 0.7526341081 
-40.93587494 -59.74233627 -0.3310470581 0.7484958768 
-9.92134285 -15.95815372 -0.08589477092 0.9275912046 
-8.976830482 -15.98340321 -0.08379668742 0.9292961955 
-8.075624466 -16.00750923 -0.08195632696 0.9307937622 
-6.378930569 -16.05288124 -0.07896056771 0.9332369566 
-4.486918926 -12.94148922 -0.06261184812 0.9466843605 
-3.856235266 -12.95834923 -0.06180114672 0.947355926 
-3.375585794 -13.51590347 -0.06367827952 0.9457994103 
-0.3053222597 -13.7218647 -0.06273971498 0.9465782642 
1.538364172 -13.77118587 -0.06334137172 0.9460802078 
2.164956093 -13.78794384 -0.06379836798 0.9457017183 
2.801923752 -13.80497551 -0.06439056247 0.9452116489 
3.45212388 -13.82235813 -0.06512420624 0.9446051121 
4.118652344 -13.84019947 -0.06600677222 0.9438757896 
4.804868221 -13.85854912 -0.06704864651 0.9430159926 
