# .PCD v0.7 - Point Cloud Data file format
VERSION 0.7
FIELDS x y z intensities
SIZE 4 4 4 4
TYPE F F F F
COUNT 1 1 1 1
WIDTH 922
HEIGHT 1
VIEWPOINT 0 0 0 1 0 0 0
POINTS 922
DATA ascii
7.713422775 -1.105849624 -2.001413107 0.9683314562 
7.754990101 -0.7616357207 -2.001413107 0.9683313966 
7.791996956 -0.06935546547 -2.001413107 0.9683313966 
7.787358284 0.2773534954 -2.001413107 0.9683313966 
7.767314434 0.62348634 -2.001413107 0.9683313966 
7.731899261 0.9683886766 -2.001413107 0.9683313966 
7.68116188 1.311372042 -2.001413107 0.9683313966 
7.615209579 1.651767492 -2.001413107 0.9683314562 
7.438334942 2.322060585 -2.001413107 0.9683312178 
7.06303215 3.291425705 -2.001413107 0.9683313966 
6.909633636 3.602353334 -2.001413107 0.9683313966 
6.562114239 4.202221394 -2.001413107 0.9683313966 
6.162651062 4.768818378 -2.001413107 0.9683313966 
5.06628418 5.61328125 -1.942128539 0.9692548513 
4.640888691 5.62604475 -1.873193741 0.9703295827 
4.329301834 5.751694202 -1.849013209 0.9707071781 
4.069155216 5.938588619 -1.849013209 0.9707071781 
3.800971508 6.113720417 -1.849013209 0.9707071185 
3.525239229 6.276747704 -1.849013209 0.9707071781 
2.953418016 6.565229416 -1.849013209 0.9707071185 
2.658461809 6.690107346 -1.849013209 0.9707071185 
2.053329945 6.89991188 -1.849013209 0.9707071185 
1.744345665 6.984418869 -1.849013209 0.9707071781 
1.431948185 7.055102348 -1.849013209 0.9707071185 
1.116665006 7.111811161 -1.849013209 0.9707071781 
0.7992041111 7.154448032 -1.849013209 0.9707071781 
-0.1527001858 6.86144495 -1.762763143 0.9720543027 
-0.4577685297 6.84786129 -1.762763143 0.9720543027 
-1.070825219 6.819736004 -1.773074627 0.9718931317 
-1.707475543 6.836762428 -1.809922457 0.9713174701 
-2.037143469 6.845575809 -1.834452629 0.9709344506 
-2.358256817 6.801738262 -1.849013209 0.9707071185 
-3.242543936 6.427353382 -1.849013209 0.9707071185 
-4.069164753 5.938583851 -1.849013209 0.9707071781 
-4.329301834 5.751694202 -1.849013209 0.9707071781 
-5.066313267 5.613276005 -1.942135215 0.9692547917 
-5.944501877 5.038241863 -2.001413107 0.9683311582 
-6.368696213 4.489965916 -2.001413107 0.9683313966 
-6.562114239 4.202216625 -2.001413107 0.9683313966 
-6.909565449 3.602343559 -2.001413107 0.968331635 
-7.327631474 2.650644541 -2.001413107 0.9683313966 
-7.534204006 1.988881826 -2.001413107 0.9683313966 
-7.731899261 0.9683593512 -2.001413107 0.9683313966 
-7.767328739 0.623452127 -2.001413107 0.9683313966 
-7.787373066 0.2773241997 -2.001413107 0.9683313966 
-7.781196117 -0.4159081876 -2.001413107 0.9683313966 
-7.584623814 -1.787045836 -2.001413107 0.9683313966 
-7.003324986 -3.416601419 -2.001413107 0.9683314562 
-6.67195797 -4.025541782 -2.001413107 0.9683313966 
-6.486279011 -4.318349361 -2.001413107 0.9683313966 
-6.287753582 -4.602631569 -2.001413107 0.9683313966 
-6.076782227 -4.877773285 -2.001413107 0.9683313966 
-5.853784084 -5.143256664 -2.001413107 0.9683313966 
-5.619199276 -5.398579121 -2.001413107 0.9683313966 
-5.117143631 -5.876630783 -2.001413107 0.9683313966 
-4.850697994 -6.09845686 -2.001413107 0.9683312774 
-4.289438248 -6.5054245 -2.001413107 0.9683314562 
-3.694330931 -6.860942364 -2.001413107 0.9683312178 
-2.748188496 -7.291576862 -2.001413107 0.9683314562 
-2.089213848 -7.506982327 -2.001413107 0.9683315158 
-1.753261685 -7.592504501 -2.001413107 0.9683313966 
-1.413876891 -7.662988186 -2.001413107 0.9683312774 
-0.7270361185 -7.75830555 -2.001413107 0.9683313966 
-0.3812451065 -7.782973289 -2.001413107 0.9683313966 
-0.03466308489 -7.792226315 -2.001413107 0.9683313966 
0.3120019436 -7.786054611 -2.001413107 0.9683313966 
0.658041954 -7.764467716 -2.001413107 0.9683313966 
1.002788067 -7.727509499 -2.001413107 0.9683313966 
1.345541954 -7.675258636 -2.001413107 0.9683313966 
2.355190277 -7.427875996 -2.001413107 0.968331337 
3.006127834 -7.18914032 -2.001413107 0.9683312774 
3.322929621 -7.048315048 -2.001413107 0.9683312178 
3.633061409 -6.893549442 -2.001413107 0.968331337 
3.936137676 -6.725092411 -2.001413107 0.9683313966 
5.57094717 -5.448349476 -2.001413107 0.9683313966 
5.807797909 -5.195141315 -2.001413107 0.9683313966 
6.246552467 -4.658388615 -2.001413107 0.9683313966 
6.447587967 -4.375913143 -2.001413107 0.9683313966 
6.635864258 -4.084765434 -2.001413107 0.9683313966 
6.811000824 -3.785537004 -2.001413107 0.9683313966 
7.120497704 -3.165200233 -2.001413107 0.9683313966 
7.254242897 -2.845331907 -2.001413107 0.9683313966 
7.373632431 -2.519809484 -2.001413107 0.9683313966 
7.478437424 -2.189282179 -2.001413107 0.9683313966 
7.568422794 -1.854448199 -2.001413107 0.9683313966 
7.643417835 -1.515942335 -2.001413107 0.9683313966 
7.772563457 0.5543261766 -2.001413107 0.9683313966 
7.740209579 0.8995312452 -2.001413107 0.9683313966 
7.228647232 2.909741163 -2.001413107 0.9683313966 
6.941411018 3.540737152 -2.001413107 0.9683313966 
6.204838753 4.713798523 -2.001413107 0.9683313966 
5.761352539 5.2466259 -2.001413107 0.968331337 
5.522236347 5.497719765 -2.001413107 0.9683313966 
5.155160904 5.610532284 -1.956977248 0.9690234661 
3.580981255 6.245121956 -1.849013209 0.9707071185 
3.299628735 6.398227215 -1.849013209 0.9707071781 
3.011748075 6.538676739 -1.849013209 0.9707071185 
2.418627977 6.780488014 -1.849013209 0.9707071781 
0.5440478325 7.178364277 -1.849013209 0.9707071185 
0.2241796851 7.195454121 -1.849013209 0.9707071781 
-0.09161620587 6.862534046 -1.762763143 0.9720543027 
-0.3968017399 6.85166502 -1.762763143 0.9720543027 
-0.7011962533 6.827236176 -1.762763143 0.9720542431 
-1.008701205 6.819731236 -1.770668268 0.9719307423 
-1.32237792 6.826464653 -1.785935163 0.9716921449 
-1.642553687 6.835024357 -1.805520773 0.9713861942 
-2.297602415 6.822460651 -1.849013209 0.9707071185 
-2.894872904 6.591239929 -1.849013209 0.9707071781 
-3.469272375 6.307861328 -1.849013209 0.9707071185 
-4.016176701 5.974555492 -1.849013209 0.9707071185 
-4.560834885 5.63077116 -1.86118257 0.9705178738 
-6.119975567 4.823486328 -2.001413107 0.968331337 
-6.328476429 4.546474457 -2.001413107 0.9683313966 
-6.707509518 3.966015577 -2.001413107 0.9683313966 
-6.877299786 3.663706064 -2.001413107 0.9683313966 
-7.033476353 3.354130745 -2.001413107 0.9683313966 
-7.17569828 3.037934542 -2.001413107 0.9683314562 
-7.600214481 1.719443321 -2.001413107 0.9683314562 
-7.66919899 1.379667997 -2.001413107 0.9683313966 
-7.761464596 0.6925732493 -2.001413107 0.9683313966 
-7.792309284 0 -2.001413107 0.9683313966 
-7.784594536 -0.3466357291 -2.001413107 0.9683313966 
-7.761469364 -0.6925781369 -2.001413107 0.9683313966 
-7.669184208 -1.379672766 -2.001413107 0.9683313966 
-7.600229263 -1.719448209 -2.001413107 0.9683313966 
-7.417309284 -2.388183594 -2.001413107 0.9683313966 
-7.17569828 -3.037963867 -2.001413107 0.9683313966 
-7.033452034 -3.354165077 -2.001413107 0.9683313966 
-6.707504749 -3.966015577 -2.001413107 0.9683313966 
-6.328471661 -4.546474457 -2.001413107 0.9683313966 
-6.119965553 -4.823486328 -2.001413107 0.9683313966 
-5.667031288 -5.348334789 -2.001413107 0.9683313966 
-5.423510551 -5.595136642 -2.001413107 0.9683313966 
-5.169252872 -5.830849648 -2.001413107 0.9683313966 
-4.904789925 -6.055034161 -2.001413107 0.9683312774 
-4.347240925 -6.466997147 -2.001413107 0.9683312774 
-3.133456945 -7.134521484 -2.001413107 0.9683313966 
-2.812856436 -7.266826153 -2.001413107 0.968331635 
-2.155874014 -7.48809576 -2.001413107 0.9683315158 
-0.4505126774 -7.779272079 -2.001413107 0.9683313966 
-0.1040136665 -7.791601181 -2.001413107 0.9683313966 
0.9339599609 -7.736132622 -2.001413107 0.9683313966 
1.955327153 -7.542983055 -2.001413107 0.9683313966 
2.289091825 -7.448525429 -2.001413107 0.9683312774 
3.571577072 -6.925590515 -2.001413107 0.9683313966 
3.876152277 -6.759848595 -2.001413107 0.9683313966 
4.173027039 -6.580737114 -2.001413107 0.968331337 
4.741381645 -6.183808327 -2.001413107 0.968331337 
5.011747837 -5.966777325 -2.001413107 0.9683313966 
5.272202015 -5.737934589 -2.001413107 0.9683313966 
5.989008427 -4.985151291 -2.001413107 0.9683313966 
6.204833984 -4.713808537 -2.001413107 0.9683313966 
6.599262714 -4.143642426 -2.001413107 0.9683313966 
6.777045727 -3.845981359 -2.001413107 0.9683313966 
6.9414258 -3.540707827 -2.001413107 0.9683313966 
7.092055321 -3.22842288 -2.001413107 0.9683313966 
7.458657265 -2.255756855 -2.001413107 0.9683313966 
7.692529202 -1.242954016 -2.001413107 0.9683313966 
7.740200043 -0.8995312452 -2.001413107 0.9683313966 
7.789496899 -0.2080371082 -2.001413107 0.9683315158 
7.791069031 0.1386865228 -2.001413107 0.9683313966 
7.777182579 0.4851220548 -2.001413107 0.9683313966 
7.703286171 1.174467802 -2.001413107 0.9683313966 
7.643413067 1.515971661 -2.001413107 0.9683313966 
7.568408012 1.854477525 -2.001413107 0.9683313966 
7.373637676 2.519809484 -2.001413107 0.9683313966 
7.254252911 2.845317364 -2.001413107 0.9683313966 
7.120502949 3.165190458 -2.001413107 0.9683313966 
6.972651005 3.478808403 -2.001413107 0.9683313966 
6.033124924 4.931640625 -2.001413107 0.9683314562 
5.807792664 5.195136547 -2.001413107 0.9683313966 
5.570951939 5.448344707 -2.001413107 0.9683313966 
4.430781364 5.673735142 -1.849013209 0.9707075953 
4.174209118 5.865224361 -1.849013209 0.9707071781 
3.636401176 6.213017464 -1.849013209 0.9707071185 
3.069809437 6.511625767 -1.849013209 0.9707071185 
2.478896379 6.758696079 -1.849013209 0.9707071185 
2.175791025 6.862270355 -1.849013209 0.9707071781 
1.868383765 6.952260494 -1.849013209 0.9707071781 
1.557270527 7.028495789 -1.849013209 0.9707071781 
1.243061543 7.090810299 -1.849013209 0.9707071781 
0.9264110923 7.139086723 -1.849013209 0.9707071781 
-0.640424788 6.833198071 -1.762763143 0.9720543027 
-0.9469384551 6.820888519 -1.768710613 0.9719613194 
-2.236801624 6.842636585 -1.849013209 0.9707071185 
-2.836113214 6.616752625 -1.849013209 0.9707071185 
-3.127651215 6.484042645 -1.849013209 0.9707071185 
-3.412973642 6.338495731 -1.849013209 0.9707071185 
-3.962836742 6.010063171 -1.849013209 0.9707071185 
-4.892446041 5.618578911 -1.913527489 0.9697006941 
-5.853832722 5.143232346 -2.001413107 0.968331337 
-6.076816082 4.877744198 -2.001413107 0.9683313966 
-6.287787914 4.602602482 -2.001413107 0.968331337 
-6.844428539 3.724750996 -2.001413107 0.9683313966 
-7.27929163 2.780629873 -2.001413107 0.9683313966 
-7.395756721 2.45406723 -2.001413107 0.9683314562 
-7.497622013 2.122646332 -2.001413107 0.9683313966 
-7.584623814 1.787036061 -2.001413107 0.9683313966 
-7.656596661 1.447871089 -2.001413107 0.9683314562 
-7.713437557 1.105849624 -2.001413107 0.9683313966 
-7.754994869 0.7616357207 -2.001413107 0.9683313966 
-7.781196117 0.4159081876 -2.001413107 0.9683313966 
-7.787358284 -0.2773583829 -2.001413107 0.9683313966 
-7.731899261 -0.9683935046 -2.001413107 0.9683313966 
-7.681166649 -1.311381817 -2.001413107 0.9683313966 
-7.615224361 -1.651762605 -2.001413107 0.9683313966 
-7.534218788 -1.988881826 -2.001413107 0.9683313966 
-7.438276291 -2.322065353 -2.001413107 0.9683313966 
-6.368696213 -4.489965916 -2.001413107 0.9683313966 
-5.714389324 -5.297709942 -2.001413107 0.9683313966 
-5.473081112 -5.546659946 -2.001413107 0.9683313966 
-4.958471775 -6.011167049 -2.001413107 0.9683312774 
-3.815805674 -6.794091702 -2.001413107 0.9683313966 
-3.196894407 -7.106357098 -2.001413107 0.9683312774 
-2.877485275 -7.241513729 -2.001413107 0.9683315158 
-2.55270505 -7.362368107 -2.001413107 0.9683312178 
-2.222416878 -7.468598366 -2.001413107 0.968331635 
-1.888046861 -7.560087681 -2.001413107 0.9683314562 
-1.55002439 -7.636606216 -2.001413107 0.968331337 
0.1733691394 -7.790380478 -2.001413107 0.9683313966 
0.5197607279 -7.774950981 -2.001413107 0.9683313966 
0.8651025295 -7.744130611 -2.001413107 0.9683313966 
1.549946308 -7.63659668 -2.001413107 0.9683313966 
2.877617121 -7.241513729 -2.001413107 0.968331337 
3.197006702 -7.106337547 -2.001413107 0.9683311582 
3.815825224 -6.794091702 -2.001413107 0.968331337 
4.404584885 -6.428051472 -2.001413107 0.968331337 
4.686132908 -6.225771427 -2.001413107 0.9683313966 
5.220971584 -5.784609318 -2.001413107 0.968331337 
5.473100662 -5.546635628 -2.001413107 0.9683313966 
5.714389324 -5.297699928 -2.001413107 0.9683313966 
5.944418907 -5.038241863 -2.001413107 0.9683313966 
6.162631512 -4.768852234 -2.001413107 0.9683313966 
6.562094688 -4.202250957 -2.001413107 0.9683313966 
6.909643173 -3.602329016 -2.001413107 0.9683313966 
7.063041687 -3.291420937 -2.001413107 0.9683313966 
7.327621937 -2.650644541 -2.001413107 0.9683313966 
7.438285828 -2.322026253 -2.001413107 0.9683313966 
7.534208775 -1.988886714 -2.001413107 0.9683313966 
7.754990101 0.7616015673 -2.001413107 0.9683313966 
7.497612 2.122690439 -2.001413107 0.9683313966 
7.395776272 2.45406723 -2.001413107 0.9683313966 
7.148393631 3.10168457 -2.001413107 0.9683313966 
7.003324986 3.416635752 -2.001413107 0.9683313966 
6.486284256 4.318339825 -2.001413107 0.9683313966 
6.287758827 4.602626801 -2.001413107 0.9683313966 
5.853759766 5.143261433 -2.001413107 0.9683314562 
4.892499924 5.618578911 -1.913533092 0.9697005749 
4.486620903 5.64074707 -1.851205111 0.970672965 
4.22627449 5.82781744 -1.849013209 0.9707071781 
3.127612352 6.484052658 -1.849013209 0.9707071185 
2.836108446 6.616752625 -1.849013209 0.9707071185 
1.619760752 7.014355183 -1.849013209 0.9707071781 
1.306108356 7.079472542 -1.849013209 0.9707071781 
0.9899365306 7.130561352 -1.849013209 0.9707071781 
0.6716943383 7.16753912 -1.849013209 0.9707071781 
0.03201660141 7.198876858 -1.849013209 0.9707071781 
-0.2747656107 6.85764122 -1.762763143 0.9720543027 
-1.196147442 6.823085785 -1.779199839 0.9717974067 
-2.17166996 6.849179745 -1.845485806 0.9707621932 
-2.478920937 6.758696079 -1.849013209 0.9707071185 
-3.069770336 6.511625767 -1.849013209 0.9707071781 
-3.356450081 6.36860323 -1.849013209 0.9707071781 
-4.430883884 5.673715591 -1.849013209 0.9707074165 
-4.807319164 5.621127605 -1.899747133 0.9699157476 
-5.570903301 5.448373795 -2.001413107 0.9683314562 
-6.033178806 4.931621075 -2.001413107 0.968331337 
-6.246323109 4.658388615 -2.001413107 0.9683320522 
-6.635864258 4.084760666 -2.001413107 0.9683313966 
-7.373632431 2.519770384 -2.001413107 0.9683314562 
-7.478417873 2.189301729 -2.001413107 0.9683314562 
-7.703295708 1.174428701 -2.001413107 0.9683313966 
-7.747905254 0.8306298852 -2.001413107 0.9683313966 
-7.777187347 0.4851220548 -2.001413107 0.9683313966 
-7.789521217 -0.2080224603 -2.001413107 0.9683313966 
-7.629628658 -1.583915949 -2.001413107 0.9683313966 
-7.551610947 -1.921772361 -2.001413107 0.9683313966 
-7.350922585 -2.585346699 -2.001413107 0.9683313966 
-7.09203577 -3.228451967 -2.001413107 0.9683313966 
-6.941420555 -3.540707827 -2.001413107 0.9683313966 
-6.77703619 -3.846015453 -2.001413107 0.9683313966 
-6.408388615 -4.433129787 -2.001413107 0.9683313966 
-5.989003658 -4.985156059 -2.001413107 0.9683313966 
-4.741293907 -6.183827877 -2.001413107 0.9683315158 
-4.172914982 -6.580747128 -2.001413107 0.9683315158 
-3.876162052 -6.759868145 -2.001413107 0.9683312774 
-2.941904306 -7.215629578 -2.001413107 0.968331337 
-2.618081093 -7.339355469 -2.001413107 0.9683312774 
-2.288803577 -7.448534966 -2.001413107 0.9683315754 
-1.277021408 -7.686899185 -2.001413107 0.9683315754 
-0.9338622689 -7.736127853 -2.001413107 0.9683314562 
-0.5889550447 -7.770014286 -2.001413107 0.9683313966 
0.1040673777 -7.791601181 -2.001413107 0.9683313966 
0.7961620688 -7.751528263 -2.001413107 0.9683313966 
1.140151381 -7.70844698 -2.001413107 0.9683313966 
1.481953144 -7.650087833 -2.001413107 0.9683313966 
1.820766568 -7.576601505 -2.001413107 0.9683313966 
2.813286066 -7.266806602 -2.001413107 0.9683311582 
3.133520365 -7.134516239 -2.001413107 0.968331337 
3.447700024 -6.988070965 -2.001413107 0.9683314562 
3.755249023 -6.827778339 -2.001413107 0.9683312774 
4.055229187 -6.653959751 -2.001413107 0.9683313966 
4.347177505 -6.467011452 -2.001413107 0.968331337 
4.63054657 -6.267216682 -2.001413107 0.9683313966 
6.119965553 -4.82348156 -2.001413107 0.9683313966 
6.328481197 -4.546450138 -2.001413107 0.9683313966 
6.524453163 -4.260463715 -2.001413107 0.9683313966 
6.707533836 -3.965981245 -2.001413107 0.9683313966 
6.877289772 -3.663715839 -2.001413107 0.9683313966 
7.033476353 -3.354125977 -2.001413107 0.9683313966 
7.17569828 -3.037968636 -2.001413107 0.9683313966 
7.303754807 -2.715737343 -2.001413107 0.9683313966 
7.600219727 -1.719487309 -2.001413107 0.9683313966 
7.72296381 -1.037177682 -2.001413107 0.9683313966 
7.761459827 -0.6925732493 -2.001413107 0.9683313966 
7.784584999 -0.3465918005 -2.001413107 0.9683313966 
7.784594536 0.3466650248 -2.001413107 0.9683313966 
7.761469364 0.6925683618 -2.001413107 0.9683313966 
7.516215801 2.055830002 -2.001413107 0.9683313966 
7.303754807 2.715732336 -2.001413107 0.9683313966 
7.175707817 3.037968636 -2.001413107 0.9683313966 
6.877289772 3.663715839 -2.001413107 0.9683313966 
6.52444315 4.260468483 -2.001413107 0.9683313966 
6.328481197 4.54644537 -2.001413107 0.9683314562 
6.119965553 4.82348156 -2.001413107 0.9683313966 
5.899262428 5.090981483 -2.001413107 0.9683315158 
5.423491001 5.595146179 -2.001413107 0.9683313966 
4.978832722 5.615956783 -1.927653432 0.9694802761 
4.561005592 5.630776405 -1.861177206 0.9705174565 
4.280365944 5.794047832 -1.850309253 0.9706882238 
3.185219765 6.455942154 -1.849013209 0.9707071781 
2.894872904 6.591254711 -1.849013209 0.9707071185 
2.598832846 6.713486195 -1.849013209 0.9707071781 
1.682124019 6.99967289 -1.849013209 0.9707071185 
1.053315401 7.121469498 -1.849013209 0.9707071781 
-0.2137451172 6.859814167 -1.762763143 0.9720543027 
-0.5187060237 6.843515396 -1.762763143 0.9720543027 
-0.8236864805 6.822748661 -1.765111327 0.9720175862 
-1.133393526 6.821405888 -1.776062489 0.9718464613 
-1.449604511 6.829863071 -1.793292046 0.9715772271 
-2.104174852 6.847373009 -1.839876652 0.9708497524 
-2.717875957 6.666191101 -1.849013209 0.9707071185 
-3.0117383 6.538681507 -1.849013209 0.9707071185 
-3.299604416 6.398246765 -1.849013209 0.9707071185 
-4.380307674 5.712914944 -1.849013209 0.9707072377 
-5.76132822 5.24660635 -2.001413107 0.9683314562 
-6.204858303 4.713778973 -2.001413107 0.9683313966 
-6.408393383 4.433129787 -2.001413107 0.968331337 
-6.599267483 4.143642426 -2.001413107 0.9683313966 
-6.777045727 3.846005678 -2.001413107 0.9683313966 
-7.350903034 2.585336924 -2.001413107 0.9683314562 
-7.458657265 2.25576663 -2.001413107 0.9683313966 
-7.551616192 1.921699166 -2.001413107 0.9683314562 
-7.629609108 1.583911061 -2.001413107 0.9683314562 
-7.69253397 1.242919922 -2.001413107 0.9683313966 
-7.772563457 0.5542919636 -2.001413107 0.9683313966 
-7.747895241 -0.8306298852 -2.001413107 0.9683314562 
-7.643422604 -1.515976548 -2.001413107 0.9683313966 
-7.568422794 -1.854448199 -2.001413107 0.9683313966 
-7.373647213 -2.519775391 -2.001413107 0.9683313966 
-7.120512486 -3.165165901 -2.001413107 0.9683313966 
-6.972646236 -3.478808403 -2.001413107 0.9683313966 
-6.246547699 -4.658383846 -2.001413107 0.9683313966 
-6.033120155 -4.931669712 -2.001413107 0.9683313966 
-5.570922852 -5.448383808 -2.001413107 0.9683313966 
-5.323071003 -5.69077158 -2.001413107 0.9683313966 
-5.064672947 -5.921967506 -2.001413107 0.9683312178 
-4.518247128 -6.348652363 -2.001413107 0.9683313966 
-4.231430531 -6.543334961 -2.001413107 0.968331337 
-3.322797775 -7.048320293 -2.001413107 0.9683314562 
-3.006000996 -7.189150333 -2.001413107 0.9683313966 
-2.683256865 -7.315771103 -2.001413107 0.9683312774 
-2.354921818 -7.427861214 -2.001413107 0.9683316946 
-2.022260666 -7.525263309 -2.001413107 0.9683315754 
-0.6577538848 -7.764443398 -2.001413107 0.9683315754 
0.3812841773 -7.782968521 -2.001413107 0.9683313966 
0.7270995975 -7.758310318 -2.001413107 0.9683313966 
2.089457989 -7.506977558 -2.001413107 0.9683312774 
2.748041868 -7.291611195 -2.001413107 0.9683315754 
3.694223642 -6.86093235 -2.001413107 0.9683314562 
4.289448261 -6.505429745 -2.001413107 0.9683313966 
4.574604511 -6.30816412 -2.001413107 0.9683313966 
4.850668907 -6.098447323 -2.001413107 0.9683313966 
5.117182732 -5.876616001 -2.001413107 0.968331337 
5.619213581 -5.398544788 -2.001413107 0.9683313966 
5.853798866 -5.143266678 -2.001413107 0.968331337 
6.076830864 -4.877748966 -2.001413107 0.968331337 
6.287748814 -4.602626801 -2.001413107 0.9683313966 
6.671938419 -4.025571346 -2.001413107 0.9683313966 
7.279301643 -2.780605316 -2.001413107 0.9683313966 
7.395771503 -2.454077005 -2.001413107 0.9683313966 
7.584623814 -1.787040949 -2.001413107 0.9683313966 
7.656616211 -1.447836876 -2.001413107 0.9683313966 
7.781191349 -0.4159081876 -2.001413107 0.9683313966 
7.791996956 -0.06932616979 -2.001413107 0.9683313966 
7.68116188 1.311372042 -2.001413107 0.9683313966 
7.438334942 2.322026253 -2.001413107 0.9683312178 
7.327626705 2.650644541 -2.001413107 0.9683313966 
7.06303215 3.291425705 -2.001413107 0.9683313966 
6.909614086 3.602387667 -2.001413107 0.9683313966 
6.742553711 3.906152248 -2.001413107 0.9683313966 
6.368686199 4.489965916 -2.001413107 0.9683313966 
6.162631512 4.768847466 -2.001413107 0.9683313966 
5.944389343 5.038237095 -2.001413107 0.9683315158 
5.714350224 5.297699928 -2.001413107 0.9683315158 
4.640888691 5.62604475 -1.873199463 0.9703295231 
4.329301834 5.751694202 -1.849013209 0.9707071781 
3.800971508 6.113720417 -1.849013209 0.9707071185 
2.953398466 6.565238953 -1.849013209 0.9707071185 
2.658461809 6.690107346 -1.849013209 0.9707071185 
2.053329945 6.89991188 -1.849013209 0.9707071185 
1.744291902 6.984423637 -1.849013209 0.9707071781 
1.11663568 7.111816406 -1.849013209 0.9707071781 
-0.4577490091 6.847866058 -1.762763143 0.9720542431 
-0.7622411847 6.823456764 -1.763470531 0.9720432162 
-1.070795894 6.819736004 -1.773073435 0.9718931317 
-1.707446218 6.836762428 -1.80992043 0.9713174701 
-2.037143469 6.845575809 -1.834452629 0.9709344506 
-3.242543936 6.427353382 -1.849013209 0.9707071185 
-4.069194317 5.938569069 -1.849013209 0.9707071185 
-4.329301834 5.751694202 -1.849013209 0.9707071781 
-4.640795708 5.626039982 -1.873200178 0.9703297615 
-5.473110199 5.546635628 -2.001413107 0.9683313966 
-5.714428425 5.297699928 -2.001413107 0.968331337 
-6.368696213 4.489965916 -2.001413107 0.9683313966 
-6.562094688 4.202250957 -2.001413107 0.9683313966 
-7.202470779 2.973940372 -2.001413107 0.9683313966 
-7.61522913 1.651728511 -2.001413107 0.9683313966 
-7.68116188 1.311372042 -2.001413107 0.9683313966 
-7.767323971 0.623491168 -2.001413107 0.9683313966 
-7.656606197 -1.44791007 -2.001413107 0.9683313966 
-7.395776272 -2.454072237 -2.001413107 0.9683313966 
-7.148383617 -3.101694345 -2.001413107 0.9683313966 
-6.486279011 -4.318349361 -2.001413107 0.9683313966 
-5.853784084 -5.143256664 -2.001413107 0.9683313966 
-5.619223595 -5.398549557 -2.001413107 0.9683313966 
-5.117172718 -5.876616001 -2.001413107 0.9683313966 
-4.850697994 -6.09845686 -2.001413107 0.9683312774 
-4.574574947 -6.308207989 -2.001413107 0.968331337 
-4.289438248 -6.5054245 -2.001413107 0.9683314562 
-3.995747089 -6.689814091 -2.001413107 0.9683314562 
-3.694330931 -6.860942364 -2.001413107 0.9683312178 
-3.069785118 -7.16210413 -2.001413107 0.9683315754 
-2.421054602 -7.406606197 -2.001413107 0.9683315754 
-2.089326143 -7.507006645 -2.001413107 0.9683312774 
-1.753364205 -7.592509747 -2.001413107 0.9683312774 
-0.3812939227 -7.782968521 -2.001413107 0.9683313966 
-0.03466308489 -7.792226315 -2.001413107 0.9683313966 
0.658041954 -7.764467716 -2.001413107 0.9683313966 
1.002817392 -7.727514267 -2.001413107 0.968331337 
1.685673833 -7.607797623 -2.001413107 0.9683313966 
2.022446156 -7.525288105 -2.001413107 0.968331337 
3.00619626 -7.189126015 -2.001413107 0.9683312178 
3.633090734 -6.893529892 -2.001413107 0.9683313966 
3.936113119 -6.725102425 -2.001413107 0.9683313966 
4.518256664 -6.348652363 -2.001413107 0.9683313966 
5.064633846 -5.921943188 -2.001413107 0.9683313966 
6.246552467 -4.658388615 -2.001413107 0.9683313966 
6.811020374 -3.785507679 -2.001413107 0.9683313966 
6.972651005 -3.478808403 -2.001413107 0.9683313966 
7.373647213 -2.519780159 -2.001413107 0.9683313966 
7.47842741 -2.189311504 -2.001413107 0.9683313966 
7.703286171 -1.174433589 -2.001413107 0.9683313966 
7.748022079 -0.8306005597 -2.001413107 0.9683309793 
7.777192116 -0.4851269424 -2.001413107 0.9683313966 
7.692524433 1.242988229 -2.001413107 0.9683313966 
7.350922585 2.585336924 -2.001413107 0.9683313966 
7.228647232 2.909741163 -2.001413107 0.9683313966 
6.9414258 3.540703058 -2.001413107 0.9683313966 
6.777026176 3.846010685 -2.001413107 0.9683313966 
6.599252701 4.143642426 -2.001413107 0.9683313966 
6.408383846 4.433129787 -2.001413107 0.9683313966 
5.988969803 4.985151291 -2.001413107 0.9683315158 
4.38005352 5.712949276 -1.849013209 0.9707077146 
3.299614191 6.398246765 -1.849013209 0.9707071185 
3.011748075 6.538676739 -1.849013209 0.9707071185 
2.717870951 6.666191101 -1.849013209 0.9707071185 
1.806425691 6.968608379 -1.849013209 0.9707071781 
1.494624019 7.042079926 -1.849013209 0.9707071781 
1.179951191 7.101591587 -1.849013209 0.9707071781 
0.5440624952 7.178359032 -1.849013209 0.9707071781 
0.2241796851 7.195454121 -1.849013209 0.9707071781 
-1.008701205 6.819731236 -1.770668268 0.9719307423 
-1.970507741 6.843793869 -1.829204321 0.9710163474 
-2.894868135 6.59125948 -1.849013209 0.9707071185 
-3.18522954 6.455942154 -1.849013209 0.9707071781 
-3.746435404 6.147294998 -1.849013209 0.9707071185 
-4.01615715 5.974570274 -1.849013209 0.9707071185 
-4.283354282 5.794043064 -1.850308895 0.9706815481 
-4.978754997 5.615966797 -1.927653313 0.9694804549 
-5.899374962 5.090927601 -2.001413107 0.968331337 
-6.119975567 4.823486328 -2.001413107 0.968331337 
-6.524447918 4.260463715 -2.001413107 0.9683313966 
-6.707533836 3.96599102 -2.001413107 0.9683313966 
-6.877299786 3.663706064 -2.001413107 0.9683313966 
-7.033476353 3.354130745 -2.001413107 0.9683313966 
-7.175712585 3.037973642 -2.001413107 0.968331337 
-7.303750038 2.715727568 -2.001413107 0.9683313966 
-7.417299747 2.388173819 -2.001413107 0.9683314562 
-7.600200176 1.719487309 -2.001413107 0.9683314562 
-7.66919899 1.379667997 -2.001413107 0.9683313966 
-7.72296381 1.037172794 -2.001413107 0.9683313966 
-7.761464596 0.6925732493 -2.001413107 0.9683313966 
-7.506796837 -4.882812391e-06 -2.001413107 0.9694018364 
-7.499360085 -0.333935529 -2.001413107 0.9694018364 
-7.240829945 -1.980527282 -2.001413107 0.9694017768 
-7.145561218 -2.300663948 -2.001413107 0.9694017768 
-7.036137581 -2.616240263 -2.001413107 0.9694018364 
-6.62532711 -3.529472589 -2.001413107 0.9694017768 
-6.096606255 -4.379892349 -2.001413107 0.9694017768 
-5.895737171 -4.646752834 -2.001413107 0.9694018364 
-5.683188438 -4.90443325 -2.001413107 0.9694017768 
-5.459389687 -5.152377605 -2.001413107 0.9694018364 
-5.224794865 -5.390126705 -2.001413107 0.9694018364 
-4.460893631 -6.037592411 -2.001413107 0.9694017768 
-4.187919617 -6.230053425 -2.001413107 0.9694017768 
-3.906674623 -6.410180569 -2.001413107 0.9694017172 
-3.321450233 -6.7320261 -2.001413107 0.9694017768 
-2.709809542 -7.000566483 -2.001413107 0.9694020748 
-2.076904297 -7.213730335 -2.001413107 0.9694019556 
-1.754184484 -7.299008846 -2.001413107 0.9694016576 
-0.7667480111 -7.467494965 -2.001413107 0.9694019556 
-0.4341845512 -7.494262695 -2.001413107 0.9694017172 
1.230410099 -7.405278206 -2.001413107 0.9694018364 
1.558579087 -7.343217373 -2.001413107 0.9694018364 
1.883388638 -7.266654968 -2.001413107 0.9694019556 
2.522133827 -7.07043457 -2.001413107 0.9694017768 
2.83411622 -6.951254845 -2.001413107 0.9694017768 
3.14052248 -6.818295956 -2.001413107 0.9694018364 
3.440698147 -6.671840668 -2.001413107 0.9694018364 
3.734135628 -6.512182236 -2.001413107 0.9694017768 
4.29812479 -6.15453577 -2.001413107 0.9694017768 
4.567641735 -5.95723629 -2.001413107 0.9694018364 
4.828125 -5.748154163 -2.001413107 0.9694017768 
5.319907188 -5.296284199 -2.001413107 0.9694018364 
6.528730392 -3.705082893 -2.001413107 0.9694018364 
7.081591606 -2.490595579 -2.001413107 0.9694018364 
7.456674576 -0.8665624857 -2.001413107 0.969401598 
7.487778187 -0.534008801 -2.001413107 0.9694018364 
7.504120827 -0.2004003823 -2.001413107 0.9694018364 
7.505605221 0.1336084008 -2.001413107 0.9694018364 
7.421049595 1.131411076 -2.001413107 0.9694017768 
7.363373756 1.460410118 -2.001413107 0.9694017768 
6.98846674 2.741054535 -2.001413107 0.9694018364 
6.561450005 3.646831036 -2.001413107 0.9694018364 
5.366845608 5.248730183 -2.001413107 0.9694017768 
4.796635628 5.608564377 -1.967595935 0.9699109793 
4.389770508 5.620815277 -1.901438236 0.9709075689 
4.02127409 5.650307655 -1.849013209 0.9716985226 
3.233471632 6.135278225 -1.849013209 0.9716984034 
2.95735836 6.273036957 -1.849013209 0.9716984034 
2.675366163 6.398383617 -1.849013209 0.9716984034 
1.799946308 6.697543621 -1.849013209 0.9716984034 
1.50022459 6.770971298 -1.849013209 0.971698463 
0.2776611149 6.929624081 -1.849013209 0.971698463 
-0.03024902195 6.796454906 -1.812043548 0.9722563624 
-1.258295894 6.820082664 -1.849013209 0.971698463 
-1.859467745 6.681249619 -1.849013209 0.971698463 
-2.154834032 6.591923714 -1.849013209 0.971698463 
-2.445942402 6.489545822 -1.849013209 0.971698463 
-3.287905216 6.106249809 -1.849013209 0.9716985226 
-3.556288958 5.953955173 -1.849013209 0.971698463 
-4.086415768 5.635844707 -1.856107235 0.9715927839 
-4.46897459 5.618486404 -1.914027691 0.970717907 
-4.881508827 5.605927467 -1.981834054 0.9696964025 
-5.17670393 5.436406136 -2.001413107 0.969401598 
-5.639330864 4.95480442 -2.001413107 0.9694017768 
-5.854145527 4.699038029 -2.001413107 0.9694018364 
-6.248627663 4.160126686 -2.001413107 0.9694018364 
-6.427504539 3.878046751 -2.001413107 0.9694018364 
-6.593744755 3.588295937 -2.001413107 0.9694014788 
-6.886498928 2.988051653 -2.001413107 0.9694017172 
-7.012587547 2.678759813 -2.001413107 0.9694017768 
-7.306733131 1.721557617 -2.001413107 0.9694017768 
-7.376093388 1.394829035 -2.001413107 0.9694017172 
-7.430825233 1.06532228 -2.001413107 0.9694017768 
-7.470854282 0.7337206602 -2.001413107 0.9694018364 
-7.482724667 -0.6006396413 -2.001413107 0.9694018364 
-7.399731159 -1.263320327 -2.001413107 0.9694018364 
-7.336210728 -1.591240168 -2.001413107 0.9694018364 
-7.258168697 -1.91600585 -2.001413107 0.9694017768 
-7.165746689 -2.236982346 -2.001413107 0.9694018364 
-6.804233074 -3.170820236 -2.001413107 0.969401896 
-6.656469345 -3.470371008 -2.001413107 0.9694018364 
-6.135346413 -4.325463772 -2.001413107 0.9694017768 
-5.936850548 -4.594091892 -2.001413107 0.9694018364 
-5.726611137 -4.853657246 -2.001413107 0.9694017768 
-5.50503397 -5.103593826 -2.001413107 0.9694017768 
-4.514472485 -5.997665882 -2.001413107 0.9694017172 
-3.963539839 -6.375161171 -2.001413107 0.9694017172 
-3.675976515 -6.54516077 -2.001413107 0.9694018364 
-3.079731464 -6.845981121 -2.001413107 0.9694017768 
-2.458964825 -7.092592716 -2.001413107 0.9694019556 
-2.141132832 -7.194975376 -2.001413107 0.9694017768 
0.1671972573 -7.504926682 -2.001413107 0.9694018364 
0.83344239 -7.460390568 -2.001413107 0.9694018364 
1.164541006 -7.415932655 -2.001413107 0.9694017768 
1.493198156 -7.356791973 -2.001413107 0.9694018364 
1.81888175 -7.28309536 -2.001413107 0.969401896 
2.14103508 -7.19498539 -2.001413107 0.9694018364 
2.459003925 -7.092612267 -2.001413107 0.9694018364 
2.772119045 -6.976196289 -2.001413107 0.9694018364 
3.079628944 -6.845981121 -2.001413107 0.9694019556 
3.381206036 -6.702201843 -2.001413107 0.9694017768 
3.963510752 -6.375151157 -2.001413107 0.9694018364 
4.243178844 -6.192529202 -2.001413107 0.9694018364 
4.776792049 -5.790898323 -2.001413107 0.9694017768 
5.029648304 -5.572675705 -2.001413107 0.9694017768 
5.272553444 -5.34342289 -2.001413107 0.9694018364 
6.135336876 -4.325459003 -2.001413107 0.9694018364 
6.321684361 -4.048261642 -2.001413107 0.9694017768 
6.495502949 -3.763036966 -2.001413107 0.9694018364 
6.804262638 -3.170825243 -2.001413107 0.9694017768 
6.938569069 -2.865009785 -2.001413107 0.9694018364 
7.059145451 -2.553515673 -2.001413107 0.9694018364 
7.16574192 -2.236977577 -2.001413107 0.9694018364 
7.448608398 -0.9328954816 -2.001413107 0.9694018364 
7.501972675 -0.2671972513 -2.001413107 0.9694020748 
7.470849514 0.7337158322 -2.001413107 0.9694018364 
7.306723595 1.721562505 -2.001413107 0.9694018364 
7.222939491 2.044882774 -2.001413107 0.9694017172 
7.124872684 2.364155293 -2.001413107 0.9694015384 
6.746737957 3.291430473 -2.001413107 0.9694018364 
6.248618126 4.1601367 -2.001413107 0.9694018364 
5.854145527 4.699038029 -2.001413107 0.9694018364 
4.881440163 5.605927467 -1.981834054 0.9696965814 
3.287944317 6.106254578 -1.849013209 0.9716984034 
2.732202053 6.374320984 -1.849013209 0.9716984034 
2.445932627 6.489545822 -1.849013209 0.971698463 
1.258266568 6.820082664 -1.849013209 0.971698463 
0.9536376595 6.869301796 -1.849013209 0.971698463 
0.6471337676 6.904926777 -1.849013209 0.971698463 
0.03084472567 6.935112 -1.849013209 0.971698463 
-0.8843359351 6.814755917 -1.832136989 0.971953094 
-1.196147442 6.823085785 -1.846868277 0.9717308283 
-2.096079111 6.610839844 -1.849013209 0.971698463 
-3.233442307 6.135273457 -1.849013209 0.971698463 
-3.503178596 5.985365868 -1.849013209 0.9716984034 
-4.796674728 5.608554363 -1.967596889 0.9699109197 
-5.128032207 5.482265472 -2.001413107 0.9694018364 
-5.366909027 5.248735428 -2.001413107 0.969401598 
-5.81208992 4.750957012 -2.001413107 0.9694018364 
-6.561454773 3.646816254 -2.001413107 0.9694018364 
-6.717196941 3.35133791 -2.001413107 0.9694017768 
-7.204428673 2.109077215 -2.001413107 0.9694018364 
-7.291127682 1.786518574 -2.001413107 0.9694017768 
-7.363373756 1.460415006 -2.001413107 0.9694017768 
-7.421049595 1.131415963 -2.001413107 0.9694017768 
-7.492240906 0.467353493 -2.001413107 0.9694017768 
-7.505609989 0.1336132735 -2.001413107 0.9694018364 
-7.487773418 -0.5340185165 -2.001413107 0.9694018364 
-7.456620693 -0.8665722609 -2.001413107 0.9694017768 
-7.410683632 -1.197412133 -2.001413107 0.9694018364 
-7.350082874 -1.525893569 -2.001413107 0.9694017768 
-7.18537569 -2.173125029 -2.001413107 0.9694017768 
-6.832201958 -3.110151291 -2.001413107 0.9694018364 
-6.357450962 -3.991835833 -2.001413107 0.9694018364 
-5.97750473 -4.541088581 -2.001413107 0.9694018364 
-5.769579887 -4.802490234 -2.001413107 0.9694018364 
-5.550239086 -5.05439949 -2.001413107 0.9694017768 
-5.319907188 -5.296293736 -2.001413107 0.9694017768 
-4.29812479 -6.154521465 -2.001413107 0.9694018364 
-4.020112038 -6.33963871 -2.001413107 0.9694017172 
-3.734038115 -6.512167931 -2.001413107 0.9694019556 
-3.440717697 -6.671850204 -2.001413107 0.9694017768 
-3.140483379 -6.818285942 -2.001413107 0.969401896 
-2.205063343 -7.175629616 -2.001413107 0.9694018364 
-1.8837744 -7.266635418 -2.001413107 0.9694016576 
-1.230122089 -7.405248642 -2.001413107 0.9694020748 
-0.2336279303 -7.503139496 -2.001413107 0.969401896 
0.1000781208 -7.506142616 -2.001413107 0.9694017768 
0.4340673685 -7.494228363 -2.001413107 0.9694018364 
0.7667431235 -7.467534065 -2.001413107 0.9694018364 
1.753881812 -7.299013615 -2.001413107 0.969401896 
2.07698226 -7.213745117 -2.001413107 0.9694018364 
4.460888386 -6.037597656 -2.001413107 0.9694017768 
5.224799633 -5.39013195 -2.001413107 0.9694018364 
5.683193207 -4.904418945 -2.001413107 0.9694018364 
5.895737171 -4.646752834 -2.001413107 0.9694018364 
6.285405159 -4.104355335 -2.001413107 0.9694018364 
6.461752892 -3.820698261 -2.001413107 0.9694018364 
6.625317097 -3.529472589 -2.001413107 0.9694018364 
6.912797928 -2.926640511 -2.001413107 0.9694018364 
7.036137581 -2.616240263 -2.001413107 0.9694018364 
7.240825176 -1.980517507 -2.001413107 0.9694018364 
7.321757793 -1.65645504 -2.001413107 0.9694018364 
7.440004826 -0.9991503954 -2.001413107 0.9694018364 
7.477084637 0.6672021151 -2.001413107 0.9694018364 
7.440004826 0.9991552234 -2.001413107 0.9694018364 
7.388197899 1.329126 -2.001413107 0.9694018364 
7.32176733 1.656459928 -2.001413107 0.9694017768 
7.240819931 1.980527282 -2.001413107 0.9694018364 
7.145561218 2.300663948 -2.001413107 0.9694017768 
6.775771141 3.231254816 -2.001413107 0.9694017768 
6.625317097 3.529477358 -2.001413107 0.9694018364 
6.461752892 3.82070303 -2.001413107 0.9694018364 
6.096606255 4.379882812 -2.001413107 0.9694018364 
5.683188438 4.904423714 -2.001413107 0.9694018364 
5.459389687 5.152372837 -2.001413107 0.9694018364 
5.224799633 5.390126705 -2.001413107 0.9694018364 
4.549286842 5.616093636 -1.926929474 0.9705233574 
3.86900878 5.75564909 -1.849013209 0.971698463 
3.609155178 5.922065258 -1.849013209 0.9716984034 
3.068510771 6.219404221 -1.849013209 0.971698463 
2.50359869 6.467529297 -1.849013209 0.9716984034 
1.620478511 6.743203163 -1.849013209 0.971698463 
1.014750957 6.860541821 -1.849013209 0.971698463 
0.09256347269 6.934565067 -1.849013209 0.971698463 
-0.8225292563 6.813100338 -1.829650998 0.9719905853 
-1.740253925 6.713290691 -1.849013209 0.971698463 
-2.330043793 6.53205061 -1.849013209 0.971698463 
-3.449760675 6.016308308 -1.849013209 0.971698463 
-3.713979483 5.856894493 -1.849013209 0.971698463 
-3.970971584 5.685873985 -1.849013209 0.9716981649 
-4.311464787 5.623090744 -1.889152527 0.971092999 
-5.319907188 5.296278954 -2.001413107 0.9694018364 
-5.769589901 4.802490234 -2.001413107 0.9694017768 
-5.977509499 4.541079044 -2.001413107 0.9694018364 
-6.528739929 3.705073118 -2.001413107 0.9694018364 
-6.686982155 3.41097641 -2.001413107 0.969402194 
-6.832192421 3.110146523 -2.001413107 0.9694018364 
-6.963774204 2.803149462 -2.001413107 0.969401896 
-7.274936199 1.851333022 -2.001413107 0.9694017768 
-7.350092411 1.525883794 -2.001413107 0.9694017768 
-7.505609989 -0.1336181611 -2.001413107 0.9694018364 
-7.421049595 -1.131425738 -2.001413107 0.9694017768 
-7.204433441 -2.109077215 -2.001413107 0.9694017768 
-6.988451958 -2.741054535 -2.001413107 0.9694018364 
-6.717182636 -3.351352453 -2.001413107 0.9694017768 
-6.392729282 -3.935107231 -2.001413107 0.9694018364 
-6.017680645 -4.487704754 -2.001413107 0.9694018364 
-5.812084675 -4.750957012 -2.001413107 0.9694018364 
-5.128032207 -5.482275486 -2.001413107 0.9694018364 
-4.620502949 -5.916362286 -2.001413107 0.9694017172 
-3.201117992 -6.790082932 -2.001413107 0.9694017172 
-2.584780216 -7.047690392 -2.001413107 0.9694020748 
-2.268749952 -7.15571785 -2.001413107 0.9694019556 
-1.296069264 -7.394013405 -2.001413107 0.9694020152 
-0.9660155773 -7.444379807 -2.001413107 0.9694018364 
-0.6337646246 -7.479960918 -2.001413107 0.9694019556 
-0.3005908132 -7.500781059 -2.001413107 0.9694017768 
0.3673974574 -7.497792721 -2.001413107 0.9694018364 
0.70062989 -7.474028111 -2.001413107 0.9694018364 
1.032207012 -7.435502529 -2.001413107 0.9694017768 
1.361977458 -7.382216454 -2.001413107 0.9694017768 
1.688881755 -7.314325809 -2.001413107 0.969401896 
2.332436562 -7.135243893 -2.001413107 0.9694018364 
3.261386633 -6.761322975 -2.001413107 0.9694017768 
3.55892086 -6.609545708 -2.001413107 0.9694018364 
4.672934532 -5.875 -2.001413107 0.9694018364 
4.929672718 -5.66130352 -2.001413107 0.9694018364 
5.176625729 -5.436415672 -2.001413107 0.9694017768 
5.413330078 -5.200761795 -2.001413107 0.9694017768 
5.639316082 -4.954799652 -2.001413107 0.9694018364 
6.248627663 -4.160141468 -2.001413107 0.9694017768 
6.593657017 -3.588281155 -2.001413107 0.9694017768 
6.886474609 -2.988041878 -2.001413107 0.9694018364 
7.012582779 -2.678754807 -2.001413107 0.9694018364 
7.376079082 -1.394824147 -2.001413107 0.9694017768 
7.43081522 -1.065332055 -2.001413107 0.9694018364 
7.496098518 -0.4006542861 -2.001413107 0.9694018364 
7.502040863 0.2671826184 -2.001413107 0.9694018364 
7.448613167 0.9329003692 -2.001413107 0.9694017768 
7.399731159 1.263310552 -2.001413107 0.9694018364 
7.059145451 2.553525448 -2.001413107 0.9694018364 
6.656459808 3.47036624 -2.001413107 0.9694018364 
5.936845779 4.594106197 -2.001413107 0.9694018364 
5.272514343 5.343417645 -2.001413107 0.9694019556 
5.029653072 5.572675705 -2.001413107 0.9694017768 
4.630571365 5.613642216 -1.940153599 0.9703243375 
3.396088839 6.04677248 -1.849013209 0.9716984034 
2.845229387 6.324682713 -1.849013209 0.9716984034 
1.680439472 6.728515625 -1.849013209 0.971698463 
1.075737238 6.851240158 -1.849013209 0.971698463 
0.7699072361 6.892319202 -1.849013209 0.971698463 
0.1542675793 6.933466434 -1.849013209 0.971698463 
-0.454775393 6.803256512 -1.817887187 0.9721682072 
-0.7608886361 6.811445236 -1.827317953 0.9720258117 
-1.070825219 6.819736004 -1.840510249 0.9718267322 
-2.27182126 6.552529335 -1.849013209 0.971698463 
-2.5610497 6.44498539 -1.849013209 0.971698463 
-2.845200062 6.324682713 -1.849013209 0.971698463 
-3.396074057 6.046767235 -1.849013209 0.971698463 
-3.92025876 5.720991135 -1.849013209 0.9716981053 
-5.029648304 5.572670937 -2.001413107 0.9694018364 
-5.272563457 5.343412876 -2.001413107 0.9694018364 
-5.505073071 5.103588581 -2.001413107 0.9694017172 
-5.936855316 4.594091892 -2.001413107 0.9694018364 
-6.135341644 4.325454235 -2.001413107 0.9694018364 
-6.321684361 4.048246861 -2.001413107 0.9694018364 
-6.80427742 3.170825243 -2.001413107 0.9694017172 
-6.938569069 2.865009785 -2.001413107 0.9694018364 
-7.399741173 1.263310552 -2.001413107 0.9694017768 
-7.448603153 0.932890594 -2.001413107 0.9694018364 
-7.502040863 0.2671777308 -2.001413107 0.9694018364 
-7.506498814 -0.06680663675 -2.001413107 0.9694018364 
-7.496098518 -0.4006542861 -2.001413107 0.9694018364 
-7.470854282 -0.7337304354 -2.001413107 0.9694018364 
-7.430825233 -1.065332055 -2.001413107 0.9694017768 
-7.376079082 -1.394824147 -2.001413107 0.9694017768 
-7.306728363 -1.721562505 -2.001413107 0.9694018364 
-7.222905159 -2.044887543 -2.001413107 0.9694018364 
-7.012573242 -2.678754807 -2.001413107 0.9694018364 
-6.746733189 -3.291440248 -2.001413107 0.9694018364 
-6.593637466 -3.588300705 -2.001413107 0.9694018364 
-6.427495003 -3.878061533 -2.001413107 0.9694018364 
-6.057377815 -4.433979511 -2.001413107 0.9694018364 
-5.639321327 -4.95480442 -2.001413107 0.9694018364 
-5.413330078 -5.200751781 -2.001413107 0.9694018364 
-5.17662096 -5.436410904 -2.001413107 0.9694018364 
-4.672944069 -5.875004768 -2.001413107 0.9694017768 
-3.849428654 -6.444687366 -2.001413107 0.9694017768 
-3.261367083 -6.761313438 -2.001413107 0.9694018364 
-2.95735836 -6.899697304 -2.001413107 0.969401896 
-2.647651196 -7.024457932 -2.001413107 0.9694015384 
-1.6890136 -7.314311504 -2.001413107 0.9694018364 
-0.7004540563 -7.474042892 -2.001413107 0.9694018364 
-0.0332958959 -7.506713867 -2.001413107 0.9694018364 
0.9661718607 -7.444365025 -2.001413107 0.9694018364 
1.296293974 -7.394028187 -2.001413107 0.9694018364 
2.268935442 -7.155712605 -2.001413107 0.9694017768 
3.791938305 -6.478681564 -2.001413107 0.9694017768 
4.352719784 -6.116034985 -2.001413107 0.9694018364 
4.620473385 -5.916357517 -2.001413107 0.9694018364 
4.879081726 -5.704960823 -2.001413107 0.9694018364 
5.366830826 -5.248725414 -2.001413107 0.9694018364 
6.017680645 -4.487709999 -2.001413107 0.9694018364 
6.211352348 -4.21558094 -2.001413107 0.9694018364 
6.561445236 -3.646835804 -2.001413107 0.9694018364 
6.717177391 -3.351342678 -2.001413107 0.9694018364 
6.988461971 -2.741049767 -2.001413107 0.9694018364 
7.103471756 -2.427470684 -2.001413107 0.9694018364 
7.204428673 -2.109077215 -2.001413107 0.9694018364 
7.492240906 -0.4673437476 -2.001413107 0.9694017768 
7.505600452 -0.1336084008 -2.001413107 0.9694018364 
7.350072861 1.525878906 -2.001413107 0.9694018364 
7.274931431 1.851328135 -2.001413107 0.9694018364 
7.185390472 2.173110247 -2.001413107 0.9694017768 
6.68708992 3.410991192 -2.001413107 0.9694018364 
6.528725624 3.705082893 -2.001413107 0.9694018364 
5.977509499 4.541083813 -2.001413107 0.9694017768 
5.769575119 4.802495003 -2.001413107 0.9694018364 
5.550195217 5.05439949 -2.001413107 0.969401896 
5.319907188 5.296288967 -2.001413107 0.9694017768 
3.713979483 5.85688448 -1.849013209 0.971698463 
3.449770451 6.016313553 -1.849013209 0.9716984034 
2.901391506 6.299111366 -1.849013209 0.9716984034 
2.618315458 6.421938419 -1.849013209 0.9716984034 
2.330034018 6.53205061 -1.849013209 0.971698463 
1.439897418 6.784057617 -1.849013209 0.971698463 
-0.6994042993 6.809799671 -1.825134277 0.972058773 
-1.008457065 6.818071365 -1.837564468 0.9718711972 
-1.318920851 6.8086133 -1.849013209 0.971698463 
-1.620502949 6.743197918 -1.849013209 0.971698463 
-2.213413 6.572490215 -1.849013209 0.971698463 
-3.068510771 6.219408989 -1.849013209 0.971698463 
-3.34213376 6.076752663 -1.849013209 0.971698463 
-3.609145403 5.922070026 -1.849013209 0.971698463 
-4.157876015 5.627480507 -1.865465045 0.9714502692 
-4.967465878 5.60322237 -1.996430039 0.969476819 
-5.224794865 5.390121937 -2.001413107 0.9694018364 
-5.895766258 4.646757603 -2.001413107 0.9694017172 
-6.285400391 4.104345798 -2.001413107 0.9694018364 
-6.461772442 3.820693254 -2.001413107 0.9694017768 
-6.912836552 2.926645517 -2.001413107 0.9694016576 
-7.145546913 2.30065918 -2.001413107 0.9694018364 
-7.240834713 1.980517507 -2.001413107 0.9694017768 
-7.388207912 1.329116225 -2.001413107 0.9694017768 
-7.440004826 0.9991357327 -2.001413107 0.9694018364 
-7.506796837 -4.882812391e-06 -2.001413107 0.9694018364 
-7.499370098 -0.3339306712 -2.001413107 0.9694017768 
-7.321752548 -1.65647459 -2.001413107 0.9694018364 
-7.240829945 -1.980527282 -2.001413107 0.9694017768 
-7.145561218 -2.300663948 -2.001413107 0.9694017768 
-7.036137581 -2.616240263 -2.001413107 0.9694018364 
-6.625317097 -3.529467583 -2.001413107 0.9694018364 
-6.285395145 -4.104365349 -2.001413107 0.9694018364 
-5.895727634 -4.646762371 -2.001413107 0.9694018364 
-5.683188438 -4.904428482 -2.001413107 0.9694018364 
-5.459389687 -5.152377605 -2.001413107 0.9694018364 
-5.224790096 -5.390126705 -2.001413107 0.9694018364 
-4.725048542 -5.833173752 -2.001413107 0.9694018364 
-4.460922718 -6.037607193 -2.001413107 0.9694017172 
-4.187895298 -6.230048656 -2.001413107 0.9694018364 
-3.906645536 -6.410195351 -2.001413107 0.9694017172 
-3.617519379 -6.57759285 -2.001413107 0.9694020152 
-3.321450233 -6.7320261 -2.001413107 0.9694017768 
-2.709926605 -7.000590801 -2.001413107 0.9694018364 
-1.754077077 -7.298998833 -2.001413107 0.9694017768 
-1.42750001 -7.369784832 -2.001413107 0.9694019556 
-1.098256826 -7.425991058 -2.001413107 0.9694019556 
-0.7667480111 -7.467494965 -2.001413107 0.9694019556 
0.233959958 -7.503139496 -2.001413107 0.9694018364 
0.5673193336 -7.485332012 -2.001413107 0.9694018364 
1.230410099 -7.405278206 -2.001413107 0.9694018364 
1.883588791 -7.26663065 -2.001413107 0.9694018364 
2.205112219 -7.175624847 -2.001413107 0.9694017768 
2.52219224 -7.070424557 -2.001413107 0.9694017172 
2.834164858 -6.951244831 -2.001413107 0.9694017768 
3.140507698 -6.818295956 -2.001413107 0.9694018364 
4.020082951 -6.339623928 -2.001413107 0.9694018364 
5.319907188 -5.296293736 -2.001413107 0.9694017768 
5.769599438 -4.802490234 -2.001413107 0.9694017768 
6.173588753 -4.270683289 -2.001413107 0.9694018364 
6.528730392 -3.705082893 -2.001413107 0.9694018364 
6.687084675 -3.410986185 -2.001413107 0.9694018364 
6.832201958 -3.110146523 -2.001413107 0.9694018364 
6.963793755 -2.80313468 -2.001413107 0.9694018364 
7.274926662 -1.851328135 -2.001413107 0.9694018364 
7.410658836 -1.197417021 -2.001413107 0.969401896 
7.505609989 0.1336132735 -2.001413107 0.9694018364 
7.492231369 0.4673583806 -2.001413107 0.9694018364 
7.421049595 1.131411076 -2.001413107 0.9694017768 
7.363368988 1.460405231 -2.001413107 0.9694018364 
7.291098595 1.786513686 -2.001413107 0.969401896 
7.204428673 2.109077215 -2.001413107 0.9694018364 
7.103393555 2.427475452 -2.001413107 0.9694021344 
6.988456726 2.74106431 -2.001413107 0.9694018364 
6.859613895 3.049223661 -2.001413107 0.9694017768 
6.392734051 3.935102463 -2.001413107 0.9694017768 
6.017680645 4.487704754 -2.001413107 0.9694018364 
5.128032207 5.482270241 -2.001413107 0.9694018364 
