# .PCD v0.7 - Point Cloud Data file format
VERSION 0.7
FIELDS x y z intensities
SIZE 4 4 4 4
TYPE F F F F
COUNT 1 1 1 1
WIDTH 947
HEIGHT 1
VIEWPOINT 0 0 0 1 0 0 0
POINTS 947
DATA ascii
28.47039413 92.64694977 27.7485714 0.6681338549 
23.60423851 91.05696869 26.93093491 0.6761209369 
20.12336922 94.81077576 27.7485714 0.6681336761 
-4.359447956 -12.9448967 3.910584927 0.9447526932 
-3.754912138 -13.04142094 3.885380507 0.9450988173 
-3.137997866 -13.05790997 3.844857454 0.9456555843 
-2.532626867 -13.07411098 3.812639952 0.9460983872 
-1.936147451 -13.09005833 3.788400412 0.9464318156 
-0.759907186 -13.12152767 3.762929201 0.9467821717 
1.591733336 -13.18442822 3.802052259 0.9462440014 
3.430478334 -13.23360348 3.913948059 0.9447064996 
4.732954025 -13.26844215 4.033136845 0.9430715442 
6.128642559 -13.30577087 4.194049358 0.9408687353 
9.78145504 -14.00617123 4.890961647 0.9313875437 
11.92540455 -14.19789028 5.308413982 0.9257541299 
18.803442 -14.28488255 6.760625839 0.9064210057 
20.32193375 -14.05800247 7.074487209 0.9022957087 
37.11183548 -16.89401817 11.6740427 0.8439537883 
70.26913452 39.05538559 23.01623917 0.715701282 
32.64200974 88.99804688 27.139431 0.6740742326 
20.96629906 94.62789154 27.7485714 0.6681337953 
12.47286129 96.11685181 27.7485714 0.6681338549 
-8.594950676 -13.824687 4.660512447 0.9345120788 
-7.600336552 -13.5325489 4.443535805 0.937463522 
-7.387602329 -14.6437006 4.695724487 0.9340339899 
-6.318266392 -14.04505348 4.409176826 0.937931776 
-4.486918926 -12.94148922 3.921462536 0.9446033239 
-3.879956007 -13.03806591 3.894518614 0.94497329 
-1.463696241 -13.10270023 3.774579763 0.9466218948 
-0.876953125 -13.11839771 3.764119387 0.9467657804 
-0.2922412157 -13.13403797 3.761147022 0.9468066692 
0.2926464677 -13.14967728 3.765628338 0.946745038 
2.072202206 -13.19727516 3.824613333 0.9459338188 
3.94220686 -13.24728966 3.957013845 0.9441154599 
5.278271198 -13.2830267 4.092115879 0.9422635436 
6.720620155 -13.32160091 4.271776199 0.9398065805 
11.52856922 -13.97616673 5.186943054 0.9273898602 
13.85220718 -14.03831768 5.646329403 0.9212190509 
19.91484833 -14.04010487 6.976017952 0.9035880566 
38.18376541 89.08435059 27.7485714 0.6681338549 
34.18321228 90.69471741 27.7485714 0.6681337953 
25.98708916 93.37393951 27.7485714 0.6681338549 
4.916879654 100.3733978 28.77092934 0.6582801938 
-8.693681717 -13.7098093 4.647688866 0.9346862435 
-8.219335556 -14.33431149 4.730639458 0.9335601926 
-6.21566391 -15.2451458 4.713448048 0.9337934852 
-4.005532265 -13.03471184 3.904006481 0.9448429942 
-2.173828125 -13.08371067 3.797157288 0.946311295 
-1.571792006 -13.01945782 3.754478931 0.9468984604 
0.1755126864 -13.14653778 3.764131069 0.9467656016 
1.353452086 -13.17804623 3.792664289 0.9463731647 
2.558999062 -13.21029282 3.852353811 0.9455525279 
3.178588867 -13.22686958 3.894604683 0.9449720979 
3.78988266 -13.16287613 3.921562672 0.944601953 
5.108989239 -13.19814396 4.051798344 0.9428158402 
5.840532303 -13.29806614 4.158193588 0.9413591027 
9.500370979 -14.13302708 4.875435829 0.9315977693 
10.46122074 -14.15873051 5.039997578 0.9293724298 
11.37487793 -14.04251957 5.173799992 0.9275670052 
12.46919632 -14.06509495 5.38134861 0.9247733951 
13.80759048 -14.24450684 5.679598331 0.920773685 
16.49425507 -14.23404312 6.237491131 0.9133384824 
19.52873421 -14.02977467 6.884241581 0.9047940969 
28.214468 -18.42405319 9.64736557 0.8691808581 
70.118927 33.43871689 22.24060249 0.7238144279 
70.22515106 37.41078186 22.78010178 0.7181615829 
38.97483444 88.74111176 27.7485714 0.6681337953 
30.93340683 91.85393524 27.7485714 0.6681338549 
26.81682968 93.13902283 27.7485714 0.6681338549 
5.201835632 89.82199097 25.75872993 0.6877369881 
-8.7890625 -13.59133244 4.633851051 0.9348742366 
-8.295928001 -14.17413998 4.701953888 0.9339494705 
-7.619101524 -14.45686531 4.678562641 0.9342669845 
-6.980424881 -14.80683517 4.686588764 0.9341580272 
-6.376410961 -15.24991703 4.732272625 0.9335380197 
-4.131796837 -13.03133297 3.913853884 0.9447078109 
-1.699487209 -13.09639645 3.780877829 0.9465352297 
0.05846679583 -13.14340782 3.762938499 0.9467820525 
0.6446142197 -13.15909672 3.771906376 0.9466586113 
4.333827972 -13.25775814 3.99329114 0.9436178803 
6.421933651 -13.31360817 4.231887341 0.9403515458 
7.179643631 -13.33388138 4.335653305 0.938934505 
11.12515068 -13.98697758 5.116644859 0.9283377528 
12.37340832 -14.2098732 5.394390583 0.9245981574 
13.5610199 -14.24163532 5.630102634 0.9214363098 
17.83525085 -14.31604958 6.547635555 0.9092310667 
37.15693283 -16.12241745 11.59610844 0.8449102044 
75.16759491 31.03750229 23.28254318 0.7129368186 
39.76317215 88.39067841 27.7485714 0.6681338549 
35.79193878 90.07199097 27.7485714 0.6681337953 
27.64479828 92.89665985 27.7485714 0.6681337953 
14.24130821 90.6986084 26.28497314 0.6824992895 
10.76025867 96.3236084 27.7485714 0.6681338549 
6.4643116 96.70694733 27.7485714 0.6681338549 
-8.861406326 -13.4393158 4.608736038 0.9352155328 
-7.892582893 -13.21377373 4.406506062 0.9379681945 
-7.115805626 -14.75212383 4.689135551 0.9341234565 
-6.364897251 -14.84959888 4.625446796 0.9349884391 
-4.258706093 -13.02793407 3.924066305 0.9445676208 
-3.016059399 -13.06118107 3.837760925 0.9457530975 
-2.412680626 -13.07731915 3.807164431 0.9461737275 
-1.817670822 -13.09324169 3.78448391 0.946485579 
0.5271728635 -13.15595627 3.769514322 0.9466915727 
1.10947752 -13.09118176 3.761384487 0.9468034506 
1.711318374 -13.18762684 3.807214022 0.9461730123 
3.557363272 -13.23700142 3.924159765 0.9445663095 
4.202470779 -13.25424767 3.980807066 0.9437890649 
4.86780262 -13.27204514 4.047238827 0.9428783059 
6.274609089 -13.30967712 4.212714672 0.9406135678 
7.772280216 -13.27931595 4.405129433 0.9379869699 
10.06919861 -14.14824677 4.97167635 0.9302957058 
13.31528091 -14.23506355 5.58044529 0.9221014977 
15.75061226 -14.08909893 6.050157547 0.9158284068 
17.5532074 -14.348423 6.490722656 0.9099833965 
70.10202789 31.91161537 22.05155945 0.7258059382 
70.18205261 35.7991066 22.55583954 0.7205060124 
70.36904907 39.93489838 23.16451836 0.7141609788 
36.59223938 89.74982452 27.7485714 0.6681337953 
7.324926376 96.64558411 27.7485714 0.6681337953 
-8.932992935 -13.28896904 4.584262848 0.9355482459 
-7.803027153 -12.8035593 4.292704582 0.9395207763 
-4.359414101 -12.9448967 3.910582542 0.9447527528 
-3.754912138 -13.04142094 3.885380507 0.9450988173 
-3.137997866 -13.05790997 3.844857454 0.9456555843 
-1.936147451 -13.09005833 3.788400412 0.9464318156 
-1.34604001 -13.10585403 3.771882534 0.9466589093 
-0.759907186 -13.12152767 3.762929201 0.9467821717 
-0.1743164062 -13.0568409 3.738448143 0.9471190572 
0.9980614781 -13.16854954 3.780909538 0.9465348125 
1.591704011 -13.18441868 3.802051067 0.946244061 
2.80521965 -13.21687508 3.868226528 0.9453344941 
3.430502892 -13.23360348 3.913952827 0.94470644 
5.417177677 -13.2867384 4.107952595 0.9420467615 
7.652944088 -13.34654236 4.404653549 0.9379934072 
9.78145504 -14.00617123 4.890961647 0.9313875437 
10.86428165 -14.1695118 5.111863613 0.9284023046 
11.92540455 -14.19789028 5.308413982 0.9257541299 
14.32566357 -14.26208973 5.787365437 0.9193327427 
17.2272892 -14.33970165 6.417155743 0.9109568596 
18.80340958 -14.28492165 6.760625839 0.9064210057 
20.32195663 -14.05800056 7.074512959 0.9022955894 
37.11192703 -16.89395905 11.67405987 0.8439536095 
70.26913452 39.05538559 23.01623917 0.715701282 
32.64200974 88.99804688 27.139431 0.6740742326 
29.29374504 92.38993835 27.7485714 0.6681337953 
24.02269554 89.38863373 26.49962044 0.6803717017 
20.96629906 94.62789154 27.7485714 0.6681337953 
16.73613167 95.46687317 27.7485714 0.6681338549 
12.47286129 96.11685181 27.7485714 0.6681338549 
-6.318266392 -14.04505348 4.409176826 0.937931776 
-4.486918926 -12.94148922 3.921462536 0.9446033239 
-1.463696241 -13.10270023 3.774579763 0.9466218948 
-0.2922412157 -13.13403797 3.761147022 0.9468066692 
0.8800927401 -13.16539001 3.777606487 0.9465802312 
1.472460866 -13.18123531 3.797201157 0.946310699 
2.681884766 -13.21357918 3.860124111 0.945445776 
5.278271198 -13.2830267 4.092115879 0.9422635436 
5.983950138 -13.30189896 4.175878048 0.9411172271 
8.257792473 -13.28237724 4.477693081 0.9369983077 
9.687460899 -14.13803673 4.906698227 0.9311745167 
11.52867603 -13.97617626 5.186962605 0.9273895621 
12.64117908 -14.00593948 5.401555061 0.9245018959 
15.18082523 -14.07385445 5.926605225 0.9174743891 
16.90881538 -14.33118153 6.345766544 0.9119024277 
19.91484833 -14.04010487 6.976017952 0.9035880566 
70.13977051 34.21832275 22.34295273 0.7227386236 
34.18284607 90.69486237 27.7485714 0.6681337953 
25.9866848 93.37406158 27.7485714 0.6681337953 
4.917309284 100.3733749 28.77091026 0.6582801938 
-7.50398922 -14.55099583 4.687223911 0.9341493845 
-6.647114277 -14.43133259 4.548837662 0.9360300303 
-6.215585709 -15.24514103 4.713439465 0.9337936044 
-2.773549795 -13.06766605 3.824552298 0.9459345937 
-2.173881769 -13.08370113 3.797157764 0.946311295 
-0.4091357291 -13.13090801 3.76114583 0.9468067288 
0.1755712777 -13.14653778 3.764134169 0.9467656016 
1.353510737 -13.17804623 3.792666197 0.946373105 
1.951523423 -13.19404793 3.818492651 0.946017921 
3.178588867 -13.22686958 3.894604683 0.9449720979 
3.789941311 -13.16287613 3.921572447 0.9446018934 
4.465961933 -13.26130295 4.006164074 0.9434412718 
5.109052658 -13.19815445 4.051804543 0.942815721 
6.530439377 -13.23617172 4.225578785 0.9404376745 
10.46122074 -14.15873051 5.039997578 0.9293724298 
11.37480927 -14.04257298 5.173799992 0.9275670052 
12.46919632 -14.06509495 5.38134861 0.9247733951 
13.80759048 -14.24438 5.679577351 0.9207740426 
16.49426079 -14.23392105 6.237470627 0.9133387208 
70.11891174 33.43839264 22.24056053 0.7238149047 
70.22515106 37.41078186 22.78010178 0.7181615829 
38.97483444 88.74111176 27.7485714 0.6681337953 
34.98914337 90.38685608 27.7485714 0.6681337953 
30.93340683 91.85393524 27.7485714 0.6681338549 
18.43296432 95.15382385 27.7485714 0.6681337953 
9.90201664 96.41567993 27.7485714 0.6681336761 
5.201835632 89.82199097 25.75872993 0.6877369881 
-8.295928001 -14.17413998 4.701953888 0.9339494705 
-6.980424881 -14.80683517 4.686588764 0.9341580272 
-6.376493931 -15.24993134 4.7322855 0.9335378408 
-4.131733418 -13.03133774 3.913851023 0.9447078705 
-1.699433565 -13.09640121 3.780876637 0.9465352297 
-0.5259863138 -13.12778282 3.761441946 0.9468026161 
0.05846679583 -13.14340782 3.762938499 0.9467820525 
3.053603411 -13.22352028 3.885465384 0.9450976253 
5.00357914 -13.2756834 4.06176281 0.942679286 
5.698242188 -13.2942524 4.140981674 0.9415946603 
7.179643631 -13.33388138 4.335653305 0.938934505 
9.315542221 -14.12809086 4.844933033 0.9320108294 
11.12515068 -13.98697758 5.116644859 0.9283377528 
12.3735199 -14.20987797 5.394411564 0.9245978594 
13.5610199 -14.24163532 5.630102634 0.9214363098 
14.85995579 -14.27638149 5.899589539 0.9178345799 
17.83525085 -14.31604958 6.547635555 0.9092310667 
19.16779709 -14.03082275 6.800764084 0.9058924317 
27.86115265 -18.54899406 9.582607269 0.8699992299 
37.15693283 -16.12241745 11.59610844 0.8449102044 
70.20349884 36.60115814 22.66654968 0.719347775 
39.7628212 88.39085388 27.7485714 0.6681337953 
31.74940872 91.57509613 27.7485714 0.6681337953 
27.64479828 92.89665985 27.7485714 0.6681337953 
23.48465347 94.03453064 27.7485714 0.6681337953 
19.2788372 94.9861145 27.7485714 0.6681336164 
14.24139118 90.70163727 26.28584671 0.682490766 
6.4643116 96.70694733 27.7485714 0.6681338549 
-8.861406326 -13.4393158 4.608736038 0.9352155328 
-7.8453269 -14.57018566 4.737647057 0.9334651232 
-4.258706093 -13.02793407 3.924066305 0.9445676208 
-1.817729473 -13.09323692 3.784484386 0.946485579 
-1.228549719 -13.10898876 3.769492388 0.9466918707 
-0.642983377 -13.12464809 3.762037039 0.9467944503 
-0.05846191198 -13.1402874 3.76204133 0.9467943311 
0.5271191001 -13.15595627 3.76951313 0.9466915727 
1.10947752 -13.09118176 3.761384487 0.9468034506 
1.711376905 -13.18762684 3.807218313 0.9461729527 
2.929194212 -13.22019005 3.87667799 0.9452183843 
4.86780262 -13.27204514 4.047238827 0.9428783059 
5.557182312 -13.29047775 4.124241352 0.9418237805 
7.025160789 -13.32975101 4.313813686 0.9392325878 
7.772275448 -13.27944279 4.40515995 0.9379865527 
9.133095741 -14.12319279 4.815200806 0.9324136376 
12.14756298 -14.20383263 5.350836277 0.9251835942 
15.75061226 -14.08909893 6.050157547 0.9158284068 
17.55336189 -14.348423 6.490757942 0.9099829197 
18.92981911 -14.11698246 6.760625839 0.9064210057 
27.42677116 -18.61409569 9.489797592 0.871173501 
70.36904907 39.93489838 23.16451836 0.7141609788 
36.5918808 89.74997711 27.7485714 0.6681337953 
32.3608017 90.72003937 27.5757103 0.6698143482 
23.60421371 91.05597687 26.93042374 0.6761237979 
14.87114239 89.50335693 25.97565842 0.6855717897 
11.6168108 96.22406769 27.7485714 0.6681338549 
7.325287819 96.64554596 27.7485714 0.6681338549 
-17.83799362 -10.54722118 5.728418827 0.9175940156 
-8.984642982 -13.36583996 4.451887608 0.9353488088 
-4.359438419 -12.9448967 3.775821686 0.9448906779 
-3.118818283 -12.97807598 3.689663887 0.946113646 
-1.936147451 -13.09006786 3.657848835 0.9465656281 
-0.1743115187 -13.0568409 3.609620094 0.9472512603 
0.9980712533 -13.16854 3.650617361 0.9466684461 
1.588955045 -13.16150856 3.66465044 0.9464690089 
2.179833889 -13.11980915 3.676421642 0.9463017583 
3.430468559 -13.23360825 3.779072523 0.9448445439 
4.071948051 -13.25076103 3.831952095 0.9440947771 
5.417153358 -13.28673267 3.966387033 0.9421913028 
6.128656864 -13.30576611 4.049520493 0.941016078 
7.652934551 -13.34654713 4.252864361 0.9381476641 
9.29534626 -13.31013107 4.487733364 0.9348455667 
10.86428165 -14.1695118 4.935703278 0.9285795093 
11.92542458 -14.19788551 5.125484467 0.925937593 
17.22732353 -14.33970165 6.196020603 0.9111750126 
20.31861496 -14.05577087 6.829609394 0.9025490284 
29.39258385 -18.45556068 9.59387207 0.8658601046 
68.88396454 34.36763382 21.27994156 0.7265312076 
70.26913452 39.05537415 22.22307777 0.7163165808 
38.7238121 92.61218262 27.7485714 0.659293294 
32.6420517 88.99804688 26.20415688 0.6747575402 
12.91792965 99.54734039 27.7485714 0.6592933536 
8.476899147 100.0234375 27.7485714 0.6592933536 
-17.84494591 -10.33811951 5.70087862 0.9179734588 
-7.343466759 -14.55618095 4.50681591 0.9345778227 
-3.879946232 -13.03807545 3.760309696 0.9451106787 
-2.054863214 -13.0868845 3.6619277 0.9465076923 
-1.463671803 -13.102705 3.644503355 0.94675529 
0.2926122844 -13.14968204 3.635860205 0.9468781352 
1.471752882 -13.1751318 3.664651155 0.9464690089 
2.665473461 -13.13279724 3.70431304 0.9459055662 
3.304228544 -13.23022938 3.769561291 0.9449794888 
3.942202091 -13.24729443 3.820651531 0.9442549348 
4.599028111 -13.26485348 3.880934715 0.9434007406 
6.720624924 -13.3216114 4.124567986 0.9399564266 
7.493505478 -13.34227467 4.230088711 0.9384685755 
9.116943359 -13.30536079 4.458591461 0.9352546334 
11.70668411 -14.19204044 5.085558891 0.9264927506 
12.64111805 -14.00592709 5.215401649 0.924688518 
13.85215569 -14.03831768 5.451741695 0.921413362 
15.18091011 -14.07386398 5.72238636 0.9176771045 
19.98876953 -14.09225082 6.7606287 0.9034841657 
29.13892174 -18.65989685 9.564899445 0.8662368059 
37.06204987 -17.2711525 11.30285835 0.8439273834 
70.5760498 30.62315178 21.26675034 0.7266756892 
68.92658234 33.62615585 21.19981956 0.7274056673 
39.54644012 92.26390076 27.7485714 0.659293294 
35.40314484 93.93172455 27.7485714 0.659293294 
18.21265602 98.71599579 27.7485714 0.659293294 
13.80337334 99.42845154 27.7485714 0.659293294 
9.36680603 99.94403839 27.7485714 0.659293294 
-17.98369598 -10.20581532 5.715962887 0.9177656174 
-8.650409698 -13.64159679 4.46519804 0.9351618886 
-6.541079044 -14.20116138 4.322028637 0.9371740818 
-3.362558603 -12.97155762 3.704242706 0.9459065795 
-2.172851562 -13.07779789 3.66465044 0.9464690089 
1.939736247 -13.11440372 3.66465044 0.9464690089 
2.543369055 -13.12953091 3.696860552 0.9460114241 
3.178608418 -13.22686958 3.760393858 0.9451094866 
3.789892435 -13.16287041 3.786427259 0.9447402358 
4.465976238 -13.26129818 3.868110657 0.9435824156 
5.840493202 -13.29806137 4.01489687 0.9415053129 
6.530395508 -13.23616695 4.0799613 0.9405861497 
8.141894341 -13.35962391 4.324776173 0.9371353984 
8.940814972 -13.30064869 4.430172443 0.9356537461 
10.46119595 -14.15872574 4.866311073 0.9295474291 
11.49129391 -14.1862793 5.046643734 0.9270341992 
12.41614723 -14.0052557 5.173799992 0.9252662063 
15.13485813 -14.28372574 5.752722263 0.9172593355 
16.49425507 -14.23404312 6.022543907 0.9135511518 
21.597929 -14.1034565 7.130495548 0.898481369 
73.4216156 31.08419609 22.0398941 0.7182893157 
39.69429779 90.37871552 27.28677368 0.6638799906 
36.23760605 93.61295319 27.7485714 0.659293294 
32.03751373 95.13227081 27.7485714 0.659293294 
23.45546913 97.60321808 27.7485714 0.6592933536 
19.09041977 98.55001831 27.7485714 0.659293294 
14.68767548 99.30167389 27.7485714 0.659293294 
5.201835632 89.82199097 24.87105942 0.6883987188 
-49.55331421 96.08811188 29.88569069 0.6384760141 
-8.778921127 -13.57557106 4.468984127 0.9351087213 
-8.254379272 -14.10308552 4.517167091 0.9344325662 
-6.367973328 -15.22972584 4.563146591 0.9337877631 
-4.131796837 -13.03133297 3.77898097 0.9448458552 
-3.485156059 -12.96827126 3.712015629 0.9457962513 
-2.289160013 -13.05794907 3.664651155 0.9464689493 
-1.699482441 -13.09639168 3.650586128 0.9466688633 
0.6446386576 -13.15909195 3.641925335 0.9467919469 
1.234750986 -13.17487717 3.657886028 0.9465650916 
2.421738148 -13.12628365 3.689730406 0.9461126924 
5.698242188 -13.29425716 3.998279095 0.9417402148 
10.26382256 -14.15345192 4.832906723 0.9300136566 
16.29230118 -14.3146925 5.995080471 0.9139279127 
17.83524704 -14.31610775 6.322009087 0.9094532132 
19.63202667 -14.37057114 6.725428104 0.9039617777 
68.92586517 35.93466187 21.48709488 0.7242751718 
70.31407928 40.73497772 22.46305656 0.7137405276 
32.88295364 94.84333801 27.7485714 0.659293294 
14.24135685 90.70013428 25.37947464 0.683165133 
6.695249081 100.1584778 27.7485714 0.6592933536 
-7.872353554 -13.17990208 4.243745804 0.9382761121 
-7.763749599 -14.41867161 4.526816845 0.934297204 
-7.090341568 -14.69934082 4.511342525 0.9345142841 
-6.29339838 -14.68275356 4.415873528 0.9358546734 
-2.405287981 -13.03706551 3.66465044 0.9464689493 
-1.817700148 -13.09322739 3.654069424 0.9466193914 
-0.6429541111 -13.12465763 3.632394075 0.9469274282 
0.5271728635 -13.15595627 3.639613152 0.946824789 
1.706025362 -13.14685059 3.66465044 0.9464690089 
2.911225557 -13.13936996 3.720195532 0.9456800818 
3.557363272 -13.23700142 3.788932085 0.9447047114 
4.86780262 -13.27204514 3.907769442 0.943020761 
5.557148457 -13.29048347 3.982112646 0.9419688582 
6.274652958 -13.30968189 4.067545891 0.9407613873 
7.025126934 -13.32974625 4.165151596 0.939383924 
7.772275448 -13.27938461 4.253338814 0.938141048 
11.07019997 -14.1750145 4.971744061 0.9280772209 
13.31528282 -14.23506355 5.388138294 0.922293663 
14.59024906 -14.26916504 5.641364574 0.9187940359 
15.99389362 -14.3067131 5.931891918 0.9147952795 
36.73338699 -16.32857895 11.11221504 0.8463463187 
68.9276123 31.37713623 20.93494797 0.7303039432 
68.90481567 35.14739609 21.38217735 0.7254169583 
70.40695953 44.20842743 22.98115158 0.7082105875 
37.8980751 92.95314026 27.7485714 0.659293294 
23.60422707 91.05686951 26.00273895 0.6768014431 
20.84158134 98.1946106 27.7485714 0.6592932343 
14.87093735 89.50335693 25.08052635 0.6862370372 
12.03141117 99.6583786 27.7485714 0.6592933536 
7.586308479 100.0949402 27.7485714 0.659293294 
-47.51643753 96.30877686 29.68652534 0.6403878927 
-7.783715725 -12.77192879 4.13452673 0.9398158789 
-6.693159103 -15.23944759 4.601032257 0.9332568049 
-2.521196127 -13.01513672 3.66465044 0.9464690089 
-1.34604001 -13.10585403 3.64190197 0.9467922449 
-0.1743164062 -13.0568409 3.609620094 0.9472512603 
0.4098193347 -13.152812 3.637591839 0.9468535781 
0.9980908036 -13.16854 3.650617838 0.9466684461 
2.179843664 -13.11980915 3.676422358 0.9463017583 
2.788095713 -13.13607407 3.712091208 0.9457951188 
3.430478334 -13.23360348 3.779073 0.9448445439 
4.071948051 -13.25076103 3.831952095 0.9440947771 
4.732954025 -13.26844215 3.894152403 0.943213582 
5.417148113 -13.28674316 3.966385603 0.9421912432 
6.128642559 -13.30577087 4.049519062 0.941016078 
9.295351028 -13.3101263 4.487733841 0.9348455667 
10.86429214 -14.1695118 4.935705185 0.9285794497 
11.92540455 -14.19789028 5.125482082 0.9259376526 
13.07373047 -14.22860336 5.341431618 0.9229405522 
14.32566833 -14.26208496 5.587929726 0.919531405 
18.93575478 -14.38539505 6.573578835 0.9060248733 
20.31864166 -14.05577564 6.829615116 0.9025489092 
29.39260101 -18.45556068 9.593873978 0.8658601046 
70.26913452 39.0553894 22.22307396 0.7163165808 
70.38333893 43.3250885 22.84667397 0.7096417546 
38.72374725 92.61220551 27.7485714 0.659293294 
32.64200211 88.99803162 26.20409775 0.6747576594 
24.02269554 89.38863373 25.58642197 0.681045115 
21.71459389 98.00523376 27.7485714 0.659293294 
17.33346558 98.87416077 27.7485714 0.659293294 
12.91798306 99.54734039 27.7485714 0.6592933536 
8.476977348 100.0234451 27.7485714 0.659293294 
-9.055947304 -13.21636677 4.428766727 0.9356734753 
-3.879956007 -13.03806591 3.760310888 0.9451107383 
-3.240453959 -12.97482395 3.696793318 0.9460123777 
-2.05487299 -13.0868845 3.6619277 0.9465076923 
-1.463691354 -13.10270023 3.64450407 0.94675529 
-0.2922412157 -13.13403797 3.631534576 0.9469396472 
0.2926464677 -13.14967728 3.63586092 0.9468781352 
0.8800927401 -13.16539001 3.647426367 0.9467137456 
1.471772432 -13.1751318 3.66465044 0.9464690089 
2.665478468 -13.13280201 3.704314232 0.9459055662 
3.304238319 -13.23021984 3.769561291 0.9449794888 
3.94220686 -13.24728966 3.820652008 0.9442549348 
5.983950138 -13.30189896 4.031974792 0.9412639737 
6.720620155 -13.32160091 4.124567509 0.9399564266 
8.308584213 -13.36407185 4.349981308 0.9367809296 
9.116909027 -13.30536079 4.458586216 0.9352547526 
10.66127872 -14.16407681 4.900562763 0.9290695786 
15.18096638 -14.07386208 5.722397327 0.9176769853 
16.65767097 -14.11833 6.036082745 0.9133654833 
19.98877907 -14.09222603 6.7606287 0.9034841657 
29.13895607 -18.65988731 9.564908981 0.8662366867 
70.5760498 30.62306595 21.26675034 0.7266758084 
68.92657471 33.62607956 21.1998024 0.7274057865 
70.24703217 38.22864532 22.10759544 0.717559576 
31.18979454 95.41355133 27.7485714 0.659293294 
26.91459465 96.70654297 27.7485714 0.659293294 
13.80318832 99.42847443 27.7485714 0.659293294 
9.366542816 99.94406128 27.7485714 0.659293294 
-50.65632248 96.11768341 30.0338974 0.6370570064 
-17.98363686 -10.20583916 5.715948582 0.9177657962 
-8.650424957 -13.641572 4.465196133 0.9351619482 
-6.541098595 -14.20117664 4.322036266 0.9371740222 
-6.20746088 -15.22503853 4.545015335 0.9340419769 
-2.756591797 -12.98776817 3.670180321 0.94639045 
-1.571792006 -13.01945782 3.62509799 0.9470311999 
-0.9940234423 -13.11526299 3.635844946 0.9468783736 
-0.4091406167 -13.13090324 3.631533384 0.9469397068 
0.7622558475 -13.16223621 3.644529104 0.9467549324 
1.353452086 -13.17805099 3.661966085 0.9465070963 
1.939736247 -13.11440372 3.66465044 0.9464690089 
3.789872885 -13.16287041 3.786423445 0.9447402954 
5.840527058 -13.29806614 4.014901161 0.9415052533 
6.530439377 -13.23617172 4.07997036 0.9405860305 
8.141913414 -13.35962391 4.324779987 0.9371353388 
13.80759048 -14.24449635 5.483875751 0.9209690094 
15.13485813 -14.28372574 5.752722263 0.9172593355 
21.59796906 -14.10344696 7.130482197 0.8984813094 
73.42124176 31.08420563 22.03979492 0.7182902694 
68.90569305 32.86014175 21.10262108 0.7284678817 
39.69430923 90.37927246 27.28691673 0.6638785601 
36.23753738 93.6129837 27.7485714 0.659293294 
27.77391624 96.46324921 27.7485714 0.659293294 
23.45538521 97.6032486 27.7485714 0.659293294 
19.09041977 98.55001831 27.7485714 0.659293294 
-49.55348969 96.08811188 29.88570404 0.6384758353 
-8.7789011 -13.57561016 4.468989372 0.9351086617 
-8.254355431 -14.10310555 4.517169476 0.9344325066 
-6.801865101 -14.42808056 4.409335613 0.9359465241 
-6.367973328 -15.22972584 4.563146591 0.9337877631 
-2.8769238 -12.98455524 3.676361799 0.9463025928 
-2.289160013 -13.05794907 3.664651155 0.9464689493 
-1.699482441 -13.09639168 3.650586128 0.9466688633 
-1.111254811 -13.11212349 3.637573957 0.9468538165 
-0.5260449052 -13.12778282 3.631819725 0.9469355941 
0.6446045041 -13.15909195 3.64192462 0.9467919469 
1.234780192 -13.17487717 3.65788722 0.9465650916 
2.421767473 -13.12627411 3.689731121 0.9461126924 
4.333827972 -13.25775814 3.855679035 0.9437585473 
5.698242188 -13.29425716 3.998279095 0.9417402148 
6.421933651 -13.31360817 4.086053848 0.9405000806 
8.800067902 -13.34629345 4.419116497 0.9358091354 
10.26382256 -14.15345192 4.832906723 0.9300136566 
14.85982609 -14.27637672 5.696260929 0.9180371761 
16.29237556 -14.3146925 5.995096207 0.9139276743 
19.63203049 -14.37051201 6.725418568 0.9039618969 
68.88500214 32.10086441 21.0079422 0.7295040488 
70.31407928 40.73497772 22.46305656 0.7137405276 
70.43087006 45.10224915 23.11904907 0.706745863 
39.98852539 88.89157867 26.94430351 0.667303443 
37.06937027 93.28672028 27.7485714 0.659293294 
19.96688461 98.37619019 27.7485714 0.659293294 
14.24130821 90.6986084 25.37920761 0.6831693649 
11.14427662 99.76145935 27.7485714 0.6592933536 
-48.47102737 96.07901764 29.7475071 0.6398019195 
-8.851205826 -13.42385197 4.444794655 0.9354484081 
-7.090341568 -14.69934082 4.511342525 0.9345142841 
-4.258706093 -13.02793407 3.788840055 0.9447060227 
-3.608305693 -12.96498966 3.720119953 0.9456811547 
-2.405244112 -13.03706551 3.66465044 0.9464690089 
-1.817670822 -13.09324169 3.654068232 0.9466193318 
0.5271728635 -13.15595627 3.639613152 0.946824789 
1.10947752 -13.09118176 3.631762981 0.9469364285 
1.706025362 -13.14685059 3.66465044 0.9464690089 
2.30057621 -13.12303638 3.682917595 0.9462094307 
2.911225557 -13.13936996 3.720195532 0.9456800818 
3.557363272 -13.23700142 3.788932085 0.9447047114 
4.86780262 -13.27204514 3.907769442 0.943020761 
6.274609089 -13.30967712 4.067540646 0.9407615066 
8.64805603 -13.37315845 4.402358055 0.9360445738 
11.07025337 -14.17501926 4.97175312 0.9280771017 
12.14766598 -14.20383263 5.166462421 0.9253681898 
13.31528282 -14.23506355 5.388138294 0.922293663 
15.99389362 -14.3067131 5.931891918 0.9147952795 
17.55319786 -14.348423 6.267045975 0.9102039337 
19.17879868 -14.30267048 6.61350584 0.9054819345 
20.71875191 -14.06159878 6.921764851 0.9013011456 
36.7334404 -16.32870102 11.11224079 0.8463459611 
76.98536682 30.98888397 22.94043159 0.7086435556 
68.92766571 31.37700081 20.93494415 0.7303040028 
68.9048233 35.14760208 21.38220596 0.7254166603 
37.89824295 92.95306396 27.7485714 0.659293294 
29.48632812 95.95365143 27.7485714 0.6592933536 
23.60425758 91.05776978 26.00292969 0.6767989993 
14.87074184 89.50335693 25.08052635 0.6862370968 
12.03141117 99.6583786 27.7485714 0.6592933536 
-7.783691406 -12.77184582 4.134502888 0.9398162365 
-7.611210823 -13.83899403 4.365912914 0.9365568757 
-3.754912138 -13.04142094 3.751487017 0.945235908 
-2.521196127 -13.01513672 3.66465044 0.9464690089 
-1.936147451 -13.09006786 3.65784812 0.9465656281 
-1.34604001 -13.10585403 3.64190197 0.9467922449 
-0.1743164062 -13.0568409 3.609620094 0.9472512603 
0.4098193347 -13.152812 3.637591839 0.9468535781 
2.179814339 -13.11980438 3.67642045 0.9463017583 
2.788056612 -13.13607407 3.712088823 0.9457951784 
3.430512667 -13.23360825 3.779074907 0.9448444843 
4.732983112 -13.26843739 3.89415431 0.9432135224 
5.417182446 -13.28674793 3.966389418 0.9421911836 
13.07373047 -14.22860336 5.341431618 0.9229405522 
17.22728157 -14.33970165 6.19601202 0.9111751318 
18.93566513 -14.38539505 6.573558331 0.9060251117 
20.31873703 -14.05576897 6.829633713 0.9025486112 
29.3927536 -18.45556641 9.593911171 0.8658596277 
69.32815552 30.81767464 20.97246361 0.7298926115 
68.88396454 34.36771774 21.279953 0.7265310884 
70.26913452 39.0553894 22.22307396 0.7163165808 
70.38333893 43.3250885 22.84667397 0.7096417546 
32.64200211 88.99803162 26.20409775 0.6747576594 
30.33926201 95.68740082 27.7485714 0.659293294 
24.02269554 89.38863373 25.58642197 0.681045115 
8.476977348 100.0234451 27.7485714 0.659293294 
-17.84495163 -10.33810043 5.700880051 0.9179734588 
-9.055947304 -13.21636677 4.428766727 0.9356734753 
-8.552138329 -13.75582027 4.477494717 0.9349892735 
-8.053828239 -14.33998489 4.546401024 0.9340225458 
-4.486918926 -12.94148922 3.786325932 0.9447416663 
-3.879956007 -13.03806591 3.760310888 0.9451107383 
-3.240453959 -12.97482395 3.696793318 0.9460123777 
-2.636953115 -12.99217701 3.66465044 0.9464690089 
-0.8768945336 -13.11840343 3.634406328 0.946898818 
-0.2922412157 -13.13403797 3.631534576 0.9469396472 
0.2926464677 -13.14967728 3.63586092 0.9468781352 
0.8800927401 -13.16539001 3.647426367 0.9467137456 
1.471772432 -13.1751318 3.66465044 0.9464690089 
2.05953598 -13.11659145 3.670238972 0.9463895559 
3.304238319 -13.23021984 3.769561291 0.9449794888 
7.493485928 -13.34228039 4.230084896 0.9384685755 
11.70673275 -14.19204044 5.085567951 0.9264926314 
12.64117432 -14.00592518 5.215411186 0.9246883988 
13.85221386 -14.03831768 5.451752663 0.9214132428 
16.65767097 -14.11833 6.036082745 0.9133654833 
29.13866234 -18.65988731 9.564838409 0.8662375808 
68.92658234 33.62644577 21.1998558 0.7274053097 
70.24703217 38.22864532 22.10759544 0.717559576 
70.36000061 42.45219803 22.71559334 0.7110396624 
31.18979454 95.41355133 27.7485714 0.659293294 
26.91417503 96.70665741 27.7485714 0.659293294 
22.58610344 97.80806732 27.7485714 0.659293294 
18.21245575 98.71603394 27.7485714 0.659293294 
-50.65682983 96.11769104 30.03396606 0.6370563507 
-8.154071808 -14.22047806 4.531348705 0.9342336655 
-7.458237171 -14.46229458 4.498108864 0.9346999526 
-4.005532265 -13.03471184 3.76947093 0.9449807405 
-1.571792006 -13.01945782 3.62509799 0.9470311999 
-0.9940820336 -13.11526299 3.635846138 0.9468783736 
2.543417931 -13.12953091 3.696864128 0.9460113645 
3.789941311 -13.16287613 3.786430836 0.9447401762 
4.465961933 -13.26130295 3.868108034 0.9435824156 
5.84045887 -13.2980566 4.014892578 0.9415054321 
6.530439377 -13.23617172 4.07997036 0.9405860305 
7.335707664 -13.3380518 4.207878113 0.9387815595 
8.141913414 -13.35962391 4.324779987 0.9371353388 
13.80759525 -14.24438953 5.483853817 0.9209692478 
15.13485813 -14.28372574 5.752722263 0.9172593355 
18.10147858 -14.26680183 6.371120453 0.9087828994 
19.86260605 -14.26951599 6.7606287 0.9034841657 
21.59796906 -14.10344696 7.130482197 0.8984813094 
73.42124176 31.08420563 22.03979492 0.7182902694 
39.69430923 90.37927246 27.28691673 0.6638785601 
27.77433014 96.46311951 27.7485714 0.6592933536 
19.09084892 98.54994202 27.7485714 0.659293294 
10.25540543 99.85677338 27.7485714 0.659293294 
5.201835632 89.82199097 24.87105942 0.6883987188 
-8.778940201 -13.57552719 4.468977928 0.9351088405 
-8.254355431 -14.10310555 4.517169476 0.9344325066 
-6.368046761 -15.22972107 4.563155651 0.9337876439 
-2.289160013 -13.05794907 3.664651155 0.9464689493 
-1.699433565 -13.09640121 3.650583744 0.9466688633 
-1.111254811 -13.11212349 3.637573957 0.9468538165 
-0.5259863138 -13.12778282 3.631820202 0.9469355941 
0.05846679583 -13.14340782 3.633265495 0.9469150901 
0.6446630955 -13.15909195 3.641926527 0.9467919469 
1.234716773 -13.1748724 3.657884836 0.9465651512 
1.822973609 -13.13114738 3.66465044 0.9464690089 
2.421704054 -13.12626934 3.689728022 0.946112752 
3.053603411 -13.22352028 3.751571178 0.9452347159 
3.684897423 -13.24040508 3.799142599 0.9445598722 
5.00357914 -13.2756834 3.921792269 0.9428222775 
5.698242188 -13.29425716 3.998279095 0.9417402148 
7.179643631 -13.33388138 4.186243057 0.9390864968 
7.977143288 -13.35520935 4.300206661 0.9374811649 
10.26391602 -14.15345669 4.832921982 0.9300134182 
11.12515068 -13.98697758 4.940322876 0.9285151362 
17.83525085 -14.31604958 6.321997166 0.9094533324 
19.63202667 -14.3706398 6.725439072 0.9039615989 
21.13780785 -14.07281208 7.019627571 0.8999778628 
37.13607788 -16.11335373 11.19020939 0.8453558683 
70.43087769 45.10270309 23.11911964 0.7067451477 
37.06937027 93.28672028 27.7485714 0.659293294 
28.63143921 96.21222687 27.7485714 0.6592932343 
19.96688461 98.37619019 27.7485714 0.659293294 
14.24138641 90.70166016 25.37994385 0.6831608415 
-48.47102737 96.07901764 29.7475071 0.6398019195 
-7.872397423 -13.18011189 4.243803501 0.9382753372 
-7.763749599 -14.41867161 4.526816845 0.934297204 
-7.090278149 -14.69935513 4.511341095 0.9345143437 
-6.29339838 -14.68275356 4.415873528 0.9358546734 
-4.258706093 -13.02793407 3.788840055 0.9447060227 
-3.60825181 -12.96498966 3.720116138 0.9456812143 
-2.405244112 -13.03706551 3.66465044 0.9464690089 
-1.817729473 -13.09323692 3.654069424 0.9466193318 
-1.228549719 -13.10898876 3.639592409 0.9468251467 
-0.642983377 -13.12464809 3.632394075 0.9469274282 
-0.05846191198 -13.1402874 3.632400036 0.9469273686 
0.5271191001 -13.15595627 3.639613152 0.946824789 
1.706079006 -13.1468401 3.66465044 0.9464690089 
2.911284208 -13.13936996 3.7202003 0.9456800222 
4.86780262 -13.27204514 3.907769442 0.943020761 
5.557182312 -13.29047775 3.982116222 0.9419687986 
6.274609089 -13.30967712 4.067540646 0.9407615066 
7.025160789 -13.32975101 4.165155888 0.9393838644 
7.772275448 -13.27944279 4.253350258 0.9381408095 
8.64805603 -13.37315845 4.402358055 0.9360445738 
10.06911087 -14.14823723 4.800333023 0.9304686189 
11.07025337 -14.17501926 4.97175312 0.9280771017 
12.14756298 -14.20383263 5.166441441 0.9253684282 
14.59011173 -14.26915455 5.641338825 0.9187944531 
70.36904907 39.93492126 22.36623955 0.7147788405 
70.40695953 44.20822144 22.98111534 0.7082108855 
23.60420418 91.05597687 26.00254822 0.6768038273 
14.87114239 89.50335693 25.08056068 0.686236918 
7.586752892 100.094902 27.7485714 0.659293294 
-47.51662445 96.30864716 29.68652344 0.6403879523 
-7.764570236 -12.74050236 3.977896452 0.9401037097 
-7.864990234 -14.30034637 4.351256847 0.9346694946 
-4.359438419 -12.9448967 3.641737938 0.9450234771 
-3.138007641 -13.05791473 3.58053112 0.9459220171 
-0.759907186 -13.12152767 3.504234791 0.9470432401 
-0.1743115187 -13.0568409 3.48143816 0.9473785162 
0.4098339677 -13.15281677 3.508417606 0.9469817281 
0.9980712533 -13.16854 3.520980358 0.9467970729 
2.193242073 -13.20051193 3.567680836 0.946110785 
2.805239201 -13.21687984 3.602293968 0.945602417 
3.430468559 -13.23360825 3.644873381 0.9449774623 
4.04706049 -13.16975021 3.673280954 0.9445607066 
6.128656864 -13.30576611 3.905718088 0.941157937 
8.477290154 -13.36860275 4.220446587 0.9365698099 
9.352529526 -13.39200687 4.354993343 0.9346152544 
11.92541504 -14.19789028 4.943472385 0.9261142612 
14.32569504 -14.2620945 5.389503002 0.9197226167 
18.93572044 -14.38539505 6.340136528 0.9062466621 
20.5524559 -14.21753407 6.662890434 0.9017164111 
68.94765472 34.39941025 20.5432415 0.7268926501 
70.36219788 39.10708618 21.46229362 0.7165934443 
40.14959717 96.0220108 27.7485714 0.6499537826 
32.64202881 88.99802399 25.27360725 0.6754160523 
24.02274323 89.38863373 24.67793083 0.6816939116 
22.51408195 101.6136093 27.7485714 0.6499538422 
11.49666023 88.59489441 23.81862831 0.6908492446 
7.517363071 88.7013092 23.73373032 0.6917605996 
-52.18903732 96.92425537 29.34929466 0.6339986324 
-18.04881287 -11.55800247 5.714170933 0.9150979519 
-8.509892464 -13.68786144 4.297158241 0.9354549646 
-8.009501457 -14.2610445 4.360817432 0.9345307946 
-7.299111366 -14.46826172 4.320518017 0.9351157546 
-3.879941225 -13.03807068 3.626777649 0.945243001 
-2.652909994 -13.07089329 3.555927992 0.9462834001 
-1.463666916 -13.10269547 3.515083313 0.946883738 
-0.8769286871 -13.11839294 3.505346298 0.9470269084 
-0.2922705114 -13.13402843 3.502574682 0.947067678 
0.2926220596 -13.14967251 3.506747007 0.9470063448 
1.472441316 -13.18124008 3.536151409 0.9465740323 
2.07219243 -13.19727516 3.561679363 0.9461989403 
2.681869984 -13.21358395 3.594747543 0.945713222 
3.920454025 -13.17422295 3.66465044 0.9446873069 
5.278271198 -13.28303146 3.810790062 0.9425461292 
5.983959675 -13.30189896 3.888796091 0.9414052367 
7.493505478 -13.34227467 4.079874039 0.9386163354 
8.308603287 -13.36408615 4.195511818 0.9369325042 
9.116943359 -13.30536079 4.300261497 0.9354098439 
10.0334034 -13.32986832 4.448167324 0.9332641363 
11.70667934 -14.19204521 4.904964924 0.9266681671 
13.85214615 -14.03831291 5.258141994 0.9216004014 
15.1809082 -14.07385921 5.519178391 0.9178726077 
16.90874672 -14.33118153 5.909492016 0.9123266935 
18.29495621 -14.15715313 6.167536259 0.9086786509 
20.4624939 -14.4262352 6.675085068 0.9015457034 
36.99805069 -17.24133301 10.8826561 0.8445293307 
70.34005737 38.27937317 21.35077667 0.7178353071 
70.35998535 42.45192337 21.90889549 0.7116414905 
12.29643536 88.57349396 23.84135628 0.6906055212 
8.311141968 88.6800766 23.74690437 0.6916190982 
4.917026043 100.3733978 26.79299545 0.6596693397 
-51.06538391 96.89362335 29.20122337 0.6354578733 
-6.199286938 -15.20509243 4.377865791 0.9342833757 
-4.005561352 -13.03471184 3.635615349 0.9451133013 
-3.383237123 -13.0513525 3.594679117 0.9457142353 
-2.773564339 -13.06767082 3.561625004 0.9461997151 
-2.173832893 -13.08371067 3.536110401 0.9465746284 
-0.4091406167 -13.13090324 3.502573967 0.947067678 
0.1755126864 -13.14653778 3.505356789 0.9470267892 
0.762260735 -13.16223621 3.515108347 0.9468833804 
1.353452086 -13.17805099 3.531925917 0.9466361403 
1.951528311 -13.1940527 3.555981636 0.9462826252 
2.559013605 -13.21028805 3.587514877 0.9458194375 
3.178608418 -13.22686958 3.626858711 0.9452418089 
5.109023094 -13.19814873 3.773244143 0.9430957437 
6.530395508 -13.23616695 3.935077667 0.9407289624 
8.141884804 -13.35961437 4.171198845 0.9372863173 
8.995815277 -13.38245106 4.299135208 0.9354262948 
9.849628448 -13.33099556 4.419116497 0.9336851835 
12.46919632 -14.06509972 5.011393547 0.9251380563 
15.1348629 -14.28373528 5.548437595 0.9174557328 
16.49425507 -14.23404312 5.808674335 0.9137559533 
17.95071411 -14.14794445 6.093691349 0.9097211361 
36.11819839 -17.2241745 10.66852188 0.8473419547 
72.33848572 30.62563896 20.94363785 0.7223876119 
68.90569305 32.86000824 20.35322762 0.7290404439 
70.44553375 37.52807617 21.28057289 0.7186182737 
70.58071899 50.70616913 23.17045403 0.6978372931 
39.69429779 90.37870789 26.31778717 0.6645545959 
37.57181931 97.05964661 27.7485714 0.6499537826 
28.79658127 100.0148621 27.7485714 0.6499537826 
19.79331017 102.1784973 27.7485714 0.649953723 
13.09765625 88.55207062 23.8660183 0.690341115 
-46.7147789 101.4211502 29.77074242 0.629863441 
-49.95306015 96.86331177 29.05695152 0.6368829012 
-55.21069717 96.28620911 29.5919838 0.6316139102 
-7.970434189 -13.61794376 4.206885815 0.9367670417 
-7.605639458 -14.43122482 4.349200249 0.9346993566 
-6.693573952 -14.19829559 4.185027122 0.9370850325 
-6.359589577 -15.20968246 4.395310879 0.934030354 
-3.506596565 -13.0480566 3.602222443 0.9456034899 
-2.876928568 -12.98455048 3.545811892 0.9464321136 
0.6446386576 -13.15909195 3.512597322 0.9469202757 
2.421738148 -13.12627411 3.558704376 0.9462426305 
3.053574085 -13.22352505 3.618346214 0.9453667402 
5.003647327 -13.27567387 3.782531261 0.9429598451 
5.698251724 -13.29425716 3.856296539 0.9418804049 
6.421933651 -13.31360817 3.940953493 0.9406431317 
7.179643631 -13.33388138 4.037585735 0.9392328262 
7.977070332 -13.35521412 4.147490501 0.9376313686 
11.12515068 -13.98697758 4.76488781 0.9286859035 
14.85989189 -14.27638149 5.493992805 0.9182316065 
16.29229164 -14.3146925 5.782186031 0.9141318798 
17.65557861 -14.17188931 6.036082745 0.9105352163 
36.98521042 -16.04789543 10.74898624 0.8462839723 
73.9189682 30.52191734 21.32173347 0.7181590796 
70.31407928 40.73498917 21.66537094 0.7143375278 
70.55492401 49.74184418 23.01577187 0.6995153427 
39.98853302 88.89157867 25.98739624 0.6679730415 
38.4341774 96.72136688 27.7485714 0.6499538422 
34.09368515 98.33535004 27.7485714 0.649953723 
25.21881294 100.9763947 27.7485714 0.649953723 
20.70181656 101.9983215 27.7485714 0.6499536633 
13.9006443 88.53059387 23.89262581 0.690056026 
-48.85144043 96.83328247 28.91637802 0.6382746696 
-54.35152817 96.77372742 29.5919838 0.6316140294 
-6.521259785 -15.21436977 4.413269997 0.9337700009 
-4.258676529 -13.02794933 3.65429163 0.9448392391 
-2.412704945 -13.07731915 3.54542923 0.9464376569 
-0.6429492235 -13.12465286 3.503403664 0.947055459 
-0.05848632753 -13.14028263 3.503412008 0.9470553994 
2.929130793 -13.22019482 3.610160828 0.9454869628 
3.55736804 -13.23699188 3.654382467 0.9448379278 
4.1767869 -13.17321777 3.684469938 0.944396615 
7.025126934 -13.32974625 4.017242432 0.9395295382 
9.534414291 -13.39687443 4.383995056 0.9341945052 
11.07019997 -14.1750145 4.795191765 0.9282490015 
12.14761162 -14.20383263 4.982985973 0.9255462885 
13.25635719 -14.17206955 5.173799992 0.9228081107 
15.99388599 -14.3067131 5.721242428 0.9149973392 
17.52876472 -14.32844162 6.036082745 0.9105352163 
19.17879868 -14.30266094 6.378652096 0.9057048559 
20.97875977 -14.23806095 6.759744644 0.9003614187 
30.36707497 -18.69274902 9.507216454 0.8627595305 
68.96893311 35.18009949 20.64205933 0.7257782221 
70.36908722 39.93471527 21.57197762 0.7153743505 
10.93190861 21.19799232 6.358950138 0.9059820175 
39.29342651 96.37554169 27.7485714 0.649953723 
32.36080933 90.72064209 25.6800766 0.6711675525 
21.60894394 101.8099747 27.7485714 0.6499537826 
14.70549297 88.50907135 23.92119598 0.6897500157 
10.69833946 88.61624146 23.79782677 0.691072464 
6.724384785 88.72251892 23.72245979 0.6918817163 
-8.97441864 -13.35064888 4.288911819 0.9355747104 
-7.764579773 -12.74053669 3.97790122 0.9401035905 
-7.199760437 -14.59286118 4.338416576 0.9348558784 
-6.643066406 -15.12541008 4.404433727 0.9338980317 
-4.359447956 -12.9448967 3.641739607 0.9450234175 
-3.754912138 -13.04142094 3.618268728 0.9453678727 
-2.532626867 -13.07411098 3.550529957 0.9463627338 
-1.34604001 -13.1058445 3.512574196 0.9469206333 
-0.1743164062 -13.0568409 3.481438875 0.9473785162 
3.430478334 -13.23360348 3.644873381 0.9449774623 
4.732954025 -13.26844215 3.755865097 0.9433503151 
5.417143345 -13.28674316 3.825534821 0.9423303604 
6.128642559 -13.30577087 3.905718088 0.941157937 
6.872148514 -13.32565403 3.997418404 0.9398187995 
9.352539062 -13.39200687 4.354994297 0.9346152544 
10.22442818 -13.33498001 4.480061054 0.9328020811 
11.92540455 -14.19789028 4.943471432 0.9261143208 
14.32566833 -14.26208496 5.389496803 0.9197226763 
15.70167446 -14.29889584 5.662011623 0.9158391953 
17.22736549 -14.33970165 5.976000786 0.9113850594 
18.93575478 -14.38539505 6.340143681 0.9062465429 
20.5524826 -14.21753407 6.662896633 0.9017163515 
22.48200226 -14.11640358 7.077632904 0.8959282637 
78.87837982 30.93825531 22.58984375 0.7041568756 
69.26374817 30.78900719 20.20891762 0.7306758165 
40.1495018 96.02207184 27.7485714 0.649953723 
31.45630264 99.21044922 27.7485714 0.6499538422 
24.02271461 89.38863373 24.67787743 0.6816939712 
22.51408195 101.6136093 27.7485714 0.6499538422 
11.49675751 88.59487915 23.81863022 0.6908492446 
-47.55272675 98.5838089 29.18171501 0.6356503367 
-57.52079391 96.30097198 29.90649796 0.62853688 
-8.509887695 -13.68786621 4.297157764 0.9354549646 
-4.486918926 -12.94148922 3.65186739 0.9448748231 
-3.879956007 -13.03806591 3.626780033 0.945243001 
-3.260385752 -13.05464363 3.587449074 0.9458203912 
-2.652929544 -13.07088852 3.555928469 0.9462834001 
-1.463691354 -13.10270023 3.515083313 0.946883738 
-0.2922412157 -13.13403797 3.502574682 0.9470676184 
2.072206974 -13.19727993 3.56167984 0.9461988807 
3.304238319 -13.23021984 3.635701418 0.9451121092 
4.57090807 -13.18376446 3.720234632 0.9438723326 
8.308584213 -13.36407185 4.195508003 0.9369325638 
10.03337383 -13.32987309 4.448162556 0.9332641959 
13.85220718 -14.03831768 5.258154392 0.9216002226 
15.18096638 -14.07386208 5.519189358 0.9178724289 
18.29500008 -14.15715313 6.167544842 0.908678472 
22.01237488 -14.09620094 6.969006062 0.8974406719 
80.85354614 30.88542938 23.0758667 0.6988630295 
70.68834686 30.67166519 20.54410172 0.7268829942 
68.92657471 33.62607956 20.44697189 0.7279800177 
70.34004974 38.27924347 21.35076141 0.7178355455 
70.35998535 42.4518013 21.90887642 0.7116417289 
70.47954559 46.92280197 22.57432365 0.70432657 
41.00263596 95.66087341 27.7485714 0.649953723 
36.7067337 97.39011383 27.7485714 0.649953723 
32.33815002 98.92649841 27.7485714 0.6499538422 
23.41769028 101.4092178 27.7485714 0.649953723 
-47.32950592 100.3951187 29.5919857 0.6316138506 
-51.06526566 96.89362335 29.20119858 0.6354580522 
-56.34528732 96.26947021 29.73975754 0.6301663518 
-8.113481522 -14.14971638 4.348684788 0.9347068667 
-7.470034122 -14.48501396 4.345199108 0.9347574115 
-6.199326038 -15.20508766 4.37787056 0.9342833161 
-3.38320303 -13.05135727 3.594676733 0.9457142949 
-0.9940234423 -13.11526299 3.506733656 0.9470065236 
-0.4091406167 -13.13090324 3.502573967 0.947067678 
0.1755126864 -13.14653778 3.505356789 0.9470267892 
0.762260735 -13.16223621 3.515108347 0.9468833804 
1.353452086 -13.17805099 3.531925917 0.9466361403 
5.840532303 -13.29806614 3.872328043 0.9416459799 
7.335785866 -13.33807087 4.058462143 0.9389283657 
8.141919136 -13.35962868 4.17120266 0.9372861981 
8.995840073 -13.38246536 4.299139023 0.9354261756 
9.849648476 -13.33097649 4.419116497 0.9336852431 
11.49132252 -14.1862793 4.86743927 0.9272083044 
12.46919632 -14.06509972 5.011393547 0.9251380563 
17.95067406 -14.14794445 6.093681335 0.9097212553 
20.0658226 -14.41561985 6.587277889 0.9027757049 
72.33808136 30.6256485 20.94354248 0.7223887444 
68.90569305 32.86014557 20.35324097 0.7290402651 
39.69430923 90.37927246 26.31792641 0.6645531654 
13.09765625 88.55207062 23.8660183 0.690341115 
9.105761528 88.65884399 23.76197052 0.6914572716 
-46.7147789 101.4209366 29.7706871 0.6298639774 
-49.9532547 96.86331177 29.05697441 0.6368827224 
-7.970448971 -13.61803722 4.206912041 0.9367666841 
-7.605600357 -14.43124962 4.349198341 0.9346993566 
-4.131796837 -13.03133297 3.644785404 0.9449787736 
-2.293120146 -13.08051682 3.540625334 0.9465082884 
0.05846679583 -13.14341259 3.504244089 0.9470431209 
0.6446045041 -13.15909195 3.512596607 0.9469203353 
1.234780192 -13.17487717 3.527991056 0.9466939569 
2.421767473 -13.12627411 3.558703899 0.9462426305 
3.053603411 -13.22352028 3.618348122 0.9453667402 
4.307338715 -13.17671394 3.696026325 0.9442272186 
5.003647327 -13.27567387 3.782531261 0.9429598451 
7.977070332 -13.35521412 4.147490501 0.9376313686 
9.718745232 -13.40180111 4.413737774 0.9337631464 
16.29236603 -14.3146925 5.782202244 0.9141316414 
21.16173935 -14.08875656 6.778024673 0.9001058936 
30.65078735 -18.49320221 9.544125557 0.8622652888 
70.31407928 40.73498917 21.66537094 0.7143375278 
70.55492401 49.74161911 23.01573944 0.6995157003 
25.21881294 100.9763947 27.7485714 0.649953723 
20.7020607 101.9982376 27.7485714 0.6499537826 
13.90085888 88.53058624 23.89263153 0.6900559664 
-48.85144043 96.83328247 28.91637802 0.6382746696 
-54.35152817 96.77372742 29.5919838 0.6316140294 
-7.852324009 -13.14638138 4.082634926 0.9385760427 
-7.623012543 -14.15730476 4.286919594 0.9356036782 
-6.958901405 -14.42684078 4.270476341 0.9358425736 
-6.521259785 -15.21436977 4.413269997 0.9337700009 
-4.258710861 -13.02794361 3.654294014 0.9448392391 
-3.630502939 -13.04474545 3.610085726 0.9454880357 
-2.412680626 -13.07731915 3.545429945 0.9464377165 
-1.817665935 -13.09322262 3.524308205 0.9467481375 
-1.22854495 -13.1089983 3.510346889 0.9469533563 
-0.05845702812 -13.14029312 3.503410339 0.9470553398 
0.5271728635 -13.15595627 3.510368824 0.9469530582 
1.10947752 -13.09118176 3.502794504 0.9470643997 
2.929130793 -13.22019482 3.610160828 0.9454869628 
5.557114124 -13.29048824 3.840699673 0.9421085119 
8.64805603 -13.37315845 4.246025562 0.9361979365 
12.14766598 -14.20383739 4.982995033 0.9255461097 
