# .PCD v0.7 - Point Cloud Data file format
VERSION 0.7
FIELDS x y z intensities
SIZE 4 4 4 4
TYPE F F F F
COUNT 1 1 1 1
WIDTH 925
HEIGHT 1
VIEWPOINT 0 0 0 1 0 0 0
POINTS 925
DATA ascii
-0.9689404368 6.979438305 -1.269658446 0.9717668295 
-1.931762695 6.941020489 -1.298210979 0.9711412191 
-2.681635618 7.114936352 -1.370050311 0.969568789 
-3.022377968 7.051318169 -1.382344961 0.9692999125 
-3.330634594 6.904882431 -1.381343365 0.969321847 
-5.215473652 7.191928387 -1.600768089 0.9645359516 
-7.27106905 6.985546589 -1.816807151 0.9598469734 
-7.70889616 6.77314949 -1.849013209 0.9591499567 
-8.002538681 6.42353487 -1.849013209 0.9591500163 
-8.280365944 6.061181545 -1.849013209 0.9591500163 
-5.41582489 2.642133713 -1.085789442 0.975805521 
-5.506547928 2.38929677 -1.081578374 0.9758982658 
-5.61917448 2.146489143 -1.083853245 0.9758481979 
-6.983227253 1.977026343 -1.30773437 0.9709325433 
-11.05431175 1.085654259 -2.001413107 0.9558584094 
-11.1004591 -0.3953271508 -2.001413107 0.9558584094 
-10.85508251 -2.354487181 -2.001413107 0.9558584094 
-10.44514179 -3.778339863 -2.001413107 0.9558583498 
-9.611127853 -5.568017483 -2.001413107 0.9558584094 
-8.784536362 -6.797699928 -2.001413107 0.9558583498 
-7.801596642 -7.90643549 -2.001413107 0.9558584094 
-7.442319393 -8.24567318 -2.001413107 0.9558579326 
-6.278442383 -9.162841797 -2.001413107 0.9558584094 
-5.439208984 -9.684598923 -2.001413107 0.9558584094 
-5.003110409 -9.916962624 -2.001413107 0.9558582902 
-3.567153215 -10.2888813 -1.962175965 0.9567049146 
-3.063315392 -10.29388142 -1.935198188 0.9572871327 
-1.151386738 -10.30621052 -1.868584394 0.9587266445 
-0.6891259551 -10.30949688 -1.861771464 0.9588739872 
-0.229750976 -10.3126173 -1.858648658 0.9589415193 
1.617944241 -10.30421352 -1.8794204 0.9584923387 
2.090825081 -10.3015089 -1.894031048 0.9581764936 
2.57192874 -10.29807091 -1.912561297 0.9577760696 
3.063286066 -10.29388142 -1.93519783 0.9572871923 
4.086166859 -10.28303719 -1.993782759 0.9560229182 
4.556918621 -10.1297121 -2.001413107 0.9558584094 
5.003071308 -9.91697216 -2.001413107 0.9558582902 
5.439184666 -9.684589386 -2.001413107 0.955858469 
4.12099123 -4.99588871 -1.166923761 0.9740213156 
4.247251034 -4.705805779 -1.142208815 0.9745644927 
4.553222656 -4.221186638 -1.118754029 0.9750802517 
4.791098595 -4.060741901 -1.131650329 0.9747966528 
5.362621784 -4.149745941 -1.221788883 0.9728166461 
6.880234241 -4.405951977 -1.472130537 0.9673387408 
7.980434418 -4.623305798 -1.661839843 0.9632080793 
9.849301338 -5.134955883 -2.001413107 0.9558584094 
10.26670837 -4.239238262 -2.001413107 0.9558584094 
10.60286617 -3.309956074 -2.001413107 0.9558584094 
11.02138615 -1.380366206 -2.001413107 0.9558584094 
11.07187939 -0.8887304664 -2.001413107 0.9558584094 
11.10045338 -0.3953320086 -2.001413107 0.9558584094 
11.1070509 0.09885253757 -2.001413107 0.9558584094 
11.05430126 1.085654259 -2.001413107 0.955858469 
10.99507332 1.576308608 -2.001413107 0.9558584094 
10.91407204 2.063852549 -2.001413107 0.9558584094 
10.81145 2.547319174 -2.001413107 0.955858469 
10.6874361 3.02572751 -2.001413107 0.955858469 
10.54227066 3.498144388 -2.001413107 0.9558584094 
10.37623024 3.96363759 -2.001413107 0.9558584094 
10.1896286 4.421298504 -2.001413107 0.9558584094 
9.756347656 5.309443474 -2.001413107 0.9558584094 
9.298934937 5.610551834 -1.956891894 0.956818819 
8.280365944 6.061191082 -1.849013209 0.9591500163 
8.002573013 6.423530102 -1.849013209 0.9591498971 
7.708910942 6.773159027 -1.849013209 0.9591498971 
7.3999753 7.109384537 -1.849013209 0.9591498971 
6.173373699 7.76139164 -1.786928654 0.9604941607 
5.641347408 7.779203892 -1.73148036 0.9616962075 
5.269057274 8.821455002 -1.851456761 0.959097147 
4.870761395 9.04587841 -1.851204753 0.959102571 
3.190732241 9.760873795 -1.85035491 0.9591209292 
2.546869993 9.151162148 -1.711581945 0.9621280432 
1.86270988 10.09620094 -1.849894404 0.9591308832 
0.957875967 10.22059536 -1.84967649 0.9591356516 
0.5022460818 10.25263691 -1.849594831 0.9591373801 
0.04567382857 10.26447773 -1.849531651 0.959138751 
-1.883061528 7.006889343 -1.307344198 0.970941186 
-2.978549719 7.123500824 -1.391245127 0.9691053629 
-3.290229321 6.979155064 -1.390288711 0.9691262245 
-4.174477577 7.132324219 -1.489085674 0.966968894 
-5.110649109 7.180986404 -1.588148117 0.9648106098 
-5.520180702 7.068383694 -1.616005659 0.9642045498 
-6.331362247 7.403031826 -1.755231023 0.9611812234 
-7.139116287 6.982021332 -1.79929316 0.9602262974 
-7.648320198 6.841489315 -1.849013209 0.9591499567 
-7.945058346 6.494496822 -1.849013209 0.9591500163 
-5.584750652 2.190478563 -1.080929279 0.975912571 
-6.786889553 1.9868505 -1.27422595 0.9716666937 
-8.000297546 1.960278273 -1.484182715 0.9670757651 
-10.89526844 2.160908222 -2.001413107 0.9558584094 
-11.08595181 0.6915185452 -2.001413107 0.9558584094 
-11.07935047 -0.7901611328 -2.001413107 0.9558584094 
-10.96527767 -1.771757722 -2.001413107 0.9558584094 
-10.63188934 -3.215468645 -2.001413107 0.955858469 
-10.10931587 -4.60195303 -2.001413107 0.955858469 
-9.134789467 -6.319159985 -2.001413107 0.955858469 
-8.537026405 -7.106059551 -2.001413107 0.9558583498 
-8.212485313 -7.478769302 -2.001413107 0.9558583498 
-7.871645451 -7.836689472 -2.001413107 0.9558584094 
-6.359760761 -9.106591225 -2.001413107 0.9558584094 
-5.948295593 -9.380493164 -2.001413107 0.9558585286 
-5.091210842 -9.872050285 -2.001413107 0.955858171 
-4.646894455 -10.08874512 -2.001413107 0.9558584094 
-4.191860199 -10.28175259 -2.000689268 0.9558742046 
-3.162934542 -10.29294395 -1.940238118 0.9571784139 
-2.669321299 -10.29729939 -1.916753769 0.9576855302 
-2.186386585 -10.30087852 -1.89741838 0.9581032395 
-1.711938381 -10.30372047 -1.882036567 0.9584357738 
-0.7814013362 -10.30849552 -1.862772584 0.9588523507 
-0.3213818371 -10.31225109 -1.859022975 0.958933413 
0.137021482 -10.31287098 -1.858399272 0.9589470029 
1.524111271 -10.30467224 -1.876954913 0.9585456252 
1.995659113 -10.30210876 -1.890800834 0.9582462907 
2.474956036 -10.29881287 -1.908533573 0.957863152 
3.465332031 -10.28995609 -1.956419945 0.9568290114 
3.981010675 -10.28427696 -1.987075567 0.9561676383 
4.46658659 -10.16985798 -2.001413107 0.9558584094 
5.352783203 -9.732622147 -2.001413107 0.955858469 
6.196660042 -9.218344688 -2.001413107 0.9558584094 
3.981918812 -5.389330864 -1.207386732 0.9731327295 
4.368823051 -4.507065296 -1.131018996 0.9748104811 
4.722787857 -4.075624943 -1.124040723 0.9749640226 
5.242216587 -4.131679535 -1.202685952 0.9732359052 
7.737524033 -4.575034142 -1.619672656 0.9641247392 
9.803207397 -5.222412109 -2.001413107 0.9558584094 
10.02582455 -4.781152248 -2.001413107 0.9558584094 
10.41107845 -3.871142387 -2.001413107 0.955858469 
10.57297802 -3.404189348 -2.001413107 0.9558584094 
10.93200684 -1.966645479 -2.001413107 0.9558584094 
11.06353474 -0.9872167706 -2.001413107 0.9558584094 
11.06352997 0.987236321 -2.001413107 0.955858469 
10.83370113 2.450991154 -2.001413107 0.9558584094 
10.71394062 2.930497885 -2.001413107 0.9558584094 
10.57298279 3.404189348 -2.001413107 0.9558584094 
10.02581501 4.781152248 -2.001413107 0.9558584094 
9.803207397 5.222407341 -2.001413107 0.9558584094 
9.480199814 5.605439186 -1.984460115 0.9562240243 
8.629389763 5.634926796 -1.857027888 0.9589763284 
8.059389114 6.352060318 -1.849013209 0.9591500163 
7.142241001 7.368237019 -1.849013209 0.9591500163 
6.108036995 8.266923904 -1.852062821 0.959084034 
5.733374119 8.529135704 -1.851778626 0.9590901732 
5.347504616 8.7744627 -1.851508856 0.9590959549 
4.545253754 9.212558746 -1.851014256 0.9591066837 
4.130454063 9.404486656 -1.850790262 0.9591115117 
3.707587719 9.577846527 -1.850582361 0.9591160417 
3.277534008 9.732284546 -1.85039103 0.9591201544 
2.841093779 9.86751461 -1.850216746 0.9591239691 
2.399125814 9.983285904 -1.850059628 0.9591273069 
1.502109289 10.15557575 -1.84979856 0.9591329694 
-0.3196777403 10.25939465 -1.849494576 0.9591395855 
-0.5468505621 7.215195179 -1.303804874 0.9710186124 
-0.8493554592 7.035326958 -1.276872039 0.9716086984 
-1.165610313 7.015512466 -1.281426072 0.9715089202 
-1.482592702 6.985234261 -1.286678433 0.9713938236 
-2.106933594 6.856274128 -1.292422771 0.9712679982 
-2.506655216 7.027172565 -1.344344616 0.9701310992 
-3.695629835 7.166118145 -1.452830315 0.9677600265 
-4.087026119 7.127685547 -1.480465055 0.9671569467 
-4.452035904 7.020785809 -1.4979527 0.9667754769 
-5.4116745 7.058042049 -1.602564096 0.9644969106 
-6.097602367 7.259541035 -1.708272815 0.9621998668 
-6.623071194 7.208110332 -1.763813615 0.9609950185 
-7.009663105 6.978554726 -1.782252669 0.9605954885 
-7.587119102 6.909296513 -1.849013209 0.9591499567 
-7.886987209 6.564941406 -1.849013209 0.9591498971 
-8.17117691 6.207597733 -1.849013209 0.9591500163 
-5.252983093 3.633832932 -1.150913954 0.9743731618 
-5.283588886 3.31755352 -1.124141097 0.9749617577 
-5.382475376 2.745532274 -1.088731408 0.9757407904 
-5.465605259 2.488046885 -1.08206284 0.9758875966 
-5.565942287 2.240473509 -1.081106544 0.975908637 
-6.598432541 1.995595694 -1.242128134 0.9723704457 
-7.697602272 1.958886623 -1.431205273 0.9682321548 
-10.96527767 1.771762609 -2.001413107 0.9558584094 
-11.03322697 1.282226562 -2.001413107 0.955858469 
-11.08595181 -0.6915380955 -2.001413107 0.9558584094 
-10.98060989 -1.674111247 -2.001413107 0.9558584094 
-10.89527321 -2.160917997 -2.001413107 0.9558584094 
-10.51071739 -3.591830969 -2.001413107 0.9558584094 
-9.939135551 -4.958857536 -2.001413107 0.9558584094 
-9.708696365 -5.396074295 -2.001413107 0.9558584094 
-9.190688133 -6.237621784 -2.001413107 0.9558584094 
-8.904126167 -6.640283108 -2.001413107 0.9558583498 
-8.599936485 -7.029794693 -2.001413107 0.9558583498 
-8.278632164 -7.405365944 -2.001413107 0.9558586478 
-7.587734222 -8.111894608 -2.001413107 0.9558584094 
-6.836713791 -8.754184723 -2.001413107 0.9558584094 
-6.440526962 -9.04963398 -2.001413107 0.955858469 
-5.178700924 -9.826347351 -2.001413107 0.955858469 
-4.284897327 -10.24774837 -2.001413107 0.9558583498 
-2.282182455 -10.3002243 -1.900963426 0.9580266476 
-1.806215763 -10.3032074 -1.884804845 0.9583759904 
-0.8742919564 -10.30736351 -1.863900065 0.958827734 
-0.4135302603 -10.31174755 -1.859522104 0.9589226246 
2.378373861 -10.29953575 -1.904667735 0.9579465985 
2.865375996 -10.29564953 -1.92563653 0.9574936628 
3.363969564 -10.29098606 -1.950847268 0.9569493532 
3.876655102 -10.28548813 -1.980564237 0.9563080072 
4.375913143 -10.20919418 -2.001413107 0.955858469 
4.825761795 -10.00444317 -2.001413107 0.9558583498 
5.265971661 -9.779868126 -2.001413107 0.955858469 
5.695795536 -9.535937309 -2.001413107 0.955858469 
6.114369869 -9.273129463 -2.001413107 0.9558584094 
4.337783337 -4.555473328 -1.133435607 0.9747573733 
4.490448952 -4.31412077 -1.122021198 0.9750084281 
5.122748852 -4.111958027 -1.183627129 0.973654449 
6.502328873 -4.32904768 -1.407538056 0.9687491655 
9.756347656 -5.30943346 -2.001413107 0.9558584094 
9.982875824 -4.870185375 -2.001413107 0.9558584094 
10.37622547 -3.963647366 -2.001413107 0.9558584094 
10.54227066 -3.498149395 -2.001413107 0.9558584094 
10.6874361 -3.02572751 -2.001413107 0.955858469 
11.09164524 -0.5928271413 -2.001413107 0.955858469 
11.10704517 -0.09884765744 -2.001413107 0.955858469 
11.10045338 0.3953320086 -2.001413107 0.9558584094 
11.07187939 0.8887255788 -2.001413107 0.9558584094 
11.02139091 1.380361319 -2.001413107 0.9558584094 
10.85508251 2.354472637 -2.001413107 0.9558584094 
10.60285664 3.309965849 -2.001413107 0.9558584094 
10.44512177 3.778334856 -2.001413107 0.9558584094 
10.06802177 4.691742897 -2.001413107 0.9558582306 
9.849271774 5.134951115 -2.001413107 0.9558585286 
9.611123085 5.568007469 -2.001413107 0.9558584094 
8.783730507 5.624892235 -1.879413605 0.9584925175 
8.386928558 5.912861347 -1.849013209 0.9591500163 
8.115600586 6.280092716 -1.849013209 0.9591499567 
7.2075243 7.304389477 -1.849013209 0.9591500163 
6.18157196 8.212490082 -1.852121234 0.9590827227 
5.425522327 8.726777077 -1.851561666 0.959094882 
4.379946232 7.798578739 -1.611650705 0.964299202 
4.627172947 9.171977043 -1.851060867 0.9591056705 
4.214067459 9.367577553 -1.850833654 0.9591106176 
3.792763472 9.544677734 -1.850622535 0.9591151476 
2.928852558 9.842011452 -1.850250244 0.9591232538 
2.042153358 10.06173325 -1.849946737 0.9591298103 
0.6846679449 10.24224091 -1.84962523 0.9591367245 
0.228364259 10.26216793 -1.849554658 0.9591382742 
-0.4843603373 7.245830059 -1.308510065 0.970915556 
-0.7801708579 6.98404789 -1.266254187 0.9718413949 
-2.437382698 7.030077934 -1.340698719 0.9702109098 
-2.823120117 7.104501724 -1.377500415 0.9694058895 
-4.01718235 7.15265131 -1.478164434 0.9672071338 
-4.348417759 6.994243145 -1.48397398 0.9670804143 
-5.965429783 7.23188448 -1.689205647 0.9626137614 
-6.523305416 7.227572918 -1.754303217 0.9612012506 
-7.525297642 6.97654295 -1.849013209 0.9591500163 
-5.270546913 3.715781212 -1.161963344 0.9741303325 
-5.310805321 3.076704025 -1.105917096 0.9753625989 
-5.365463734 2.797299623 -1.090281844 0.9757066965 
-5.448246956 2.538915873 -1.083057404 0.9758657217 
-5.546420574 2.290175676 -1.081230164 0.9759058952 
-5.742114067 2.077109337 -1.100258946 0.975487113 
-10.94907665 1.869277358 -2.001413107 0.9558584094 
-11.07188988 0.8887304664 -2.001413107 0.9558584094 
-11.10045338 0.3953320086 -2.001413107 0.9558584094 
-11.10705566 -0.09884765744 -2.001413107 0.9558584094 
-11.05431175 -1.085659146 -2.001413107 0.9558584094 
-10.91406727 -2.063862324 -2.001413107 0.9558584094 
-10.81145 -2.547328949 -2.001413107 0.955858469 
-10.54226017 -3.498149395 -2.001413107 0.955858469 
-10.37618637 -3.96363759 -2.001413107 0.9558585286 
-10.18963337 -4.421288967 -2.001413107 0.9558584094 
-9.510493279 -5.738203049 -2.001413107 0.9558584094 
-9.24580574 -6.155570984 -2.001413107 0.955858469 
-8.662172318 -6.952992916 -2.001413107 0.9558582902 
-8.344301224 -7.331430435 -2.001413107 0.9558582902 
-8.009917259 -7.695341587 -2.001413107 0.9558582902 
-7.659531116 -8.044013023 -2.001413107 0.955858767 
-6.914355278 -8.692993164 -2.001413107 0.9558584094 
-6.114360332 -9.273129463 -2.001413107 0.955858469 
-4.825854301 -10.00444317 -2.001413107 0.955858171 
-4.375981331 -10.20920372 -2.001413107 0.9558582902 
-3.363911152 -10.29098129 -1.950846076 0.9569494128 
-2.865375996 -10.29564953 -1.925636411 0.9574936628 
-2.378398418 -10.29953575 -1.904667735 0.9579465985 
-1.900893569 -10.30267048 -1.887725472 0.9583127499 
-0.9659423828 -10.30682087 -1.865282416 0.9587981105 
-0.5053857565 -10.31112766 -1.860146642 0.9589090943 
1.806245089 -10.30321312 -1.884804606 0.9583759308 
2.767123938 -10.29649353 -1.921111107 0.9575913548 
3.772846699 -10.2866497 -1.974244595 0.9564443827 
4.284887791 -10.24774361 -2.001413107 0.9558584094 
4.736577034 -10.0469923 -2.001413107 0.9558582902 
3.974287033 -5.584296703 -1.235019922 0.9725263715 
4.055624962 -5.19308567 -1.187262654 0.9735745788 
4.162763596 -4.867387772 -1.154035449 0.9743045568 
4.307582855 -4.605136395 -1.136208534 0.9746964574 
4.460238934 -4.362089634 -1.124128342 0.9749620557 
4.626582146 -4.138525486 -1.118498445 0.9750858545 
4.986718655 -4.076264381 -1.160532236 0.9741618037 
5.619413853 -4.190702915 -1.26309967 0.9719105959 
6.341049671 -4.303608418 -1.380862951 0.9693322778 
7.317152977 -4.504150391 -1.54821682 0.9656799436 
10.34054184 -4.05581522 -2.001413107 0.9558584094 
10.66008282 -3.120722532 -2.001413107 0.955858469 
10.78835392 -2.643432617 -2.001413107 0.955858469 
10.89526844 -2.160912991 -2.001413107 0.9558584094 
10.98060989 -1.674106359 -2.001413107 0.9558584094 
11.08594704 -0.6915136576 -2.001413107 0.9558584094 
11.10573196 -0.1976855397 -2.001413107 0.9558584094 
11.07935047 0.7901660204 -2.001413107 0.9558584094 
11.03324223 1.28223145 -2.001413107 0.9558584094 
10.87560558 2.257787943 -2.001413107 0.9558584094 
10.76440907 2.739326 -2.001413107 0.9558584094 
10.63189411 3.21545887 -2.001413107 0.9558584094 
10.30402851 4.147695065 -2.001413107 0.9558584094 
9.894545555 5.047104359 -2.001413107 0.9558585882 
9.660287857 5.482260704 -2.001413107 0.9558584094 
8.951010704 5.620268345 -1.904405355 0.9579520226 
8.439228058 5.837968826 -1.849013209 0.9591500163 
7.886957645 6.564955711 -1.849013209 0.9591499567 
7.587113857 6.909301758 -1.849013209 0.9591499567 
6.94298315 7.556283951 -1.849013209 0.9591500163 
6.612363338 7.87240696 -1.852483273 0.9590749145 
6.25460434 8.157422066 -1.852180243 0.959081471 
5.438842773 7.787836552 -1.711581707 0.9621278048 
5.110922813 8.913349152 -1.851354003 0.9590993524 
4.708730221 9.13066864 -1.851108193 0.9591046572 
3.877651215 9.510751724 -1.850663424 0.9591142535 
3.45036602 9.672792435 -1.850465536 0.9591186047 
2.576528311 9.939326286 -1.850120306 0.9591260552 
-1.027583003 6.947338581 -1.265432 0.9718594551 
-1.999370098 6.944077015 -1.302059293 0.9710569382 
-2.761108398 7.132749081 -1.378157496 0.9693914652 
-3.467895508 7.02888155 -1.412267923 0.9686458707 
-3.9262743 7.138837814 -1.468032241 0.9674282074 
-4.306499004 7.066318035 -1.491073847 0.9669255018 
-4.783588886 7.116240025 -1.545022368 0.9657496214 
-5.290863991 7.160898209 -1.604281545 0.9644595385 
-5.751547813 7.100385666 -1.646469355 0.9635421634 
-6.809076786 7.024536133 -1.762763143 0.9610178471 
-7.768852234 6.704282284 -1.849013209 0.9591500163 
-8.333959579 5.987260818 -1.849013209 0.9591500759 
-5.268369198 3.440234184 -1.133752942 0.9747503996 
-5.304394245 3.136367083 -1.110351443 0.9752650857 
-5.526625633 2.339785099 -1.081387401 0.9759024382 
-5.680258751 2.112084866 -1.09196651 0.9756696224 
-7.174072266 1.962270498 -1.340148568 0.9702228904 
-8.643886566 1.955571294 -1.596866846 0.964620769 
-10.93201637 1.966630816 -2.001413107 0.9558584094 
-11.00866699 1.47838378 -2.001413107 0.9558584094 
-11.09650326 0.4941064417 -2.001413107 0.9558584094 
-11.10749531 0 -2.001413107 0.9558584094 
-11.06352997 -0.9872216582 -2.001413107 0.955858469 
-11.00866699 -1.478398442 -2.001413107 0.9558584094 
-10.83370113 -2.451005697 -2.001413107 0.9558584094 
-10.7139349 -2.93050766 -2.001413107 0.955858469 
-10.22857857 -4.330434322 -2.001413107 0.9558584094 
-9.5611763 -5.653329849 -2.001413107 0.955858469 
-9.300229073 -6.073056698 -2.001413107 0.955858469 
-8.723695755 -6.875624657 -2.001413107 0.9558582902 
-8.078065872 -7.623764515 -2.001413107 0.9558583498 
-7.368344784 -8.311542511 -2.001413107 0.955858767 
-6.991455078 -8.631108284 -2.001413107 0.9558584094 
-6.196655273 -9.218349457 -2.001413107 0.9558584094 
-5.780424595 -9.484877586 -2.001413107 0.955858469 
-4.91455555 -9.961103439 -2.001413107 0.9558584094 
-4.466664791 -10.16986275 -2.001413107 0.9558582902 
-3.981025219 -10.28427219 -1.987076044 0.9561676383 
-3.465229511 -10.2899456 -1.956420541 0.9568291306 
-2.964086771 -10.29478455 -1.93033123 0.9573922753 
-1.995507717 -10.30210876 -1.890800595 0.9582464099 
-1.524111271 -10.30466747 -1.876955271 0.9585456848 
-0.5978710651 -10.31037617 -1.860896468 0.9588927627 
-0.1377880871 -10.31287098 -1.858399034 0.9589469433 
1.244262695 -10.30586433 -1.870455623 0.958686173 
1.712026358 -10.30372524 -1.882036686 0.9584357142 
2.669316292 -10.29730415 -1.916753531 0.9576854706 
3.163002968 -10.29294872 -1.940237999 0.9571783543 
4.646889687 -10.08875465 -2.001413107 0.9558584094 
5.091127872 -9.872045517 -2.001413107 0.9558583498 
4.031459808 -5.257944107 -1.193840504 0.9734301567 
4.141889572 -4.93116188 -1.160368919 0.97416538 
4.277563572 -4.655429363 -1.139175892 0.9746311903 
4.882231236 -4.063871861 -1.144587636 0.9745122194 
6.188139439 -4.280751705 -1.355805635 0.9698802829 
7.082758427 -4.447250843 -1.506934047 0.9665796161 
9.660302162 -5.48225069 -2.001413107 0.9558584094 
9.894598961 -5.04709959 -2.001413107 0.955858469 
10.10932064 -4.601957798 -2.001413107 0.9558584094 
10.63188934 -3.21545887 -2.001413107 0.955858469 
10.76439953 -2.739331007 -2.001413107 0.955858469 
10.87560558 -2.257787943 -2.001413107 0.9558584094 
10.9652729 -1.771757722 -2.001413107 0.955858469 
11.03323746 -1.282236338 -2.001413107 0.9558584094 
11.07935047 -0.7901611328 -2.001413107 0.9558584094 
11.1057272 0.1977050751 -2.001413107 0.955858469 
11.04421329 1.183994055 -2.001413107 0.9558584094 
10.89526844 2.160912991 -2.001413107 0.9558584094 
10.14987755 4.511811256 -2.001413107 0.9558584094 
9.939115524 4.958847523 -2.001413107 0.955858469 
9.708681107 5.396064281 -2.001413107 0.955858469 
9.122572899 5.615488052 -1.930218101 0.9573946595 
8.226103783 6.134633541 -1.849013209 0.9591500163 
7.64831543 6.841494083 -1.849013209 0.9591499567 
5.580327034 8.629325867 -1.851668954 0.9590924978 
4.5658741 7.801078796 -1.628705263 0.9639282823 
2.220996141 10.02408695 -1.850001812 0.9591286182 
1.772768497 10.11224079 -1.84986937 0.9591314197 
1.321098566 10.18045902 -1.84975493 0.9591339231 
0.8668701053 10.22861767 -1.849658608 0.9591360092 
0.4109911919 10.25662041 -1.849580765 0.9591376781 
-0.04566894472 10.2644186 -1.849521279 0.9591389894 
-0.9689501524 6.979438305 -1.269657612 0.9717668295 
-1.299956083 7.045922756 -1.29100275 0.9712990522 
-2.681645393 7.114936352 -1.370051384 0.969568789 
-3.022377968 7.051318169 -1.3823452 0.9692999125 
-3.330639601 6.904877663 -1.381342649 0.969321847 
-5.215468407 7.191923618 -1.600767374 0.9645360112 
-5.676826 7.137114048 -1.643203139 0.9636132121 
-6.351352215 7.293998718 -1.742705941 0.9614527225 
-8.00255394 6.423510551 -1.849013209 0.9591500163 
-8.280380249 6.061176777 -1.849013209 0.9591499567 
-5.332827091 2.90213871 -1.093972445 0.9756254554 
-5.41582489 2.642123938 -1.085788965 0.9758055806 
-5.506552696 2.38929677 -1.081578374 0.9758982658 
-6.07391119 2.015454054 -1.153111219 0.974324882 
-8.299965858 1.955571294 -1.53648591 0.9659355283 
-10.91407681 2.063867092 -2.001413107 0.9558584094 
-10.99507332 1.576318383 -2.001413107 0.9558584094 
-11.05432129 1.085664034 -2.001413107 0.9558583498 
-11.1004591 -0.3953564465 -2.001413107 0.9558584094 
-10.739604 -2.835043907 -2.001413107 0.9558584094 
-10.60285091 -3.309965849 -2.001413107 0.955858469 
-10.4451313 -3.778344631 -2.001413107 0.9558584094 
-10.26670361 -4.239238262 -2.001413107 0.9558584094 
-10.06796837 -4.691738129 -2.001413107 0.9558584094 
-9.849291801 -5.134951115 -2.001413107 0.955858469 
-9.078198433 -6.400195122 -2.001413107 0.955858469 
-8.145570755 -7.551542759 -2.001413107 0.955858469 
-7.442113876 -8.245668411 -2.001413107 0.955858469 
-6.679819107 -8.874482155 -2.001413107 0.9558584094 
-6.278432369 -9.162846565 -2.001413107 0.9558584094 
-5.86461401 -9.433066368 -2.001413107 0.9558584094 
-5.439204216 -9.684609413 -2.001413107 0.9558584094 
-5.002973557 -9.916976929 -2.001413107 0.955858469 
-3.567153215 -10.2888813 -1.962176323 0.9567049146 
-2.571918964 -10.29807568 -1.912561893 0.9577760696 
-2.090873957 -10.3015089 -1.894031644 0.958176434 
-1.15124023 -10.30621529 -1.868584871 0.9587266445 
-0.6894775033 -10.30949211 -1.861771822 0.9588739276 
-0.2300634682 -10.31263161 -1.858648658 0.9589414597 
1.617934585 -10.30420876 -1.879420757 0.9584923387 
2.090834856 -10.30149841 -1.894031525 0.9581764936 
2.571938515 -10.29808044 -1.912561774 0.9577760696 
3.063290834 -10.29387188 -1.935198307 0.9572871923 
4.086166859 -10.28303719 -1.993782759 0.9560229182 
4.556918621 -10.1297121 -2.001413107 0.9558584094 
5.003002644 -9.916976929 -2.001413107 0.9558584094 
5.43924284 -9.684604645 -2.001413107 0.9558583498 
5.864624023 -9.4330616 -2.001413107 0.9558584094 
4.006889343 -5.323364258 -1.200548887 0.9732828736 
4.399575233 -4.45869112 -1.128662705 0.9748623371 
4.553232193 -4.221181393 -1.118753672 0.9750802517 
4.791108131 -4.060737133 -1.131652713 0.9747965932 
6.03646946 -4.255756855 -1.330822468 0.9704270363 
10.06796837 -4.69173336 -2.001413107 0.9558584094 
10.26670837 -4.239238262 -2.001413107 0.9558584094 
10.85507298 -2.354496956 -2.001413107 0.955858469 
10.94907188 -1.869291902 -2.001413107 0.9558584094 
11.07187939 -0.8887060285 -2.001413107 0.955858469 
11.09165955 0.5928564072 -2.001413107 0.9558584094 
11.05431175 1.085659146 -2.001413107 0.9558584094 
10.99507332 1.576318383 -2.001413107 0.9558584094 
10.54227066 3.498144388 -2.001413107 0.9558584094 
10.18963337 4.421284199 -2.001413107 0.9558584094 
9.2989645 5.610546589 -1.956895113 0.9568187594 
8.002543449 6.42355442 -1.849013209 0.9591499567 
7.399965763 7.109384537 -1.849013209 0.9591498971 
7.076372147 7.431523323 -1.849013209 0.9591499567 
5.657065392 8.579574585 -1.851723552 0.9590913653 
4.870761395 9.04587841 -1.851204753 0.959102571 
4.046504021 9.440649033 -1.850747347 0.9591124654 
2.546879768 9.151181221 -1.711581945 0.9621279836 
2.310170889 10.00407696 -1.850030303 0.9591279626 
1.862685561 10.09620094 -1.849894404 0.9591309428 
1.411635756 10.16841316 -1.849776387 0.9591335058 
0.9578515291 10.22059536 -1.84967649 0.9591356516 
0.5022314191 10.25263119 -1.849594831 0.9591374397 
0.04566894472 10.26447201 -1.849531651 0.9591388106 
-0.4109716713 10.25610352 -1.849487066 0.9591397047 
-0.9110937119 7.020981312 -1.275689006 0.9716346264 
-1.237338781 7.058105469 -1.291165709 0.971295476 
-1.560175776 7.041625977 -1.299571514 0.9711112976 
-1.883061528 7.006889343 -1.307344198 0.970941186 
-2.978539944 7.123510361 -1.391245365 0.9691053629 
-4.174458027 7.132328987 -1.489085555 0.966968894 
-4.595678806 7.106645584 -1.524938226 0.9661871791 
-5.110668659 7.180991173 -1.588150859 0.9648105502 
-5.520200253 7.068378925 -1.616004586 0.9642045498 
-7.139125824 6.9820261 -1.799295306 0.9602262378 
-7.648320198 6.841489315 -1.849013209 0.9591499567 
-7.945058346 6.494496822 -1.849013209 0.9591500163 
-8.226118088 6.134643555 -1.849013209 0.9591498971 
-5.290791035 3.25679183 -1.119462132 0.9750646353 
-5.324535847 2.959355354 -1.097632289 0.9755449295 
-5.399272442 2.693813324 -1.087233901 0.9757737517 
-5.486210823 2.438720703 -1.081803679 0.9758933187 
-5.923774242 2.024345636 -1.127984762 0.9748772383 
-6.786840439 1.9868505 -1.274218798 0.9716668725 
-11.1057415 0.1976855397 -2.001413107 0.9558584094 
-11.03324699 -1.282226562 -2.001413107 0.9558584094 
-10.96527767 -1.771757722 -2.001413107 0.9558584094 
-10.63189888 -3.215463877 -2.001413107 0.9558584094 
-10.4783392 -3.685214758 -2.001413107 0.9558584094 
-10.10933113 -4.601943493 -2.001413107 0.9558584094 
-9.894594193 -5.047114372 -2.001413107 0.9558584094 
-9.134795189 -6.319179535 -2.001413107 0.9558584094 
-8.844682693 -6.719272137 -2.001413107 0.9558582902 
-8.536987305 -7.106059551 -2.001413107 0.955858469 
-7.515336514 -8.179116249 -2.001413107 0.9558581114 
-7.143979549 -8.505307198 -2.001413107 0.9558583498 
-6.359760761 -9.106591225 -2.001413107 0.9558584094 
-5.948295593 -9.380493164 -2.001413107 0.9558585286 
-5.091069221 -9.872045517 -2.001413107 0.955858469 
-4.191889763 -10.28175735 -2.000691175 0.955874145 
-3.162909985 -10.29294872 -1.940236926 0.9571784735 
-0.7817138433 -10.30850029 -1.862772584 0.9588522315 
1.058505893 -10.30653286 -1.866860271 0.958763957 
1.524111271 -10.30467224 -1.876954913 0.9585456252 
1.995649338 -10.302104 -1.890800476 0.9582463503 
2.964013577 -10.29477978 -1.930331111 0.9573923349 
3.465297699 -10.28995609 -1.956418872 0.9568290114 
3.98098135 -10.28427219 -1.987074137 0.9561676979 
4.914682388 -9.961088181 -2.001413107 0.9558582902 
5.780473709 -9.48486805 -2.001413107 0.9558584094 
4.099721432 -5.061186314 -1.173607826 0.9738745093 
4.216997147 -4.756713867 -1.145412087 0.9744940996 
10.02581501 -4.78116703 -2.001413107 0.9558584094 
10.22858334 -4.330414772 -2.001413107 0.9558584094 
10.57299328 -3.404169798 -2.001413107 0.9558584094 
10.9320116 -1.966630816 -2.001413107 0.9558584094 
11.00866699 -1.478393555 -2.001413107 0.9558584094 
11.06353474 -0.9872167706 -2.001413107 0.9558584094 
11.00866699 1.478388667 -2.001413107 0.9558584094 
10.41107845 3.871161938 -2.001413107 0.9558584094 
10.22856426 4.330453873 -2.001413107 0.9558584094 
9.48017025 5.605439186 -1.984456539 0.9562241435 
8.629673004 5.634931564 -1.857025862 0.9589754343 
8.333974838 5.987260818 -1.849013209 0.9591500163 
8.059389114 6.352060318 -1.849013209 0.9591500163 
7.768867016 6.704287052 -1.849013209 0.9591499567 
7.462944031 7.043237209 -1.849013209 0.9591499567 
7.142241001 7.368237019 -1.849013209 0.9591500163 
6.807397366 7.678657055 -1.849013209 0.9591500163 
6.470776081 7.988310337 -1.852360487 0.9590775967 
6.108051777 8.266919136 -1.852062821 0.9590839744 
4.545229435 9.212563515 -1.851014256 0.9591067433 
4.130429745 9.404497147 -1.850790262 0.9591115117 
3.707577944 9.577846527 -1.850582242 0.9591160417 
2.841078997 9.86751461 -1.850216746 0.9591239691 
2.399121046 9.983281136 -1.850059628 0.9591273665 
1.952504873 10.07936001 -1.849920154 0.9591304064 
0.1370263696 10.26373005 -1.849542856 0.9591385126 
-0.3196630776 10.25938988 -1.849494576 0.9591395855 
-0.5468505621 7.215199947 -1.303805828 0.9710185528 
-1.832075119 7.067465782 -1.315552831 0.9707614183 
-2.506684542 7.027216434 -1.344353914 0.9701309204 
-2.919692278 7.16109848 -1.393457294 0.9690569639 
-3.23229003 7.01748991 -1.39214015 0.969085753 
-3.69563961 7.166118145 -1.45283103 0.9677600265 
-4.08704567 7.127695084 -1.480466247 0.9671568871 
-4.452035904 7.020785809 -1.4979527 0.9667754769 
-5.092534065 7.292060375 -1.602623224 0.9644955993 
-6.623071194 7.208110332 -1.763813615 0.9609950185 
-7.009663105 6.978554726 -1.782252669 0.9605954885 
-5.252983093 3.633862257 -1.150916457 0.9743731022 
-5.382490158 2.745517492 -1.088730931 0.9757407904 
-5.465605259 2.488037109 -1.08206284 0.9758875966 
-5.565951824 2.240463734 -1.081106663 0.975908637 
-5.799262524 2.03959465 -1.107685447 0.9753236771 
-7.697602272 1.958886623 -1.431205273 0.9682321548 
-10.87561989 2.257787943 -2.001413107 0.9558583498 
-10.96527767 1.771762609 -2.001413107 0.9558584094 
-11.03322697 1.282226562 -2.001413107 0.955858469 
-11.10353947 0.2965283096 -2.001413107 0.9558584094 
-11.10573196 -0.1976855397 -2.001413107 0.9558584094 
-11.08594704 -0.6915185452 -2.001413107 0.9558584094 
-11.04421329 -1.183969736 -2.001413107 0.9558584094 
-10.89526844 -2.160937548 -2.001413107 0.9558584094 
-10.78835392 -2.643456936 -2.001413107 0.9558584094 
-10.51070309 -3.591855288 -2.001413107 0.955858469 
-9.708696365 -5.396074295 -2.001413107 0.9558584094 
-9.190688133 -6.237621784 -2.001413107 0.9558584094 
-8.904126167 -6.640283108 -2.001413107 0.9558583498 
-8.278632164 -7.405365944 -2.001413107 0.9558586478 
-7.587651253 -8.111869812 -2.001413107 0.9558587074 
-7.219374657 -8.441386223 -2.001413107 0.9558584094 
-6.440512657 -9.049643517 -2.001413107 0.955858469 
-6.031586647 -9.32718277 -2.001413107 0.9558584094 
-5.61058569 -9.58626461 -2.001413107 0.9558586478 
-4.284897327 -10.24774837 -2.001413107 0.9558583498 
-3.263100624 -10.29198265 -1.945453286 0.9570658803 
-2.767123938 -10.29648876 -1.921111107 0.9575914145 
-2.282182455 -10.3002243 -1.900963426 0.9580266476 
-1.806215763 -10.3032074 -1.884804845 0.9583759904 
-0.4135302603 -10.31174755 -1.859522223 0.9589226246 
1.430629849 -10.30509281 -1.874640465 0.9585956931 
1.900864244 -10.30266571 -1.887726426 0.9583127499 
2.865395546 -10.2956543 -1.925637603 0.9574936032 
3.363969564 -10.29098606 -1.950847268 0.9569493532 
3.876655102 -10.28548813 -1.980564237 0.9563080072 
4.375913143 -10.20919418 -2.001413107 0.955858469 
4.825761795 -10.00444317 -2.001413107 0.9558583498 
3.956508636 -5.455888748 -1.214360952 0.9729796648 
4.187895298 -4.809467793 -1.149091959 0.9744132161 
4.490444183 -4.314135551 -1.122021556 0.9750083685 
6.502367973 -4.329057693 -1.407545328 0.9687490463 
9.982875824 -4.870185375 -2.001413107 0.9558584094 
10.37622547 -3.963647366 -2.001413107 0.9558584094 
10.54227066 -3.498149395 -2.001413107 0.9558584094 
10.6874361 -3.02572751 -2.001413107 0.955858469 
10.81145477 -2.547319174 -2.001413107 0.9558584094 
11.05431175 -1.085659146 -2.001413107 0.9558584094 
11.09166527 -0.5928515196 -2.001413107 0.9558584094 
11.10705566 -0.09887695312 -2.001413107 0.9558584094 
11.10045338 0.3953515589 -2.001413107 0.9558584094 
11.07187939 0.8887548447 -2.001413107 0.9558584094 
11.02138138 1.380385756 -2.001413107 0.955858469 
10.94906712 1.869296789 -2.001413107 0.9558584094 
10.60285664 3.309965849 -2.001413107 0.9558584094 
10.44512177 3.778334856 -2.001413107 0.9558584094 
8.783730507 5.624892235 -1.879413605 0.9584925175 
8.386938095 5.912841797 -1.849013209 0.9591500163 
8.115614891 6.280068398 -1.849013209 0.9591500163 
7.82822752 6.634868145 -1.849013209 0.9591499567 
7.207514286 7.304404259 -1.849013209 0.9591499567 
6.181547642 8.212504387 -1.852121234 0.9590827823 
5.425522327 8.726777077 -1.851561666 0.959094882 
4.379946232 7.798578739 -1.611650705 0.964299202 
4.627172947 9.171977043 -1.851060867 0.9591056705 
3.792763472 9.544677734 -1.850622535 0.9591151476 
2.928852558 9.842011452 -1.850250244 0.9591232538 
2.042172909 10.06172848 -1.849946737 0.9591298103 
1.592465758 10.1419239 -1.849821448 0.9591324925 
1.139672875 10.2021389 -1.849714279 0.9591348171 
0.6846483946 10.24224091 -1.84962523 0.9591367245 
0.2283349484 10.26216316 -1.849554658 0.9591382742 
-0.2283837795 10.26187515 -1.849502683 0.9591394067 
-0.7801855206 6.984076977 -1.266260147 0.9718412757 
-1.101083994 7.012475491 -1.279031157 0.9715613723 
-1.427514672 7.033310413 -1.293143392 0.9712521434 
-1.767333984 7.076435566 -1.314241648 0.9707900882 
-2.055087805 6.905829906 -1.298266292 0.971140027 
-2.437382698 7.030077934 -1.340698719 0.9702109098 
-3.617055655 7.169702053 -1.446972966 0.967887938 
-4.01718235 7.15265131 -1.478164434 0.9672071338 
-4.348408222 6.994262695 -1.483975768 0.9670803547 
-5.364477634 7.126977444 -1.607311726 0.9643936157 
-6.523305416 7.227548599 -1.754300356 0.9612013102 
-6.889204025 6.981757641 -1.767345905 0.9609184861 
-7.525380611 6.976523399 -1.849013209 0.9591498375 
-7.82824707 6.6348629 -1.849013209 0.9591498971 
-8.115619659 6.280073166 -1.849013209 0.9591499567 
-5.276118279 3.37870121 -1.128904581 0.9748570323 
-5.546420574 2.290175676 -1.081230164 0.9759058952 
-5.742114067 2.077109337 -1.100258946 0.975487113 
-6.414223671 2.00237298 -1.210759759 0.9730587006 
-7.415151119 1.957455993 -1.381875277 0.9693101048 
-10.94908714 1.869291902 -2.001413107 0.9558583498 
-11.07188988 0.8887011409 -2.001413107 0.9558584094 
-11.10045338 0.3953027129 -2.001413107 0.955858469 
-11.10705566 -0.09886718541 -2.001413107 0.9558584094 
-11.05431175 -1.085659146 -2.001413107 0.9558584094 
-10.99507332 -1.576323152 -2.001413107 0.9558584094 
-10.81145 -2.547328949 -2.001413107 0.955858469 
-10.68742657 -3.02572751 -2.001413107 0.955858469 
-10.37618637 -3.96363759 -2.001413107 0.9558585286 
-10.18963337 -4.421288967 -2.001413107 0.9558584094 
-9.982875824 -4.870180607 -2.001413107 0.9558584094 
-9.75633812 -5.309438229 -2.001413107 0.955858469 
-8.344252586 -7.331440449 -2.001413107 0.9558584094 
-6.914355278 -8.692993164 -2.001413107 0.9558584094 
-6.520834923 -8.991962433 -2.001413107 0.9558584094 
-5.695683479 -9.535937309 -2.001413107 0.9558587074 
-5.26595211 -9.779872894 -2.001413107 0.955858469 
-4.375981331 -10.20920372 -2.001413107 0.9558582902 
-3.876577139 -10.28548336 -1.980564833 0.9563081264 
-2.378364086 -10.29953098 -1.90466702 0.9579466581 
-1.430590749 -10.30509281 -1.874639273 0.9585957527 
-0.9659374952 -10.30683041 -1.86528194 0.9587980509 
-0.5057324171 -10.31112289 -1.860146642 0.9589090347 
0.8732812405 -10.30737305 -1.863900065 0.958828032 
1.806245089 -10.30321312 -1.884804606 0.9583759308 
2.282172918 -10.3002243 -1.900963545 0.9580266476 
4.736645222 -10.04700184 -2.001413107 0.955858171 
6.03174305 -9.327157974 -2.001413107 0.955858171 
3.974252939 -5.584233284 -1.235006809 0.9725266695 
4.05562973 -5.193071365 -1.187260985 0.9735746384 
4.162768364 -4.867377758 -1.15403378 0.9743046165 
4.460238934 -4.362089634 -1.124128342 0.9749620557 
4.626582146 -4.138525486 -1.118498445 0.9750858545 
5.619413853 -4.190702915 -1.26309967 0.9719105959 
7.317152977 -4.504150391 -1.54821682 0.9656799436 
9.939135551 -4.958847523 -2.001413107 0.9558584094 
10.14987755 -4.511806488 -2.001413107 0.9558584094 
10.3405323 -4.055844784 -2.001413107 0.9558584094 
10.51071739 -3.591850519 -2.001413107 0.9558584094 
10.78835869 -2.64340806 -2.001413107 0.955858469 
10.89526844 -2.160883665 -2.001413107 0.955858469 
10.98060989 -1.674086928 -2.001413107 0.9558584094 
11.08594704 -0.6915136576 -2.001413107 0.9558584094 
11.10352993 0.2965331972 -2.001413107 0.955858469 
11.07935047 0.7901660204 -2.001413107 0.9558584094 
11.03324223 1.28223145 -2.001413107 0.9558584094 
10.4783392 3.685214758 -2.001413107 0.9558584094 
9.660263062 5.482275486 -2.001413107 0.955858469 
8.439213753 5.837993145 -1.849013209 0.9591500163 
8.17116642 6.207622051 -1.849013209 0.9591499567 
7.587113857 6.909301758 -1.849013209 0.9591499567 
6.94298315 7.556283951 -1.849013209 0.9591500163 
6.612363338 7.87240696 -1.852483273 0.9590749145 
5.438842773 7.787836552 -1.711581707 0.9621278048 
5.11093235 8.913339615 -1.851354003 0.9590993524 
4.708745003 9.130663872 -1.851108193 0.9591046572 
4.297392368 9.329921722 -1.850877762 0.959109664 
3.87766099 9.510746956 -1.850663543 0.9591142535 
2.576498985 9.939331055 -1.850120306 0.9591260552 
2.131645441 10.04331017 -1.849973917 0.9591292143 
1.682651281 10.12748051 -1.849845052 0.9591320157 
1.230405211 10.19169903 -1.849734187 0.9591343999 
0.3196728528 10.25980473 -1.849567413 0.9591379762 
-0.1370263696 10.2635498 -1.849511623 0.9591392279 
-0.7164843678 6.976059437 -1.263599873 0.9718996286 
-2.343393564 6.958510399 -1.323018193 0.9705979228 
-3.091010571 7.037758827 -1.385026217 0.9692412615 
-3.467915058 7.028876781 -1.412268162 0.9686458707 
-3.926298857 7.138823032 -1.468032241 0.9674282074 
-4.306518555 7.06632328 -1.491075993 0.9669254422 
-5.290863991 7.160898209 -1.604281545 0.9644595385 
-5.751547813 7.100385666 -1.646469355 0.9635421634 
-6.439594746 7.263774395 -1.749109507 0.9613138437 
-8.059399605 6.352060318 -1.849013209 0.9591499567 
-6.240614891 2.009287119 -1.181316614 0.9737051725 
-7.174125671 1.962270498 -1.34015739 0.970222652 
-11.10749531 0 -2.001413107 0.9558584094 
-10.83370113 -2.450986385 -2.001413107 0.9558584094 
-10.57296848 -3.404213905 -2.001413107 0.9558584094 
-10.22856426 -4.330449104 -2.001413107 0.955858469 
-10.02580547 -4.781171799 -2.001413107 0.9558584094 
-9.803207397 -5.222421646 -2.001413107 0.9558584094 
-9.300229073 -6.073056698 -2.001413107 0.955858469 
-8.723695755 -6.875624657 -2.001413107 0.9558582902 
-8.409189224 -7.256884575 -2.001413107 0.9558583498 
-6.991455078 -8.631108284 -2.001413107 0.9558584094 
-3.9809618 -10.28427696 -1.987074256 0.9561676979 
-2.964086771 -10.29478455 -1.93033123 0.9573922753 
-2.475058556 -10.29881859 -1.908532977 0.9578630328 
-1.524111271 -10.30466747 -1.876955271 0.9585456848 
0.3206884563 -10.31225109 -1.859023094 0.9589335322 
1.244194269 -10.3058691 -1.870455027 0.958686173 
1.711914062 -10.30371571 -1.882035971 0.9584358335 
2.186313391 -10.30087852 -1.897417665 0.9581032991 
2.669340849 -10.29729939 -1.916754603 0.9576854706 
3.669682503 -10.28778267 -1.968118072 0.9565766454 
4.430034161 -4.410376072 -1.126366735 0.9749128819 
4.586537838 -4.176796913 -1.117761731 0.975102067 
4.882211685 -4.063871861 -1.144585013 0.974512279 
5.489535809 -4.170395374 -1.242200375 0.9723688364 
6.188169003 -4.280751705 -1.355811119 0.9698801637 
9.894623756 -5.047070026 -2.001413107 0.9558584094 
10.47834492 -3.685219526 -2.001413107 0.9558584094 
10.76439953 -2.739331007 -2.001413107 0.955858469 
10.87560558 -2.257787943 -2.001413107 0.9558584094 
11.03323746 -1.282236338 -2.001413107 0.9558584094 
11.07935047 -0.7901611328 -2.001413107 0.9558584094 
11.10573196 0.197680667 -2.001413107 0.9558584094 
11.04421329 1.183969736 -2.001413107 0.9558584094 
10.66008282 3.120737314 -2.001413107 0.9558584094 
10.51070786 3.591845512 -2.001413107 0.955858469 
10.14987755 4.511811256 -2.001413107 0.9558584094 
9.122572899 5.615488052 -1.930218101 0.9573946595 
8.226103783 6.134633541 -1.849013209 0.9591500163 
7.009965897 7.494184494 -1.849013209 0.9591500163 
6.327133656 8.101708412 -1.852239847 0.9590801597 
5.537895203 7.78135252 -1.72091794 0.9619253874 
5.580307484 8.629335403 -1.851668954 0.9590924978 
4.789926529 9.088637352 -1.851156116 0.9591036439 
3.103667021 9.788696289 -1.850319266 0.9591217041 
2.664916992 9.916172028 -1.850151777 0.95912534 
2.220996141 10.02408695 -1.850001812 0.9591286182 
1.772768497 10.11224079 -1.84986937 0.9591314197 
1.321098566 10.18045902 -1.84975493 0.9591339231 
0.8668701053 10.22861767 -1.849658608 0.9591360092 
-0.04566894472 10.2644186 -1.849521279 0.9591389894 
-0.5022070408 10.25200176 -1.849480391 0.9591398835 
-0.6609521508 7.052265644 -1.276288629 0.9716215134 
-1.626801729 7.044819355 -1.302783012 0.9710410237 
-1.93177247 6.941020489 -1.298211932 0.9711412191 
-2.278330088 6.969707012 -1.32124114 0.9706368446 
-2.681645393 7.114936352 -1.370051384 0.969568789 
-3.854838848 7.159081936 -1.46508348 0.9674925804 
-5.676826 7.137114048 -1.643203139 0.9636132121 
-6.351352215 7.293998718 -1.742705941 0.9614527225 
-6.746288776 7.084872723 -1.762763143 0.9610178471 
-5.260346413 3.502158165 -1.138687372 0.9746419191 
-5.332827091 2.90213871 -1.093972445 0.9756254554 
-5.619184494 2.146484375 -1.083853483 0.9758481979 
-6.07391119 2.015454054 -1.153111219 0.974324882 
-8.299965858 1.955571294 -1.53648591 0.9659355283 
-10.91407681 2.063867092 -2.001413107 0.9558584094 
-10.99507332 1.576318383 -2.001413107 0.9558584094 
-11.09166527 0.5928515196 -2.001413107 0.9558584094 
-11.10705566 0.09883300215 -2.001413107 0.9558584094 
-11.1004591 -0.3953564465 -2.001413107 0.9558584094 
-11.07188416 -0.8887548447 -2.001413107 0.9558584094 
-10.94906712 -1.869301677 -2.001413107 0.9558584094 
-10.60285091 -3.309965849 -2.001413107 0.955858469 
-10.4451313 -3.778344631 -2.001413107 0.9558584094 
-10.06796837 -4.691738129 -2.001413107 0.9558584094 
-9.849291801 -5.134951115 -2.001413107 0.955858469 
-9.3539114 -5.990029335 -2.001413107 0.955858469 
-8.784545898 -6.797685623 -2.001413107 0.9558583498 
-8.473466873 -7.181743145 -2.001413107 0.9558582902 
-8.145570755 -7.55158186 -2.001413107 0.9558583498 
-7.801606178 -7.906459808 -2.001413107 0.9558582902 
-7.067954063 -8.568569183 -2.001413107 0.9558584094 
-6.679819107 -8.874482155 -2.001413107 0.9558584094 
-5.86461401 -9.433066368 -2.001413107 0.9558584094 
-5.439204216 -9.684609413 -2.001413107 0.9558584094 
-5.002973557 -9.916976929 -2.001413107 0.955858469 
-4.086044788 -10.28303242 -1.993783116 0.956023097 
-3.567153215 -10.2888813 -1.962176323 0.9567049146 
-3.063325167 -10.29388618 -1.935198665 0.9572871327 
-2.571918964 -10.29807568 -1.912561893 0.9577760696 
-2.090873957 -10.3015089 -1.894031644 0.958176434 
-1.617949128 -10.30421352 -1.879420877 0.9584923387 
-1.15124023 -10.30621529 -1.868584871 0.9587266445 
1.151274443 -10.30621529 -1.868584871 0.9587266445 
2.090834856 -10.30149841 -1.894031525 0.9581764936 
3.567255735 -10.28889179 -1.962175965 0.9567047358 
4.086166859 -10.28303719 -1.993782759 0.9560229182 
5.43924284 -9.684604645 -2.001413107 0.9558583498 
5.864624023 -9.4330616 -2.001413107 0.9558584094 
4.006889343 -5.323364258 -1.200548887 0.9732828736 
4.120995998 -4.99586916 -1.166922092 0.9740213752 
4.247251034 -4.705790997 -1.142208099 0.9745645523 
4.399575233 -4.45869112 -1.128662705 0.9748623371 
4.791108131 -4.060737133 -1.131652713 0.9747965932 
5.362573147 -4.149741173 -1.221781254 0.9728168249 
6.880141258 -4.40592289 -1.472114801 0.9673390985 
7.9804492 -4.623305798 -1.661842585 0.9632080793 
10.2667284 -4.239194393 -2.001413107 0.9558584094 
11.02139091 -1.380346656 -2.001413107 0.9558584094 
11.07188416 -0.8887548447 -2.001413107 0.9558584094 
11.10045338 -0.3953076005 -2.001413107 0.955858469 
11.10705566 0.09882324189 -2.001413107 0.9558584094 
10.99507332 1.576318383 -2.001413107 0.9558584094 
10.81145 2.547319174 -2.001413107 0.955858469 
9.982841492 4.870219707 -2.001413107 0.955858469 
9.298886299 5.610551834 -1.95688355 0.9568189979 
7.70889616 6.773173809 -1.849013329 0.9591498971 
7.076372147 7.431523323 -1.849013209 0.9591499567 
6.7388134 7.738920689 -1.849013209 0.9591500163 
5.657065392 8.579574585 -1.851723552 0.9590913653 
5.269013405 8.821474075 -1.851456761 0.959097147 
4.046504021 9.440649033 -1.850747347 0.9591124654 
3.190737247 9.760869026 -1.85035491 0.9591209888 
2.310170889 10.00407696 -1.850030303 0.9591279626 
1.862685561 10.09620094 -1.849894404 0.9591309428 
1.411679626 10.16840839 -1.849776387 0.9591335058 
0.9578515291 10.22059536 -1.84967649 0.9591356516 
-0.4109326005 10.25610352 -1.849487066 0.9591397047 
-0.5992187262 7.070424557 -1.278557658 0.9715717435 
-0.9111181498 7.020961761 -1.275686026 0.971634686 
-1.237338781 7.058105469 -1.291165709 0.971295476 
-1.56020987 7.041611195 -1.299570322 0.9711113572 
-1.883061528 7.006889343 -1.307344198 0.970941186 
-2.978579044 7.123496056 -1.391244292 0.9691053629 
-3.290219545 6.979165077 -1.390290141 0.9691262245 
-3.781225443 7.174574852 -1.461312056 0.9675748944 
-4.174458027 7.132328987 -1.489085555 0.966968894 
-5.110629559 7.180991173 -1.588145852 0.9648106098 
-5.520200253 7.068378925 -1.616004586 0.9642045498 
-6.331323147 7.403037071 -1.755225658 0.9611813426 
-7.139077187 6.9820261 -1.7992872 0.960226357 
-7.945097446 6.494457722 -1.849013209 0.9591499567 
-5.252031326 3.5644629 -1.143708229 0.9745315313 
-5.290791035 3.25679183 -1.119462132 0.9750646353 
-5.399272442 2.693813324 -1.087233901 0.9757737517 
-5.486225605 2.438705921 -1.08180356 0.975893259 
-5.584750652 2.190488338 -1.080929399 0.9759125113 
-5.92384243 2.024340868 -1.127995372 0.9748769999 
-6.786840439 1.9868505 -1.274218798 0.9716668725 
-10.89526844 2.160937548 -2.001413107 0.9558584094 
-11.04420853 1.18402338 -2.001413107 0.9558584094 
-11.1057272 0.1977294832 -2.001413107 0.955858469 
-11.10353947 -0.2965283096 -2.001413107 0.9558584094 
-10.96527767 -1.771806598 -2.001413107 0.9558584094 
-10.76439476 -2.739374876 -2.001413107 0.9558584094 
-10.30403805 -4.147675514 -2.001413107 0.9558584094 
-9.89461422 -5.047075272 -2.001413107 0.9558584094 
-9.134795189 -6.319179535 -2.001413107 0.9558584094 
-8.536987305 -7.106059551 -2.001413107 0.955858469 
-7.514955997 -8.179106712 -2.001413107 0.9558591247 
-7.143979549 -8.505307198 -2.001413107 0.9558583498 
-6.758481503 -8.814697266 -2.001413107 0.9558585286 
-6.359760761 -9.106591225 -2.001413107 0.9558584094 
-5.948315144 -9.380507469 -2.001413107 0.9558584094 
-4.191914082 -10.28174782 -2.000687838 0.955874145 
-3.669760704 -10.2877779 -1.968118548 0.9565765858 
-2.186284065 -10.30087852 -1.897417903 0.9581032991 
-0.7814013362 -10.30849552 -1.862773299 0.9588523507 
-0.3213818371 -10.31225109 -1.859022975 0.958933413 
0.5971044898 -10.31037617 -1.86089623 0.9588929415 
2.47494626 -10.29882336 -1.908532977 0.9578630924 
2.964111328 -10.29478455 -1.930333257 0.9573922157 
3.981040001 -10.28427696 -1.987076998 0.9561676383 
5.780473709 -9.48486805 -2.001413107 0.9558584094 
6.19662571 -9.218358994 -2.001413107 0.955858469 
3.981918812 -5.389321327 -1.207386255 0.9731327891 
4.216997147 -4.756713867 -1.145412087 0.9744940996 
4.368833065 -4.507040977 -1.131017685 0.9748105407 
4.722817421 -4.075610161 -1.124042273 0.974963963 
10.02583504 -4.78112793 -2.001413107 0.9558584094 
10.22856903 -4.330449104 -2.001413107 0.9558584094 
10.57297325 -3.404218674 -2.001413107 0.9558584094 
10.71394539 -2.930478334 -2.001413107 0.955858469 
10.9320116 -1.966630816 -2.001413107 0.9558584094 
11.00866222 -1.478437424 -2.001413107 0.9558584094 
11.09649849 -0.4940575957 -2.001413107 0.9558584094 
11.09649849 0.4941454828 -2.001413107 0.9558584094 
11.00865746 1.478442311 -2.001413107 0.955858469 
10.83369637 2.451030254 -2.001413107 0.9558584094 
