# .PCD v0.7 - Point Cloud Data file format
VERSION 0.7
FIELDS x y z intensities
SIZE 4 4 4 4
TYPE F F F F
COUNT 1 1 1 1
WIDTH 923
HEIGHT 1
VIEWPOINT 0 0 0 1 0 0 0
POINTS 923
DATA ascii
7.480443954 -6.004408836 -2.001413107 0.96156317 
7.984487057 -5.31579113 -2.001413107 0.9615632296 
8.213047028 -4.955351353 -2.001413107 0.9615632296 
8.62097168 -4.205771446 -2.001413107 0.9615632296 
8.799530983 -3.818120003 -2.001413107 0.96156317 
8.960659027 -3.422909975 -2.001413107 0.9615632296 
9.229423523 -2.612949133 -2.001413107 0.96156317 
9.336518288 -2.199809551 -2.001413107 0.9615632296 
9.495082855 -1.361274362 -2.001413107 0.9615632296 
9.578603745 -0.511958003 -2.001413107 0.9615628123 
9.591787338 -0.0853857398 -2.001413107 0.9615632296 
9.586088181 0.3414111137 -2.001413107 0.9615632296 
9.517807007 1.192075133 -2.001413107 0.9615632296 
9.455356598 1.614287019 -2.001413107 0.9615632296 
9.374194145 2.033290863 -2.001413107 0.96156317 
9.274467468 2.448266506 -2.001413107 0.9615632296 
9.15637207 2.858408213 -2.001413107 0.9615632296 
8.866088867 3.660898447 -2.001413107 0.9615632296 
8.694467545 4.051674843 -2.001413107 0.96156317 
8.505620003 4.434428692 -2.001413107 0.9615632296 
8.07783699 5.172851562 -2.001413107 0.96156317 
7.839731216 5.527060509 -2.001413107 0.96156317 
7.260380745 5.618217468 -1.915461421 0.9631829262 
6.498705864 6.024760723 -1.849013209 0.9644373059 
6.224243164 6.307914734 -1.849013209 0.9644373059 
5.937485218 6.578544617 -1.849013209 0.9644373059 
5.329282284 7.080219746 -1.849013209 0.9644373655 
4.678911209 7.525864124 -1.849013209 0.9644373059 
3.998237133 7.925302505 -1.85213542 0.9643783569 
3.641352415 8.094452858 -1.851939082 0.9643820524 
3.277353525 8.247602463 -1.851756573 0.9643855095 
2.530903339 8.504775047 -1.851434588 0.9643915892 
2.149916887 8.608290672 -1.85129571 0.9643942118 
1.376137614 8.764213562 -1.851063848 0.9643985629 
0.9848583937 8.816303253 -1.850970984 0.964400351 
0.1973291039 8.868290901 -1.850833058 0.9644029737 
-0.1973583996 8.868071556 -1.850788236 0.9644038081 
-0.7803466916 6.985478401 -1.466592669 0.9716873169 
-1.101445317 7.014790058 -1.481573701 0.9714022875 
-1.767817378 7.078388691 -1.522275567 0.9706282616 
-1.328422785 3.343041897 -0.750579536 0.9854083657 
-1.399614215 3.111240149 -0.711822331 0.9861565828 
-1.465644479 2.905205011 -0.6789425611 0.9867917895 
-1.770522475 2.352236271 -0.614290297 0.9880420566 
-2.378369093 2.204921722 -0.6766937375 0.9868352413 
-2.592807531 2.197548866 -0.7091613412 0.9862080216 
-2.821455002 2.183315277 -0.7443724871 0.9855281711 
-3.782783031 2.191474676 -0.9121626019 0.9822950959 
-8.866186142 3.660917997 -2.001413107 0.9615628719 
-9.15637207 2.858408213 -2.001413107 0.9615632296 
-9.374194145 2.03329587 -2.001413107 0.96156317 
-9.561420441 0.7674658298 -2.001413107 0.96156317 
-9.586088181 0.3413818181 -2.001413107 0.9615632296 
-9.578491211 -0.5119775534 -2.001413107 0.9615632296 
-9.495082855 -1.361284137 -2.001413107 0.9615632296 
-9.425136566 -1.78231442 -2.001413107 0.96156317 
-9.336523056 -2.199809551 -2.001413107 0.96156317 
-9.229428291 -2.612944365 -2.001413107 0.96156317 
-8.799526215 -3.81812501 -2.001413107 0.9615632296 
-8.425346375 -4.58509779 -2.001413107 0.9615632296 
-7.984491825 -5.315795898 -2.001413107 0.96156317 
-7.740092754 -5.665747166 -2.001413107 0.9615632296 
-7.205893517 -6.331259727 -2.001413107 0.9615632296 
-6.917162895 -6.645541668 -2.001413107 0.9615631104 
-6.614721298 -6.946660042 -2.001413107 0.9615630507 
-6.299096584 -7.234023094 -2.001413107 0.9615632296 
-5.971147537 -7.507084846 -2.001413107 0.9615629911 
-5.631117821 -7.765233994 -2.001413107 0.961563468 
-4.167377949 -8.6395998 -2.001413107 0.9615632296 
-3.778930664 -8.816430092 -2.001413107 0.9615632296 
-2.571855307 -9.240951538 -2.001413107 0.9615632296 
-0.4789990187 -5.110981464 -1.07108295 0.9792427421 
-0.2344189435 -4.785336971 -0.999661088 0.9806133509 
-0.01925781183 -4.329423904 -0.9033452272 0.9824647307 
0.1634521484 -4.079218864 -0.8518151045 0.9834567308 
0.6585546732 -3.756562471 -0.7957630754 0.9845368862 
1.588276386 -3.798549652 -0.8590625525 0.9833171368 
2.013012648 -3.819589853 -0.9008669257 0.9825124741 
2.487846613 -3.847153187 -0.9559281468 0.9814535379 
2.756655216 -3.873373985 -0.9919609427 0.98076123 
3.095444202 -3.963583946 -1.049323559 0.9796600938 
6.552602291 -7.005229473 -2.001413107 0.96156317 
6.857738972 -6.706811428 -2.001413107 0.96156317 
7.149272442 -6.395117283 -2.001413107 0.9615632296 
7.68938446 -5.734389305 -2.001413107 0.96156317 
8.168608665 -5.02826643 -2.001413107 0.9615632296 
8.583197594 -4.282343864 -2.001413107 0.9615632296 
8.929839134 -3.502529144 -2.001413107 0.9615632296 
9.0768013 -3.101835966 -2.001413107 0.9615632296 
9.205805779 -2.694960833 -2.001413107 0.9615632296 
9.316420555 -2.282788038 -2.001413107 0.961563766 
9.573564529 -0.5971728563 -2.001413107 0.9615632296 
9.590654373 -0.1707177758 -2.001413107 0.96156317 
9.588754654 0.2560791075 -2.001413107 0.96156317 
9.567866325 0.6823681593 -2.001413107 0.9615632296 
9.528037071 1.107304692 -2.001413107 0.9615632296 
9.469350815 1.530048847 -2.001413107 0.9615632296 
9.39197731 1.949760675 -2.001413107 0.9615629911 
9.18144989 2.776796818 -2.001413107 0.9615632296 
8.73018074 3.974121094 -2.001413107 0.9615632296 
8.34239769 4.734360218 -2.001413107 0.96156317 
6.810971737 5.669345379 -1.849013209 0.9644373059 
6.280141354 6.252260685 -1.849013209 0.9644373059 
5.392075062 7.032514572 -1.849013209 0.9644373655 
5.073925495 7.265405178 -1.849013209 0.9644373059 
4.745712757 7.483920574 -1.849013209 0.9644373059 
3.713334799 8.061880112 -1.851977229 0.9643813372 
3.350703001 8.218261719 -1.851791978 0.9643848538 
2.22645998 8.588945389 -1.851322293 0.9643937349 
1.842060447 8.678891182 -1.851195693 0.9643961191 
-0.1184130833 8.869516373 -1.850795865 0.9644036293 
-1.359799743 7.019638538 -1.491880417 0.9712061882 
-2.347949266 6.972011566 -1.534997225 0.9703865647 
-1.316547871 3.401020527 -0.7609370351 0.9852085114 
-1.452495098 2.943979502 -0.6849573851 0.9866755605 
-1.751518488 2.370585918 -0.6149876118 0.9880285263 
-2.153852463 2.222001791 -0.6456840634 0.9874347448 
-2.34013176 2.208520412 -0.6713810563 0.9869379401 
-2.548334837 2.19913578 -0.7023252845 0.9863400459 
-8.465815544 4.509955883 -2.001413107 0.9615632296 
-8.658076286 4.128867149 -2.001413107 0.96156317 
-8.833120346 3.739633799 -2.001413107 0.9615633488 
-8.990796089 3.343012571 -2.001413107 0.9615631104 
-9.130580902 2.939755678 -2.001413107 0.9615632296 
-9.252333641 2.530693293 -2.001413107 0.9615631104 
-9.355736732 2.116611242 -2.001413107 0.96156317 
-9.554213524 0.8525439501 -2.001413107 0.96156317 
-9.582680702 0.4266943336 -2.001413107 0.96156317 
-9.592182159 -9.765624782e-06 -2.001413107 0.96156317 
-9.582680702 -0.4266943336 -2.001413107 0.96156317 
-9.554213524 -0.8525390625 -2.001413107 0.96156317 
-9.506831169 -1.276708961 -2.001413107 0.96156317 
-9.355736732 -2.116616249 -2.001413107 0.96156317 
-9.130571365 -2.939804554 -2.001413107 0.96156317 
-8.990756989 -3.343046904 -2.001413107 0.9615632296 
-8.658046722 -4.12890625 -2.001413107 0.9615632296 
-8.465815544 -4.509960651 -2.001413107 0.96156317 
-8.256796837 -4.882089615 -2.001413107 0.9615632296 
-8.031459808 -5.244550705 -2.001413107 0.9615632296 
-7.790219784 -5.596621037 -2.001413107 0.9615632296 
-7.261972427 -6.266865253 -2.001413107 0.96156317 
-6.97603035 -6.583696365 -2.001413107 0.96156317 
-6.676269531 -6.887504578 -2.001413107 0.9615631104 
-6.363227367 -7.177660942 -2.001413107 0.9615632296 
-6.037753582 -7.4536376 -2.001413107 0.9615629315 
-4.622539043 -8.404877663 -2.001413107 0.96156317 
-3.857231379 -8.782455444 -2.001413107 0.9615632296 
-3.06137681 -9.090521812 -2.001413107 0.9615632296 
-2.241479397 -9.326644897 -2.001413107 0.9615630507 
-1.824204087 -9.417114258 -2.001413107 0.9615632296 
-0.5276073813 -5.137074947 -1.077492595 0.9791198373 
0.4530322254 -3.752514601 -0.7886507511 0.9846740365 
0.6240381002 -3.755937338 -0.7944241762 0.984562695 
0.7977880836 -3.758789062 -0.8017454147 0.9844215512 
0.9758886695 -3.764609337 -0.8114506602 0.9842343926 
1.160956979 -3.777905226 -0.8246430159 0.9839801788 
1.548315406 -3.79757309 -0.8556935787 0.9833820462 
1.753344655 -3.806616068 -0.8744573593 0.9830207229 
2.43451643 -3.839204073 -0.9485316873 0.9815957546 
2.697929621 -3.863198042 -0.9831663966 0.9809302092 
6.169360161 -7.34498024 -2.001413107 0.9615632296 
6.797758579 -6.767582893 -2.001413107 0.9615632296 
7.092074871 -6.458496094 -2.001413107 0.9615632296 
7.888617992 -5.457055569 -2.001413107 0.9615632296 
8.73018074 -3.974121094 -2.001413107 0.9615632296 
8.898324966 -3.581840754 -2.001413107 0.96156317 
9.048851967 -3.18247056 -2.001413107 0.96156317 
9.181459427 -2.776801586 -2.001413107 0.96156317 
9.391919136 -1.949770451 -2.001413107 0.9615632296 
9.469350815 -1.530053735 -2.001413107 0.9615632296 
9.52804184 -1.107304692 -2.001413107 0.9615632296 
9.567871094 -0.6823681593 -2.001413107 0.96156317 
9.590649605 0.1707128882 -2.001413107 0.9615632296 
9.573559761 0.5971728563 -2.001413107 0.9615632296 
9.537519455 1.022446275 -2.001413107 0.9615632296 
9.482587814 1.44574213 -2.001413107 0.9615632296 
9.408901215 1.866127849 -2.001413107 0.96156317 
9.205795288 2.694995165 -2.001413107 0.9615632296 
8.168588638 5.028261662 -2.001413107 0.9615632892 
7.936899185 5.386655331 -2.001413107 0.9615630507 
7.523032188 5.61031723 -1.958114028 0.9623789191 
6.892602444 5.634404182 -1.857555032 0.9642767906 
6.053657055 6.471801758 -1.849013209 0.9644373059 
5.759770393 6.73468256 -1.849013209 0.9644373059 
5.138364315 7.219970703 -1.849013209 0.9644373655 
4.81210947 7.441401005 -1.849013209 0.9644373059 
4.476323128 7.648095608 -1.849013209 0.9644373059 
3.784990072 8.02869606 -1.852015972 0.9643806219 
3.423749924 8.188285828 -1.85182786 0.9643841982 
3.055835009 8.331699371 -1.851653814 0.9643874764 
1.91925776 8.662265778 -1.851219773 0.9643956423 
0.7491210699 8.83922863 -1.850923061 0.9644012451 
0.3551708758 8.863476753 -1.850855708 0.9644025564 
-0.03945800662 8.870258331 -1.85080421 0.9644035101 
-0.4339941442 8.859555244 -1.850769043 0.9644041657 
-0.9632079601 6.938110352 -1.461526752 0.9717836976 
-1.300727487 7.050087929 -1.495833755 0.9711310267 
-1.639116168 7.098124981 -1.520005107 0.9706714749 
-1.37000978 3.196284056 -0.72558707 0.9858908057 
-1.43977046 2.984838724 -0.6914544702 0.9865500331 
-1.585825205 2.654980421 -0.6452580094 0.9874429703 
-1.658188462 2.514829159 -0.6285175681 0.9877667427 
-1.735380769 2.393027306 -0.6167764068 0.987993896 
-1.826821208 2.296747923 -0.6123219132 0.9880800843 
-2.302709818 2.212275267 -0.6662663221 0.9870368242 
-2.504702091 2.200664043 -0.6956680417 0.9864686131 
-2.983813524 2.1841259 -0.7715435028 0.9850039482 
-3.624701977 2.186962843 -0.8832907081 0.9828506708 
-8.960639 3.422909975 -2.001413107 0.9615632892 
-9.10406208 3.020913124 -2.001413107 0.96156317 
-9.336508751 2.199804544 -2.001413107 0.9615632296 
-9.425136566 1.782304645 -2.001413107 0.96156317 
-9.578500748 0.5119726658 -2.001413107 0.96156317 
-9.591792107 0.08534179628 -2.001413107 0.96156317 
-9.517817497 -1.192080021 -2.001413107 0.96156317 
-9.455356598 -1.614287019 -2.001413107 0.9615632296 
-9.15637207 -2.858412981 -2.001413107 0.9615632296 
-9.020160675 -3.262890577 -2.001413107 0.9615632296 
-8.866107941 -3.660908222 -2.001413107 0.9615631104 
-8.299936295 -4.80840826 -2.001413107 0.9615632296 
-8.0778265 -5.172841549 -2.001413107 0.9615632296 
-7.034360409 -6.521391392 -2.001413107 0.9615629911 
-4.697153091 -8.363393784 -2.001413107 0.9615632296 
-2.324311495 -9.306318283 -2.001413107 0.96156317 
-1.908139586 -9.400497437 -2.001413107 0.9615631104 
-1.064916968 -9.532880783 -2.001413107 0.96156317 
-0.09809082001 -4.408422947 -0.9200471044 0.9821434617 
0.2647363245 -3.960234404 -0.8281490207 0.9839125872 
0.589643538 -3.755312443 -0.7931479216 0.9845872521 
1.123320341 -3.774785042 -0.8217481971 0.9840360284 
1.508647442 -3.796581984 -0.8524097204 0.9834452271 
1.710668921 -3.802700043 -0.8700238466 0.9831060767 
1.925952077 -3.817617178 -0.8921744227 0.9826797247 
2.386479378 -3.838569164 -0.943089664 0.9817003608 
2.643198252 -3.857519388 -0.975694418 0.9810737371 
6.426938534 -7.120732307 -2.001413107 0.9615631104 
7.034311295 -6.521367073 -2.001413107 0.96156317 
7.317485332 -6.201967716 -2.001413107 0.96156317 
7.839726448 -5.527060509 -2.001413107 0.9615632296 
8.077812195 -5.17288065 -2.001413107 0.9615632296 
8.299945831 -4.808398247 -2.001413107 0.96156317 
8.694458008 -4.051669598 -2.001413107 0.9615632296 
9.020171165 -3.262880802 -2.001413107 0.96156317 
9.274457932 -2.448271513 -2.001413107 0.9615632296 
9.374198914 -2.033252001 -2.001413107 0.9615632296 
9.455350876 -1.614277363 -2.001413107 0.9615632296 
9.561415672 -0.7675048709 -2.001413107 0.9615632296 
9.578500748 0.5119726658 -2.001413107 0.96156317 
9.495082855 1.361279249 -2.001413107 0.9615632296 
9.104047775 3.020917892 -2.001413107 0.9615632296 
8.96064949 3.422939301 -2.001413107 0.9615632296 
8.799535751 3.818110228 -2.001413107 0.96156317 
8.620962143 4.205810547 -2.001413107 0.96156317 
8.425351143 4.585102558 -2.001413107 0.9615632296 
8.213027 4.955385685 -2.001413107 0.9615632296 
7.008666992 5.625683308 -1.875173926 0.9639431238 
6.657201767 5.849154949 -1.849013209 0.9644373059 
6.110991001 6.417690277 -1.849013209 0.9644373059 
5.819501877 6.683149338 -1.849013209 0.9644373059 
5.202460766 7.173935413 -1.849013209 0.9644373059 
4.208676815 7.816259384 -1.852259755 0.9643760324 
3.129892588 8.304330826 -1.851687431 0.9643868208 
2.379033089 8.548213005 -1.851377249 0.964392662 
1.996328115 8.644950867 -1.85124445 0.9643951654 
1.609643459 8.724648476 -1.851127028 0.9643974304 
1.219912052 8.787128448 -1.851024866 0.9643993378 
0.4340527356 8.860024452 -1.850867867 0.964402318 
0.03947265446 8.8703022 -1.85081327 0.9644033313 
-0.355117172 8.863090515 -1.850774646 0.9644040465 
-0.5956591368 7.028408051 -1.47173965 0.9715893865 
-2.196098566 6.926200867 -1.516066194 0.970746398 
-1.426704049 3.02632308 -0.6980955601 0.9864217639 
-1.498002887 2.842348576 -0.6703822017 0.9869573116 
-1.642524362 2.539965868 -0.6311219931 0.9877163768 
-2.68431139 2.194194317 -0.7233884931 0.9859332442 
-2.92649889 2.182446241 -0.7617165446 0.985193491 
-3.998198271 2.222153187 -0.9544155598 0.981482625 
-8.583203316 4.282343864 -2.001413107 0.96156317 
-9.076821327 3.101791859 -2.001413107 0.96156317 
-9.20580101 2.694999933 -2.001413107 0.96156317 
-9.316586494 2.282778263 -2.001413107 0.96156317 
-9.408901215 1.866132736 -2.001413107 0.96156317 
-9.482592583 1.445703149 -2.001413107 0.9615632296 
-9.588754654 -0.2560839653 -2.001413107 0.96156317 
-9.567871094 -0.6824072003 -2.001413107 0.96156317 
-9.528046608 -1.107299805 -2.001413107 0.96156317 
-9.469350815 -1.530092716 -2.001413107 0.96156317 
-9.391919136 -1.949760675 -2.001413107 0.9615632296 
-8.89835453 -3.581855297 -2.001413107 0.9615630507 
-8.730165482 -3.974155188 -2.001413107 0.9615632296 
-8.544751167 -4.35853529 -2.001413107 0.9615632296 
-8.123549461 -5.100747108 -2.001413107 0.9615632296 
-7.372348309 -6.136620998 -2.001413107 0.9615632296 
-7.092119217 -6.458471298 -2.001413107 0.96156317 
-6.79779768 -6.76759243 -2.001413107 0.9615631104 
-6.169331074 -7.344985008 -2.001413107 0.9615632892 
-4.771445274 -8.321249962 -2.001413107 0.96156317 
-4.39651823 -8.52528286 -2.001413107 0.96156317 
-4.012963772 -8.712392807 -2.001413107 0.9615632296 
-3.621391535 -8.882299423 -2.001413107 0.9615632296 
-3.222719669 -9.034589767 -2.001413107 0.9615632296 
-2.817617178 -9.169013023 -2.001413107 0.96156317 
-2.407124043 -9.285263062 -2.001413107 0.9615631104 
-1.14962399 -9.52302742 -2.001413107 0.9615632296 
-0.3834033012 -5.058276176 -1.058441639 0.9794852138 
-0.1403466761 -4.504135609 -0.9402469397 0.9817550182 
0.05658691376 -4.237075329 -0.8841477036 0.9828342199 
0.3917919695 -3.814614058 -0.8001083732 0.9844530821 
0.7279345393 -3.757724524 -0.7986279726 0.9844816327 
0.9036279321 -3.760219574 -0.8069089055 0.9843219519 
1.275405288 -3.787206888 -0.8338089585 0.9838035703 
1.883027315 -3.816596508 -0.8879840374 0.9827603698 
2.104125977 -3.825800657 -0.9110200405 0.98231709 
2.591147423 -3.854697227 -0.9691088796 0.9812002778 
7.533554554 -5.937616825 -2.001413107 0.9615632296 
8.031459808 -5.244550705 -2.001413107 0.9615632296 
8.256840706 -4.882055759 -2.001413107 0.96156317 
8.658081055 -4.128871918 -2.001413107 0.96156317 
8.833148956 -3.739677668 -2.001413107 0.9615632296 
9.130580902 -2.939809561 -2.001413107 0.96156317 
9.355712891 -2.116650343 -2.001413107 0.9615632296 
9.440619469 -1.698334932 -2.001413107 0.9615632296 
9.506820679 -1.276743174 -2.001413107 0.9615632296 
9.592163086 -4.882812391e-06 -2.001413107 0.9615632296 
9.554203987 0.8525439501 -2.001413107 0.9615632296 
9.506811142 1.276743174 -2.001413107 0.9615632296 
9.252314568 2.530683517 -2.001413107 0.9615632296 
8.990776062 3.343002796 -2.001413107 0.9615632296 
8.833153725 3.739677668 -2.001413107 0.96156317 
8.658076286 4.128871918 -2.001413107 0.96156317 
8.465815544 4.509960651 -2.001413107 0.96156317 
8.256820679 4.882050514 -2.001413107 0.9615632296 
8.031469345 5.244545937 -2.001413107 0.96156317 
7.790248871 5.596586704 -2.001413107 0.9615632296 
7.133159161 5.622001648 -1.895027757 0.963568449 
6.713832855 5.7939744 -1.850380778 0.9644117951 
6.444818974 6.082367897 -1.849013209 0.9644373059 
5.577895164 6.886074066 -1.849013209 0.9644373059 
5.266074181 7.127358437 -1.849013209 0.9644373655 
4.943784237 7.354579926 -1.849013209 0.9644373059 
4.270551682 7.764873028 -1.849013209 0.9644373059 
3.927475452 7.960385799 -1.852095127 0.9643791318 
3.569082022 8.126381874 -1.851901412 0.9643827677 
2.45510745 8.526821136 -1.851405621 0.9643921256 
1.687289953 8.710073471 -1.851149201 0.9643970132 
1.298066378 8.77602005 -1.85104394 0.9643989801 
0.9063037038 8.824647903 -1.850954413 0.9644006491 
0.5128710866 8.855874062 -1.850880742 0.9644020796 
0.1183740199 8.869643211 -1.850822806 0.9644031525 
-0.2762451172 8.865932465 -1.850781083 0.9644039273 
-0.542124033 7.15244627 -1.496643901 0.9711155891 
-1.174013615 7.065907955 -1.494519353 0.9711560607 
-1.481704116 6.981093407 -1.489058614 0.971259892 
-2.124663115 6.91404295 -1.509201884 0.9708768725 
-1.339887619 3.286391497 -0.7405087352 0.9856027961 
-1.413334966 3.06843257 -0.7048809528 0.9862906933 
-1.481953144 2.87365222 -0.674623549 0.9868752956 
-1.557885766 2.716913939 -0.6534674168 0.9872842431 
-1.705024362 2.441430569 -0.6213331223 0.9879057407 
-1.884282231 2.243344784 -0.6112824678 0.9881002307 
-2.228471518 2.218574286 -0.6561100483 0.9872331619 
-2.870595694 2.180766582 -0.752186656 0.9853773713 
-3.147260666 2.177182674 -0.798489809 0.9844842553 
-3.464443207 2.175307512 -0.853540659 0.9834234715 
-8.730151176 3.974155188 -2.001413107 0.9615632892 
-8.898383141 3.581845522 -2.001413107 0.9615629911 
-9.048812866 3.182504892 -2.001413107 0.9615632892 
-9.181440353 2.776791811 -2.001413107 0.9615632892 
-9.295907974 2.365581036 -2.001413107 0.96156317 
-9.588749886 0.2560791075 -2.001413107 0.9615632296 
-9.537514687 -1.022485375 -2.001413107 0.9615632296 
-9.408901215 -1.866127849 -2.001413107 0.96156317 
-9.076816559 -3.101791859 -2.001413107 0.9615632296 
-8.929828644 -3.502529144 -2.001413107 0.9615632296 
-8.765210152 -3.896264553 -2.001413107 0.96156317 
-8.583192825 -4.282348633 -2.001413107 0.9615632296 
-8.384189606 -4.659955978 -2.001413107 0.96156317 
-7.689389706 -5.734379768 -2.001413107 0.96156317 
-7.426669598 -6.070790768 -2.001413107 0.96156317 
-7.149301529 -6.395122051 -2.001413107 0.9615631104 
-6.234467506 -7.289809227 -2.001413107 0.96156317 
-5.90412569 -7.559897423 -2.001413107 0.9615629911 
-5.561938286 -7.815073013 -2.001413107 0.9615630507 
-5.208808422 -8.054721832 -2.001413107 0.9615631104 
-3.700341702 -8.849692345 -2.001413107 0.9615632296 
-3.302983284 -9.005551338 -2.001413107 0.9615632296 
-2.489501953 -9.26348114 -2.001413107 0.9615632296 
-2.075322151 -9.365063667 -2.001413107 0.9615628719 
-1.65633297 -9.448081017 -2.001413107 0.9615632296 
-1.234208941 -9.512412071 -2.001413107 0.9615632892 
-0.4309326112 -5.084721565 -1.064733982 0.9793645144 
0.01908691414 -4.29070282 -0.8952678442 0.9826201797 
0.1977636665 -4.036889553 -0.8433100581 0.9836205244 
0.3607812524 -3.849643469 -0.8067498803 0.9843250513 
0.5211572051 -3.753954887 -0.7907784581 0.9846329689 
0.6931738257 -3.757158041 -0.7971631289 0.9845098257 
1.236982346 -3.784106255 -0.8306719661 0.9838640094 
1.430146456 -3.794526339 -0.8460977674 0.9835668206 
1.628554702 -3.799492121 -0.86252141 0.9832505584 
2.291977406 -3.837182522 -0.9325806499 0.9819024205 
2.816025257 -3.883163929 -1.00084877 0.9805905819 
3.168715715 -3.983832836 -1.062106133 0.9794149399 
6.614535809 -6.946660042 -2.001413107 0.9615635276 
7.480443954 -6.004408836 -2.001413107 0.96156317 
7.740092754 -5.665747166 -2.001413107 0.9615632296 
7.984487057 -5.31579113 -2.001413107 0.9615632296 
8.425355911 -4.585107327 -2.001413107 0.96156317 
9.229428291 -2.612910032 -2.001413107 0.9615632296 
9.578603745 -0.511958003 -2.001413107 0.9615628123 
9.586093903 0.3413769603 -2.001413107 0.9615632296 
9.455356598 1.614287019 -2.001413107 0.9615632296 
9.374203682 2.033252001 -2.001413107 0.96156317 
9.274467468 2.448266506 -2.001413107 0.9615632296 
9.156391144 2.85837388 -2.001413107 0.96156317 
8.077812195 5.17288065 -2.001413107 0.9615632296 
7.839731216 5.527060509 -2.001413107 0.96156317 
7.260307312 5.618222713 -1.915450811 0.9631831646 
5.639008522 6.836132526 -1.849013209 0.9644372463 
5.009086609 7.310258389 -1.849013209 0.9644373059 
4.678911209 7.525864124 -1.849013209 0.9644373059 
3.277353525 8.247602463 -1.851756573 0.9643855095 
2.906923771 8.384482384 -1.851588249 0.9643886685 
2.149877787 8.608300209 -1.85129571 0.9643942118 
0.9848583937 8.816303253 -1.850970984 0.964400351 
-0.4843896329 7.24648428 -1.51535821 0.9707597494 
-0.7803466916 6.985478401 -1.466592669 0.9716873169 
-1.101415992 7.014799595 -1.481574416 0.9714022279 
-1.421577096 7.004081726 -1.4912045 0.9712190628 
-1.767778277 7.078344345 -1.522263885 0.9706285 
-1.328422785 3.343041897 -0.750579536 0.9854083657 
-1.399619102 3.111210823 -0.7118189931 0.986156702 
-1.543569326 2.748310566 -0.6576895118 0.9872025847 
-1.689589858 2.465781212 -0.6236799359 0.987860322 
-1.864936471 2.260859251 -0.6115096807 0.98809582 
-2.190883636 2.220312357 -0.6508337259 0.9873351455 
-2.592807531 2.197548866 -0.7091613412 0.9862080216 
-2.821430683 2.183320284 -0.74436903 0.9855282307 
-3.404526234 2.180195332 -0.8435270786 0.9836163521 
-3.782783031 2.191474676 -0.9121626019 0.9822950959 
-8.505649567 4.434384823 -2.001413107 0.96156317 
-8.694467545 4.051664829 -2.001413107 0.9615632296 
-9.020190239 3.262895346 -2.001413107 0.9615631104 
-9.374203682 2.033252001 -2.001413107 0.96156317 
-9.54624939 -0.9375146031 -2.001413107 0.96156317 
-9.336523056 -2.199809551 -2.001413107 0.96156317 
-9.229409218 -2.612983227 -2.001413107 0.9615632296 
-8.799526215 -3.81812501 -2.001413107 0.9615632296 
-8.620962143 -4.205800533 -2.001413107 0.9615632296 
-8.213031769 -4.955385685 -2.001413107 0.9615632296 
-7.984491825 -5.315795898 -2.001413107 0.96156317 
-7.205893517 -6.331259727 -2.001413107 0.9615632296 
-5.631117821 -7.765263557 -2.001413107 0.9615634084 
-5.280185223 -8.008056641 -2.001413107 0.9615632892 
-4.54757309 -8.445669174 -2.001413107 0.9615632296 
-3.382973671 -8.975820541 -2.001413107 0.96156317 
-2.571821213 -9.240966797 -2.001413107 0.9615632296 
-2.158266544 -9.346215248 -2.001413107 0.96156317 
-1.318784118 -9.501044273 -2.001413107 0.9615633488 
-0.4789990187 -5.110981464 -1.07108295 0.9792427421 
-0.234438464 -4.78538084 -0.999671936 0.9806131721 
0.4870654047 -3.753251791 -0.7896851301 0.9846540689 
0.6585546732 -3.756562471 -0.7957630754 0.9845368862 
1.012348652 -3.766972542 -0.813870132 0.9841877818 
1.588295817 -3.798549652 -0.859063983 0.9833170772 
1.796420813 -3.810546875 -0.878995955 0.9829333425 
2.756621122 -3.87336421 -0.99195683 0.9807613492 
6.23445797 -7.28979969 -2.001413107 0.9615632296 
6.552602291 -7.005229473 -2.001413107 0.96156317 
7.149272442 -6.395117283 -2.001413107 0.9615632296 
7.426713467 -6.07072258 -2.001413107 0.9615632296 
8.168608665 -5.02826643 -2.001413107 0.9615632296 
8.384222984 -4.659882545 -2.001413107 0.9615632296 
8.765210152 -3.896254778 -2.001413107 0.9615632296 
8.929839134 -3.502529144 -2.001413107 0.9615632296 
9.205795288 -2.694995165 -2.001413107 0.9615632296 
9.482597351 -1.445698261 -2.001413107 0.9615632296 
9.537519455 -1.022490263 -2.001413107 0.96156317 
9.573564529 -0.5971728563 -2.001413107 0.9615632296 
9.590649605 -0.1707568318 -2.001413107 0.9615632296 
9.588754654 0.2560791075 -2.001413107 0.96156317 
9.528037071 1.107304692 -2.001413107 0.9615632296 
9.39197731 1.949760675 -2.001413107 0.9615629911 
9.29587841 2.365664005 -2.001413107 0.9615632296 
9.18144989 2.776796818 -2.001413107 0.9615632296 
9.048837662 3.182504892 -2.001413107 0.96156317 
8.730160713 3.974155188 -2.001413107 0.9615632296 
8.34239769 4.734360218 -2.001413107 0.96156317 
8.123569489 5.100741863 -2.001413107 0.96156317 
7.888598442 5.457089901 -2.001413107 0.96156317 
7.390278339 5.614326 -1.936486006 0.9627866149 
6.552065372 5.966674805 -1.849013209 0.9644373655 
6.280141354 6.252260685 -1.849013209 0.9644373059 
5.699584961 6.7856884 -1.849013209 0.9644373059 
4.068676472 7.889589787 -1.852176309 0.9643775821 
3.350668907 8.218276024 -1.851791978 0.9643848538 
2.606518507 8.482050896 -1.851464152 0.9643910527 
1.842060447 8.678891182 -1.851195693 0.9643961191 
1.454111338 8.751708984 -1.851084232 0.9643982053 
1.063276291 8.807274818 -1.850988388 0.964400053 
0.6704443097 8.845473289 -1.850908279 0.9644015431 
-0.1184472665 8.869516373 -1.850795865 0.9644036293 
-0.4225732386 7.296708584 -1.525015712 0.9705762267 
-0.7209228277 7.019067287 -1.472239017 0.9715798497 
-1.359838843 7.019687176 -1.491892099 0.9712060094 
-1.702006817 7.08246088 -1.51983273 0.9706746936 
-1.995844722 6.931791782 -1.505085588 0.970955193 
-2.347949266 6.972011566 -1.534997225 0.9703865647 
-1.528979421 2.780039072 -0.6619971991 0.9871193171 
-1.599438429 2.624428749 -0.6412680149 0.9875201583 
-1.673969746 2.4902637 -0.6260761619 0.9878140092 
-1.751518488 2.370585918 -0.6149876118 0.9880285263 
-1.845478415 2.278300762 -0.6117568612 0.9880910516 
-1.976772428 2.229775429 -0.6217480302 0.9878976941 
-2.34013176 2.208520412 -0.6713810563 0.9869379401 
-2.776210785 2.18809557 -0.7375466228 0.9856599569 
-3.042582989 2.185815334 -0.7816767097 0.984808445 
-3.334028244 2.177114248 -0.8308269978 0.9838610291 
-3.702543974 2.189213753 -0.8974757791 0.9825776815 
-8.658076286 4.128867149 -2.001413107 0.96156317 
-8.990796089 3.343012571 -2.001413107 0.9615631104 
-9.130576134 2.939804554 -2.001413107 0.96156317 
-9.582680702 0.4266454875 -2.001413107 0.96156317 
-9.171987534 0 -2.001413107 0.9631450772 
-9.13569355 -0.8152050376 -2.001413107 0.9631450176 
-9.027084351 -1.623955011 -2.001413107 0.9631450176 
-8.730609894 -2.811000824 -2.001413107 0.9631450772 
-8.596928596 -3.196582079 -2.001413107 0.9631450772 
-8.278799057 -3.948027372 -2.001413107 0.9631450176 
-7.679653168 -5.014814377 -2.001413107 0.9631450176 
-7.448979378 -5.351454735 -2.001413107 0.9631450772 
-6.943871975 -5.992348671 -2.001413107 0.9631450176 
-6.383813381 -6.585790634 -2.001413107 0.963144958 
-5.773173809 -7.127119064 -2.001413107 0.9631450772 
-5.116948128 -7.612045765 -2.001413107 0.9631448388 
-4.773119926 -7.832104206 -2.001413107 0.963145256 
-3.3110497 -8.553496361 -2.001413107 0.9631450772 
-2.92729497 -8.69230938 -2.001413107 0.9631450772 
-0.4993408024 -4.861855507 -1.066482186 0.9801891446 
-0.05686035007 -4.259086609 -0.9294538498 0.982712388 
0.2907470763 -3.836079121 -0.839469254 0.9843729734 
0.6216112971 -3.741303682 -0.8275779486 0.9845926166 
0.9719287157 -3.749365091 -0.8451871276 0.984267354 
1.155922771 -3.761533022 -0.8586840034 0.984018147 
1.346743107 -3.77548337 -0.8746902347 0.9837226868 
1.743642569 -3.785580873 -0.9094622731 0.9830811024 
1.958374023 -3.797465801 -0.932343781 0.9826591611 
2.417348623 -3.812128782 -0.9849901199 0.9816889763 
3.003705978 -3.917514563 -1.077193499 0.9799921513 
5.898901463 -7.023266315 -2.001413107 0.9631454945 
7.303461552 -5.5484128 -2.001413107 0.9631450176 
7.542993069 -5.218022346 -2.001413107 0.963145256 
7.76769495 -4.877324104 -2.001413107 0.9631450772 
7.976967812 -4.526957989 -2.001413107 0.9631450772 
8.508529663 -3.424956083 -2.001413107 0.9631450176 
8.65246582 -3.04307127 -2.001413107 0.9631450176 
8.980512619 -1.864360332 -2.001413107 0.9631450176 
9.054550171 -1.463027358 -2.001413107 0.9631450772 
9.170532227 0.1632470638 -2.001413107 0.9631450772 
9.067212105 1.382392526 -2.001413107 0.9631450772 
8.996743202 1.784365177 -2.001413107 0.9631450772 
8.908471107 2.182802677 -2.001413107 0.9631450176 
8.80254364 2.576928616 -2.001413107 0.9631450772 
8.538676262 3.349086761 -2.001413107 0.9631450772 
8.01693821 4.455795765 -2.001413107 0.9631450176 
6.868461609 5.614458084 -1.935773849 0.9643319249 
6.058007717 5.924696922 -1.849013209 0.9659029841 
5.788471699 6.188315392 -1.849013209 0.9659029841 
5.507465839 6.43969202 -1.849013209 0.9659029245 
5.215546608 6.678300858 -1.849013209 0.9659029841 
4.913305759 6.903700829 -1.849013209 0.9659029841 
4.601323128 7.115424633 -1.849013209 0.9659029841 
3.613325119 7.66455555 -1.849013209 0.9659029841 
1.0918262 8.413759232 -1.851353526 0.9658605456 
0.3396630883 8.476840973 -1.851209521 0.9658631682 
-0.03594726324 8.078242302 -1.762763143 0.967467308 
-0.3627099395 7.40420866 -1.617605209 0.9701058269 
-2.275170803 6.960063457 -1.597839594 0.9704657197 
-1.253745079 3.326435566 -0.7757024169 0.9855513573 
-1.399330974 2.901025295 -0.7028256059 0.9868998528 
-1.551000953 2.596674681 -0.6599985957 0.9876931906 
-1.627055645 2.46760726 -0.6449685693 0.9879717827 
-2.289926767 2.200004816 -0.6929218769 0.9870832562 
-2.4868505 2.184985399 -0.7223536372 0.9865383506 
-2.7109375 2.176030159 -0.7585480809 0.9858686328 
-2.954028368 2.162328959 -0.7988344431 0.9851236939 
-3.221293926 2.14463377 -0.8444476724 0.9842810035 
-3.558559418 2.147065401 -0.9069001675 0.9831283092 
-3.971406221 2.161259651 -0.9866124392 0.9816591144 
-8.568124771 3.272973537 -2.001413107 0.9631450772 
-9.012280464 1.704238296 -2.001413107 0.9631450176 
-9.15891552 0.4895312488 -2.001413107 0.9631450772 
-9.171626091 0.0816308558 -2.001413107 0.9631450772 
-9.100883484 -1.139838815 -2.001413107 0.9631450772 
-9.041176796 -1.543549776 -2.001413107 0.9631450176 
-8.963563919 -1.94420898 -2.001413107 0.9631450176 
-8.868198395 -2.341015577 -2.001413107 0.9631450772 
-8.755288124 -2.733203173 -2.001413107 0.9631450176 
-8.31360817 -3.874194145 -2.001413107 0.9631450176 
-8.133031845 -4.240175724 -2.001413107 0.9631450772 
-7.723979473 -4.946264744 -2.001413107 0.9631450772 
-7.253793716 -5.613193035 -2.001413107 0.9631450176 
-6.996918678 -5.930317402 -2.001413107 0.9631450176 
-6.145336628 -6.808823109 -2.001413107 0.9631450772 
-5.83636713 -7.075473309 -2.001413107 0.9631450176 
-5.515742302 -7.328056335 -2.001413107 0.9631453753 
-4.842563152 -7.789306641 -2.001413107 0.9631453753 
-4.491488934 -7.997050762 -2.001413107 0.9631448388 
-4.131225586 -8.188916206 -2.001413107 0.9631450772 
-3.762871027 -8.364580154 -2.001413107 0.9631450772 
-3.387055635 -8.523691177 -2.001413107 0.9631450176 
-3.004526377 -8.665917397 -2.001413107 0.9631450772 
-2.222421885 -8.898661613 -2.001413107 0.9631450772 
-1.422719717 -9.060980797 -2.001413107 0.9631450176 
-0.5456200838 -4.884360313 -1.072441101 0.9800795317 
-0.3144287169 -4.703642368 -1.028668404 0.9808847904 
0.4172607362 -3.735302687 -0.8201464415 0.9847298861 
1.118486285 -3.758535147 -0.8556911945 0.9840734005 
1.308344722 -3.77362299 -0.8715276122 0.9837810397 
1.50182128 -3.779413939 -0.8874292374 0.983487606 
1.7021631 -3.783788919 -0.9053566456 0.9831568599 
2.619125843 -3.82237792 -1.011098266 0.9812082052 
5.836381912 -7.075459003 -2.001413107 0.9631450176 
6.44214344 -6.528720379 -2.001413107 0.9631450176 
6.996918678 -5.930307388 -2.001413107 0.9631450176 
7.253798485 -5.613188267 -2.001413107 0.9631450176 
7.936371803 -4.597768307 -2.001413107 0.9631450176 
8.477714539 -3.500541925 -2.001413107 0.9631450176 
8.755288124 -2.733188391 -2.001413107 0.9631450772 
9.158910751 0.4895361364 -2.001413107 0.9631450772 
9.128070831 0.8964745998 -2.001413107 0.9631450772 
9.079154968 1.301635742 -2.001413107 0.9631450772 
8.825126648 2.49848628 -2.001413107 0.9631450772 
8.705253601 2.888583899 -2.001413107 0.9631450772 
8.414067268 3.650873899 -2.001413107 0.9631450176 
7.853271484 4.7383008 -2.001413107 0.9631450772 
7.634663105 5.08295393 -2.001413107 0.963145256 
6.408383846 5.630522251 -1.86144197 0.9656777382 
6.110493183 5.870551586 -1.849013209 0.9659029841 
5.843305588 6.136552811 -1.849013209 0.9659029841 
5.564565182 6.39041996 -1.849013209 0.9659029245 
4.974545956 6.85970211 -1.849013209 0.9659029841 
4.664467812 7.074193954 -1.849013209 0.9659029841 
4.34516573 7.27468729 -1.849013209 0.9659029841 
3.338237286 7.788305283 -1.849013209 0.9659029841 
2.636860371 8.066533089 -1.851849794 0.9658516049 
2.275243998 8.175214767 -1.851708293 0.9658541679 
1.539428711 8.344008446 -1.851468921 0.9658585191 
1.166679621 8.403788567 -1.851371288 0.9658602476 
0.7916454673 8.44699192 -1.851288676 0.9658617377 
0.03774902225 8.483368874 -1.85116899 0.9658639431 
-0.5951708555 7.022817135 -1.537937403 0.9715569615 
-1.223886728 6.981352329 -1.546627641 0.971398592 
-1.566811442 7.071547508 -1.58050096 0.9707814455 
-1.385048747 2.937953949 -0.7087576389 0.986790061 
-1.464457989 2.778725624 -0.6853965521 0.9872226715 
-1.611264586 2.491635799 -0.6474761963 0.9879252911 
-1.6884619 2.372465849 -0.6354148984 0.9881488681 
-1.761528254 2.255571127 -0.6244958639 0.9883513451 
-2.070268393 2.213276386 -0.6613066196 0.9876689911 
-2.253334999 2.203749895 -0.6877572536 0.9871789217 
-2.444453001 2.186586857 -0.7156639099 0.986662209 
-2.664409161 2.177953959 -0.7509224415 0.9860096574 
-2.897660971 2.160937548 -0.7887619138 0.9853098989 
-3.480302572 2.142324209 -0.89177984 0.983407259 
-3.876601458 2.15459466 -0.9677831531 0.9820058942 
-8.207221031 4.094746113 -2.001413107 0.9631450176 
-8.38125515 3.725610256 -2.001413107 0.9631450176 
-8.80254364 2.576928616 -2.001413107 0.9631450772 
-9.067221642 1.382392526 -2.001413107 0.9631450176 
-9.11974144 0.9776708484 -2.001413107 0.9631450176 
-9.154204369 0.571020484 -2.001413107 0.9631450176 
-9.170536995 0.1632470638 -2.001413107 0.9631450772 
-9.148755074 -0.6524755955 -2.001413107 0.9631450176 
-9.110669136 -1.058803678 -2.001413107 0.9631450772 
-8.980512619 -1.864360332 -2.001413107 0.9631450176 
-8.888681412 -2.26200676 -2.001413107 0.9631450772 
-8.779262543 -2.655165911 -2.001413107 0.9631450772 
-8.65246582 -3.04307127 -2.001413107 0.9631450176 
-8.508520126 -3.424951077 -2.001413107 0.9631450772 
-8.347758293 -3.800048828 -2.001413107 0.9631450176 
-7.303452015 -5.548408031 -2.001413107 0.9631450772 
-7.049408913 -5.86780262 -2.001413107 0.9631450772 
-6.781415939 -6.17557621 -2.001413107 0.9631450772 
-6.499985218 -6.471132755 -2.001413107 0.9631450772 
-6.205649376 -6.753867149 -2.001413107 0.9631451368 
-5.580751896 -7.278686523 -2.001413107 0.9631453156 
-5.251479149 -7.51973629 -2.001413107 0.963145256 
-4.562572956 -7.956767559 -2.001413107 0.96314466 
-4.203940392 -8.151816368 -2.001413107 0.9631450772 
-3.081542969 -8.638837814 -2.001413107 0.9631450176 
-2.694213867 -8.767363548 -2.001413107 0.9631450176 
-2.301528215 -8.878530502 -2.001413107 0.9631450772 
-1.503295898 -9.047958374 -2.001413107 0.9631450176 
0.05489257723 -4.111552715 -0.8972601295 0.9833062291 
0.9000536799 -3.745322227 -0.8405318856 0.9843533039 
1.081513643 -3.75625968 -0.8529487252 0.9841240048 
1.26981926 -3.770620108 -0.8681877851 0.9838426709 
1.462641597 -3.778476477 -0.8841153383 0.9835487008 
1.661469698 -3.782953978 -0.901584506 0.9832264185 
1.872680664 -3.79564929 -0.9235665798 0.9828209877 
2.322661161 -3.811137676 -0.9738963246 0.981893301 
2.56724596 -3.819116116 -1.004152894 0.9813361168 
2.864951134 -3.877568245 -1.052020073 0.9804551601 
5.77333498 -7.127104282 -2.001413107 0.9631447196 
6.383783817 -6.585790634 -2.001413107 0.9631450772 
6.943871975 -5.992338657 -2.001413107 0.9631450176 
7.448979378 -5.35145998 -2.001413107 0.9631450176 
7.895131588 -4.668217659 -2.001413107 0.9631450772 
8.278803825 -3.948017597 -2.001413107 0.9631450176 
8.446229935 -3.575844765 -2.001413107 0.9631450176 
8.730620384 -2.811010599 -2.001413107 0.9631450176 
8.945902824 -2.023906231 -2.001413107 0.9631450772 
9.027074814 -1.623955011 -2.001413107 0.9631450772 
9.090385437 -1.220790982 -2.001413107 0.9631450176 
9.162904739 0.4079980254 -2.001413107 0.9631450772 
9.090385437 1.220786095 -2.001413107 0.9631450176 
9.027074814 1.623955011 -2.001413107 0.9631450772 
8.596928596 3.196591616 -2.001413107 0.9631450772 
8.446229935 3.575839758 -2.001413107 0.9631450176 
8.278793335 3.948027372 -2.001413107 0.9631450772 
8.09498024 4.312392712 -2.001413107 0.9631450176 
7.679633617 5.014804363 -2.001413107 0.9631451368 
7.448988914 5.351454735 -2.001413107 0.9631450176 
7.113969803 5.606914043 -1.976522207 0.9635949135 
6.518276215 5.62501955 -1.878728867 0.9653644562 
5.621220589 6.34064436 -1.849013209 0.9659029245 
4.409731388 7.235722542 -1.849013209 0.9659030437 
4.083496094 7.424726486 -1.849013209 0.9659029841 
3.749174833 7.599028111 -1.849013209 0.9659029841 
3.063940287 7.91510725 -1.852037907 0.9658481479 
2.347954035 8.154769897 -1.851735473 0.9658536315 
1.982724547 8.250566483 -1.851605654 0.9658560157 
1.613642573 8.330078125 -1.851490259 0.9658581018 
1.24143064 8.393154144 -1.851389527 0.9658599496 
0.1132519543 8.482744217 -1.85117805 0.9658637643 
-1.502915025 7.080932617 -1.579544902 0.9707988501 
-1.371674776 2.977998018 -0.7154456973 0.9866662621 
-1.523251891 2.656513691 -0.6682088971 0.9875410199 
-1.595966816 2.516816378 -0.6503015161 0.9878728986 
-1.673373938 2.396108389 -0.6377329826 0.9881058931 
-1.747231364 2.278784037 -0.6265918016 0.9883124232 
-1.866713881 2.222421885 -0.6333239675 0.9881876111 
-2.0351367 2.214912176 -0.6563565135 0.9877607226 
-2.216098547 2.206259727 -0.682359159 0.9872789383 
-2.402954102 2.188286066 -0.709189713 0.986782074 
-8.170454025 4.167626858 -2.001413107 0.9631450176 
-8.508481026 3.424951077 -2.001413107 0.9631451964 
-8.652475357 3.043061495 -2.001413107 0.9631450176 
-8.980522156 1.864360332 -2.001413107 0.9631450176 
-9.110673904 1.05879879 -2.001413107 0.9631450176 
-9.148744583 0.6524755955 -2.001413107 0.9631450772 
-9.168725014 0.2448632717 -2.001413107 0.9631450176 
-9.170541763 -0.1632568389 -2.001413107 0.9631450176 
-9.119735718 -0.9776806235 -2.001413107 0.9631450176 
-8.996743202 -1.784370065 -2.001413107 0.9631450772 
-8.207206726 -4.094760418 -2.001413107 0.9631450772 
-8.01693821 -4.455790997 -2.001413107 0.9631450772 
-7.810795784 -4.808007717 -2.001413107 0.9631450176 
-6.836098671 -6.114984989 -2.001413107 0.9631450772 
-6.265571117 -6.698388577 -2.001413107 0.963144958 
-5.961376667 -6.970468521 -2.001413107 0.9631450176 
-4.276328087 -8.114081383 -2.001413107 0.9631450772 
-3.911147356 -8.296274185 -2.001413107 0.9631450772 
-3.538237333 -8.462055206 -2.001413107 0.9631450176 
-3.158290863 -8.611068726 -2.001413107 0.9631450772 
-2.772124052 -8.743037224 -2.001413107 0.9631450772 
-2.380463839 -8.857700348 -2.001413107 0.9631450176 
-0.639580071 -4.928676605 -1.084499478 0.9798578024 
-0.4081738293 -4.81618166 -1.054703474 0.9804058075 
-0.1752587855 -4.373877048 -0.9551865458 0.9822380543 
0.3529345691 -3.765893459 -0.825353384 0.9846336842 
0.864770472 -3.744907141 -0.838678062 0.9843875766 
1.044760704 -3.753974438 -0.850284338 0.9841732383 
1.231586933 -3.767597675 -0.8649349213 0.9839027524 
1.423745036 -3.777495146 -0.8808885217 0.9836083055 
1.621103525 -3.782114267 -0.8979079127 0.9832942486 
1.829663038 -3.793168783 -0.9189653397 0.9829058647 
2.276054621 -3.810580969 -0.9685382843 0.9819920659 
6.324897289 -6.642348289 -2.001413107 0.9631450772 
6.614140511 -6.354413986 -2.001413107 0.9631450176 
6.890258789 -6.053901196 -2.001413107 0.9631450772 
7.152739048 -5.741401196 -2.001413107 0.9631450772 
8.568144798 -3.272968769 -2.001413107 0.9631450176 
8.825131416 -2.498491049 -2.001413107 0.9631450772 
9.079164505 -1.301645517 -2.001413107 0.9631450176 
9.158910751 -0.4895263612 -2.001413107 0.9631450772 
9.171649933 -0.08161620796 -2.001413107 0.963144958 
9.166176796 0.3264404237 -2.001413107 0.9631450772 
8.963559151 1.944199204 -2.001413107 0.9631450772 
8.868198395 2.341020346 -2.001413107 0.9631450772 
8.625034332 3.119956017 -2.001413107 0.9631450772 
8.133041382 4.240175724 -2.001413107 0.9631450176 
7.240585804 5.602973461 -1.997770786 0.9632108808 
5.951596737 6.03157711 -1.849013209 0.9659029841 
5.095869064 6.770072937 -1.849013209 0.9659029245 
4.78967762 6.990053654 -1.849013209 0.9659029245 
4.473949909 7.196200848 -1.849013209 0.9659029841 
4.149404049 7.388090611 -1.849013209 0.9659029841 
3.47633791 7.727651119 -1.849013209 0.9659029841 
1.687729478 8.315483093 -1.851512074 0.9658576846 
0.9418749809 8.431708336 -1.85131979 0.9658612013 
0.5658593774 8.464921951 -1.851246238 0.9658625126 
0.1887402236 8.481440544 -1.851188064 0.9658635855 
-0.7846874595 7.024555683 -1.542357445 0.9714764357 
-1.414711833 6.970214844 -1.551976919 0.9713010788 
-2.041293859 6.859506607 -1.561682701 0.9711242914 
-1.283598661 3.230239153 -0.7584795356 0.9858698845 
-1.3579638 3.018657207 -0.7222808599 0.9865397215 
-1.432416916 2.839345694 -0.6939488053 0.9870642424 
-1.732778311 2.302070379 -0.6287310719 0.9882727861 
-1.834365249 2.223808527 -0.6290400624 0.9882670641 
-2.178813457 2.208090782 -0.6769011021 0.9873800278 
-2.364721537 2.192275286 -0.7036343217 0.986884892 
-2.573964834 2.181591749 -0.7362630367 0.9862809181 
-3.356879711 2.149667978 -0.8698226213 0.983812511 
-8.133047104 4.240175724 -2.001413107 0.9631450176 
-8.313603401 3.87418437 -2.001413107 0.9631450772 
-8.477724075 3.500546694 -2.001413107 0.9631450176 
-8.755278587 2.733193398 -2.001413107 0.9631450772 
-8.8682127 2.341001034 -2.001413107 0.9631450176 
-9.100893021 1.139838815 -2.001413107 0.9631450176 
-9.142582893 0.733872056 -2.001413107 0.9631450772 
-9.166181564 0.3264453113 -2.001413107 0.9631450176 
-9.171626091 -0.08162109554 -2.001413107 0.9631450772 
-9.158910751 -0.4895312488 -2.001413107 0.9631450772 
-9.079154968 -1.301650405 -2.001413107 0.9631450772 
-9.012269974 -1.704233408 -2.001413107 0.9631450176 
-8.92754364 -2.103437424 -2.001413107 0.9631450176 
-8.825126648 -2.498491049 -2.001413107 0.9631450772 
-8.705253601 -2.888588905 -2.001413107 0.9631450772 
-8.243325233 -4.021552563 -2.001413107 0.9631450772 
-8.056269646 -4.384282112 -2.001413107 0.9631450176 
-7.853271484 -4.738305569 -2.001413107 0.9631450176 
-6.023169041 -6.917133808 -2.001413107 0.9631450772 
-5.384663105 -7.425107479 -2.001413107 0.9631447792 
-5.048925877 -7.657270432 -2.001413107 0.9631450176 
-3.234789848 -8.582621574 -2.001413107 0.9631450772 
-2.849799633 -8.718027115 -2.001413107 0.9631450772 
-2.459184408 -8.836156845 -2.001413107 0.9631450772 
-1.664106369 -9.019755363 -2.001413107 0.9631450772 
-0.6918994188 -4.983876705 -1.09795773 0.9796104431 
-0.2161913961 -4.413168907 -0.9641496539 0.9820728898 
-0.01876953058 -4.21597147 -0.9199737906 0.9828872085 
0.1595751941 -3.982294798 -0.8696736693 0.9838153124 
0.3221093714 -3.800756693 -0.832334578 0.9845047593 
0.4851611257 -3.738701105 -0.8226591945 0.984683454 
1.193618178 -3.764570236 -0.8617670536 0.9839612246 
1.385112286 -3.776499033 -0.8777468801 0.9836662412 
1.581044912 -3.781235218 -0.8943244219 0.9833603501 
2.001816273 -3.798325062 -0.9368932247 0.9825752974 
3.075551748 -3.938129902 -1.090345025 0.9797503948 
5.961381912 -6.970458984 -2.001413107 0.9631450772 
6.265581131 -6.698369026 -2.001413107 0.9631450176 
6.557329178 -6.413022518 -2.001413107 0.9631450176 
6.836112976 -6.114975452 -2.001413107 0.9631450772 
7.352553368 -5.483188152 -2.001413107 0.9631450772 
7.810795784 -4.807997704 -2.001413107 0.9631450772 
8.01693821 -4.455795765 -2.001413107 0.9631450176 
8.207221031 -4.094760418 -2.001413107 0.9631450176 
8.381249428 -3.725605488 -2.001413107 0.9631450176 
8.679208755 -2.965947151 -2.001413107 0.9631450176 
8.80254364 -2.576923847 -2.001413107 0.9631450772 
8.908461571 -2.182807684 -2.001413107 0.9631450772 
8.996747971 -1.784365177 -2.001413107 0.9631450176 
9.067212105 -1.382392526 -2.001413107 0.9631450772 
9.119730949 -0.9776806235 -2.001413107 0.9631450772 
9.170532227 -0.1632421911 -2.001413107 0.9631450772 
9.168720245 0.2448632717 -2.001413107 0.9631450772 
9.148755074 0.6524707079 -2.001413107 0.9631450176 
9.054550171 1.463032246 -2.001413107 0.9631450772 
8.980522156 1.864355445 -2.001413107 0.9631450176 
8.888656616 2.261996984 -2.001413107 0.9631451368 
8.779267311 2.655161142 -2.001413107 0.9631450176 
8.170449257 4.167631626 -2.001413107 0.9631450772 
7.976967812 4.526957989 -2.001413107 0.9631450772 
7.54305172 5.218027115 -2.001413107 0.9631450176 
6.749438286 5.618081093 -1.916232705 0.9646853805 
6.00503397 5.978378773 -1.849013209 0.9659029841 
5.155917645 6.724457741 -1.849013209 0.9659029245 
4.85168457 6.947148323 -1.849013209 0.9659029245 
4.214990139 7.350869179 -1.849013209 0.9659029841 
3.883827925 7.531098366 -1.849013209 0.9659029841 
3.204448223 7.85959959 -1.852105021 0.9658469558 
2.851401329 7.99366188 -1.851941347 0.965849936 
2.492797852 8.111933708 -1.851791501 0.9658526182 
2.129326105 8.214184761 -1.851655841 0.9658551216 
1.016889572 8.423066139 -1.851336479 0.9658609033 
0.641166985 8.459609032 -1.851259828 0.9658622742 
-0.4218212664 7.283735275 -1.592042208 0.9705712199 
-0.7171044946 6.98214817 -1.531584263 0.971672833 
-1.986860275 6.900619984 -1.566956758 0.9710282087 
-1.205371022 3.579223633 -0.8241183758 0.9846565127 
-1.416010737 2.870043993 -0.6983456016 0.9869828224 
-1.494555593 2.717426777 -0.6767333746 0.9873831272 
-1.564863205 2.567709923 -0.656149447 0.9877645373 
-1.642661095 2.44367671 -0.6425095797 0.9880173802 
-1.718168855 2.325449228 -0.6309142709 0.9882323146 
-1.966372013 2.218046904 -0.64681077 0.9879376292 
-2.142084837 2.209868193 -0.6715754271 0.9874786735 
-2.756469727 2.172529221 -0.7658482194 0.9857335687 
-3.282788038 2.143647432 -0.8555333018 0.9840763211 
-8.094989777 4.312382698 -2.001413107 0.9631450176 
-8.446181297 3.575839758 -2.001413107 0.9631451964 
-8.945902824 2.023891449 -2.001413107 0.9631450772 
-9.027084351 1.623950124 -2.001413107 0.9631450176 
-9.090385437 1.220786095 -2.001413107 0.9631450176 
-9.162909508 0.408002913 -2.001413107 0.9631450772 
-9.171987534 0 -2.001413107 0.9631450772 
-9.027084351 -1.623964787 -2.001413107 0.9631450176 
-8.847016335 -2.419858456 -2.001413107 0.9631450176 
-7.895122051 -4.668241978 -2.001413107 0.9631450176 
-7.679653168 -5.014814377 -2.001413107 0.9631450176 
-7.448974609 -5.351464748 -2.001413107 0.9631450772 
-7.203549862 -5.677529335 -2.001413107 0.9631450176 
-6.943842411 -5.992348671 -2.001413107 0.9631450772 
-6.383779049 -6.585785866 -2.001413107 0.9631450772 
-5.77312994 -7.127109051 -2.001413107 0.9631451964 
-5.450434685 -7.37688446 -2.001413107 0.9631450176 
-4.772983074 -7.832094669 -2.001413107 0.9631455541 
-4.058168888 -8.225356102 -2.001413107 0.9631450772 
-3.688286066 -8.39773941 -2.001413107 0.9631450176 
-3.311059475 -8.553501129 -2.001413107 0.9631450176 
-2.92729497 -8.69230938 -2.001413107 0.9631450772 
