# .PCD v0.7 - Point Cloud Data file format
VERSION 0.7
FIELDS x y z intensities
SIZE 4 4 4 4
TYPE F F F F
COUNT 1 1 1 1
WIDTH 920
HEIGHT 1
VIEWPOINT 0 0 0 1 0 0 0
POINTS 920
DATA ascii
2.721015453 -7.628100395 -2.001413107 0.9671806097 
3.057641506 -7.499516487 -2.001413107 0.9671805501 
4.637138367 -6.639955997 -2.001413107 0.9671805501 
5.208930492 -6.201532841 -2.001413107 0.9671805501 
5.479633808 -5.963676453 -2.001413107 0.9671806097 
5.739496708 -5.714028358 -2.001413107 0.9671805501 
5.988002777 -5.45304203 -2.001413107 0.9671806097 
6.224653244 -5.1812644 -2.001413107 0.9671806097 
6.448959827 -4.899248123 -2.001413107 0.9671806097 
6.660517216 -4.607529163 -2.001413107 0.9671806097 
7.043671608 -3.997304678 -2.001413107 0.9671806097 
7.752094746 -2.344506741 -2.001413107 0.9671806097 
7.848715782 -1.997348547 -2.001413107 0.9671806097 
8.04473114 -0.9349218607 -2.001413107 0.9671806097 
8.097553253 0.1441455036 -2.001413107 0.9671807289 
8.052729607 0.8632910252 -2.001413107 0.9671806097 
8.006361961 1.220654249 -2.001413107 0.9671806097 
7.944135666 1.575600505 -2.001413107 0.9671806097 
6.680864334 1.955805659 -1.720281959 0.9717247486 
5.811820984 1.986069322 -1.517776728 0.9750112891 
4.474496841 1.988999009 -1.210073709 0.9800263643 
4.029213905 2.010258675 -1.112755775 0.9816178083 
3.355453968 2.065478563 -0.9737135172 0.9838960767 
3.141176701 2.131879807 -0.9381498694 0.9844796658 
2.809028149 2.296166897 -0.8965818882 0.9851622581 
2.716245174 2.429711819 -0.9006064534 0.9850961566 
2.614306688 2.556782246 -0.9036619663 0.9850459695 
4.338466644 6.095971584 -1.849013209 0.9696412683 
4.063003063 6.28292942 -1.849013209 0.9696412683 
3.779482365 6.45744133 -1.849013209 0.9696413279 
1.941860318 7.225786209 -1.849013209 0.9696413875 
1.618549824 7.30501461 -1.849013209 0.9696413279 
1.2919873 7.369784832 -1.849013209 0.9696413279 
0.9628710747 7.419965744 -1.849013209 0.9696413279 
-0.36088866 7.36716795 -1.822774887 0.9700655937 
-0.6572998166 7.013617992 -1.740815997 0.9713921547 
-1.296196222 7.025546551 -1.765473604 0.9709929228 
-1.604965806 6.950258732 -1.762763143 0.9710367322 
-1.912553668 6.871987343 -1.762763143 0.9710367322 
-2.585649252 6.860249043 -1.811737299 0.9702441692 
-2.944584846 6.869843483 -1.847068548 0.9696727395 
-3.250707865 6.739140511 -1.849013209 0.9696413279 
-3.836791992 6.42355442 -1.849013209 0.9696413279 
-4.392524242 6.057118893 -1.849013209 0.9696413279 
-4.913618088 5.642890453 -1.849061131 0.969640553 
-6.084165096 5.345585823 -2.001413107 0.9671804905 
-6.315981388 5.069653034 -2.001413107 0.9671803117 
-6.535170555 4.783686638 -2.001413107 0.9671805501 
-6.741479397 4.488237381 -2.001413107 0.9671806097 
-7.429633617 3.223715782 -2.001413107 0.9671806097 
-7.686748028 2.550624847 -2.001413107 0.9671806097 
-7.792602539 2.206161976 -2.001413107 0.9671806097 
-7.95783186 1.504833937 -2.001413107 0.9671806693 
-8.060092926 0.7915966511 -2.001413107 0.9671806097 
-8.087333679 0.4322704971 -2.001413107 0.9671806097 
-8.098554611 0.07208495587 -2.001413107 0.9671806097 
-8.093745232 -0.2882665992 -2.001413107 0.9671806097 
-7.830629826 -2.067133665 -2.001413107 0.9671806097 
-7.730917931 -2.413422823 -2.001413107 0.9671806097 
-7.615912914 -2.754921913 -2.001413107 0.9671806097 
-7.48582983 -3.090976477 -2.001413107 0.9671806097 
-7.164736271 -3.338808537 -1.953377008 0.9679555297 
-5.645219803 -3.270444155 -1.612258315 0.9734765291 
-4.663315296 -3.287665844 -1.410010695 0.9767647386 
-4.267866135 -3.302577972 -1.333582759 0.9780102372 
-3.412377834 -4.136850357 -1.32522738 0.9781464934 
-4.276034832 -6.877973557 -2.001413107 0.9671807885 
-2.309868097 -7.762441158 -2.001413107 0.9671807885 
-1.256264567 -8.000849724 -2.001413107 0.9671806097 
-0.5401806235 -8.080844879 -2.001413107 0.9671806097 
0.5402050614 -8.080840111 -2.001413107 0.9671806097 
1.610942364 -7.937050819 -2.001413107 0.9671805501 
2.310014486 -7.762460709 -2.001413107 0.9671805501 
2.653012753 -7.652011395 -2.001413107 0.9671806097 
2.990781069 -7.526430607 -2.001413107 0.9671805501 
3.647758722 -7.230834961 -2.001413107 0.9671807289 
4.57779789 -6.680961609 -2.001413107 0.9671806693 
4.870497704 -6.470712662 -2.001413107 0.9671806097 
5.426352501 -6.012192249 -2.001413107 0.9671806097 
5.939233303 -5.506113052 -2.001413107 0.9671806097 
6.178295612 -5.236454964 -2.001413107 0.9671806097 
6.619252682 -4.666615963 -2.001413107 0.9671806097 
6.820287704 -4.367548943 -2.001413107 0.9671806097 
7.007817268 -4.059834003 -2.001413107 0.9671806097 
7.340932369 -3.420912981 -2.001413107 0.9671805501 
7.615912914 -2.754931688 -2.001413107 0.9671806097 
7.731098652 -2.413417816 -2.001413107 0.9671799541 
7.830629826 -2.067133665 -2.001413107 0.9671806097 
7.914828777 -1.716747999 -2.001413107 0.9671806097 
8.093745232 -0.2882373035 -2.001413107 0.9671806097 
8.060102463 0.7915966511 -2.001413107 0.9671806097 
7.883061409 1.857333899 -2.001413107 0.9671804905 
3.707163095 2.017451048 -1.042995691 0.982760191 
3.404653311 2.054199219 -0.9826450348 0.9837495685 
3.180205107 2.11727047 -0.9441412091 0.9843813777 
2.837080002 2.277294874 -0.8990332484 0.985122025 
2.735082865 2.403105497 -0.8997282386 0.9851105809 
2.542319298 2.6699121 -0.9110674262 0.9849243164 
2.513627768 2.8866992 -0.9459114671 0.9843522906 
4.118750095 6.24652338 -1.849013209 0.9696412683 
3.836801767 6.42355442 -1.849013209 0.9696413279 
3.250707865 6.739145279 -1.849013209 0.9696412683 
2.324819326 7.111845493 -1.849013209 0.9696412683 
1.68349123 7.290322304 -1.849013209 0.9696413279 
1.357504845 7.357997894 -1.849013209 0.9696413279 
0.6981787086 7.449535847 -1.849013209 0.9696413279 
0.366079092 7.473217487 -1.849013209 0.9696413279 
-0.2959912121 7.386669636 -1.826873422 0.9699993134 
-0.5937597752 7.005971432 -1.737539291 0.9714452028 
-0.9053857327 6.976987362 -1.738627791 0.9714276195 
-1.234526396 7.042016506 -1.76677978 0.9709717631 
-1.851308584 6.888735294 -1.762763143 0.9710367322 
-2.171635628 6.8491745 -1.775624514 0.9708285332 
-3.190561533 6.767812252 -1.849013209 0.9696413279 
-4.06299305 6.282915115 -1.849013209 0.9696413279 
-4.605336666 5.896943092 -1.849013209 0.9696413279 
-4.86307621 5.686235428 -1.849013209 0.9696413875 
-5.732236385 5.606010437 -1.981376052 0.9675035477 
-6.03640604 5.399526119 -2.001413107 0.9671803117 
-6.492319107 4.841664791 -2.001413107 0.9671805501 
-6.896938324 4.245463848 -2.001413107 0.9671806097 
-7.078969479 3.934462786 -2.001413107 0.9671806097 
-7.663744926 2.618940353 -2.001413107 0.9671806097 
-7.772646427 2.275439501 -2.001413107 0.9671806097 
-7.866176605 1.92739737 -2.001413107 0.9671806693 
-8.006361961 1.220629811 -2.001413107 0.9671806097 
-8.083168983 0.5042040944 -2.001413107 0.9671806097 
-8.095991135 -0.2162158191 -2.001413107 0.9671806097 
-8.04473114 -0.9349267483 -2.001413107 0.9671806097 
-7.848725319 -1.997348547 -2.001413107 0.9671805501 
-7.640131474 -2.687031269 -2.001413107 0.9671806097 
-5.785180569 -3.283124924 -1.643821359 0.9729643464 
-5.215380669 -3.274745941 -1.521844149 0.9749451876 
-4.756323338 -3.290278196 -1.429223895 0.9764518738 
-4.34448719 -3.300498009 -1.348297358 0.9777703285 
-3.749731302 -3.414750814 -1.253302336 0.9793202281 
-3.570659161 -3.55480957 -1.245119691 0.9794538021 
-3.416269541 -4.067265511 -1.312626362 0.9783520103 
-3.409194231 -4.44635725 -1.384607315 0.9771785736 
-4.637192249 -6.639965534 -2.001413107 0.9671803713 
-4.028501034 -7.025790691 -2.001413107 0.9671809077 
-3.712016582 -7.198051453 -2.001413107 0.9671807885 
-3.388178587 -7.356059551 -2.001413107 0.9671807289 
-3.05757308 -7.499501705 -2.001413107 0.9671807289 
-0.9706835747 -8.040493011 -2.001413107 0.9671806097 
-0.2522021532 -8.094945908 -2.001413107 0.9671806097 
0.1081298813 -8.098154068 -2.001413107 0.9671806097 
0.8274609447 -8.056493759 -2.001413107 0.9671806097 
1.540239215 -7.951069355 -2.001413107 0.9671806097 
2.584799767 -7.675336838 -2.001413107 0.9671805501 
3.256674767 -7.41520977 -2.001413107 0.9671807289 
3.583286047 -7.263002872 -2.001413107 0.9671807289 
3.90285635 -7.096405983 -2.001413107 0.9671807289 
4.21472168 -6.915766239 -2.001413107 0.9671806097 
4.518158913 -6.721430302 -2.001413107 0.9671806693 
5.097729206 -6.293251991 -2.001413107 0.9671806097 
5.372622013 -6.060248852 -2.001413107 0.9671806097 
5.636889458 -5.815258503 -2.001413107 0.9671806097 
6.360742092 -5.013261795 -2.001413107 0.9671806097 
6.577445984 -4.725351334 -2.001413107 0.9671806097 
6.971410751 -4.122045994 -2.001413107 0.9671806097 
7.147866249 -3.807861328 -2.001413107 0.9671806097 
7.310180664 -3.486127853 -2.001413107 0.9671806097 
7.591103554 -2.82258296 -2.001413107 0.9671806097 
7.811928749 -2.13671875 -2.001413107 0.9671806097 
8.090859413 -0.3602685332 -2.001413107 0.9671806097 
8.090854645 0.3602685332 -2.001413107 0.9671806097 
8.066830635 0.7198193073 -2.001413107 0.9671805501 
7.970912933 1.433945298 -2.001413107 0.9671806097 
6.076225281 1.956381798 -1.577482581 0.9740411043 
5.320546627 1.978344679 -1.402777672 0.9768825769 
4.68377924 1.982958913 -1.256925702 0.9792610407 
4.197113991 2.001542807 -1.149102807 0.9810230732 
3.785815239 2.016806602 -1.060034513 0.9824810624 
3.453627825 2.042065382 -0.9914992452 0.9836043715 
3.218139648 2.101445198 -0.9498159289 0.9842882752 
3.026616096 2.17437005 -0.9209502339 0.9847620726 
2.753862143 2.376498938 -0.8989097476 0.985123992 
2.656274319 2.506899357 -0.9025996923 0.9850634336 
2.553520441 2.634321213 -0.9066429734 0.9849970341 
2.519536018 2.842001915 -0.938579917 0.984472692 
2.539028168 3.134482384 -0.9968454242 0.9835167527 
3.893818378 6.389150143 -1.849013209 0.9696413279 
3.605742216 6.556049824 -1.849013209 0.9696412683 
3.310532093 6.709950924 -1.849013209 0.9696413279 
3.008774281 6.850575924 -1.849013209 0.9696413279 
1.748295903 7.275053501 -1.849013209 0.9696413279 
0.09990722686 7.4815135 -1.849013209 0.9696413279 
-0.2221533209 7.129702091 -1.762763143 0.9710367322 
-0.5396386385 7.120043755 -1.764569402 0.9710075259 
-1.172749043 7.058481216 -1.768221855 0.9709483981 
-1.509677649 7.112885475 -1.796908021 0.9704840779 
-3.130234241 6.795932293 -1.849013209 0.9696413279 
-3.429438353 6.64995575 -1.849013209 0.9696413279 
-3.721869946 6.490819931 -1.849013209 0.9696413279 
-4.284038067 6.134340763 -1.849013209 0.9696413279 
-4.552660942 5.937695026 -1.849013209 0.9696413279 
-5.634184361 5.609111309 -1.964666367 0.9677731395 
-5.988007545 5.453051567 -2.001413107 0.9671805501 
-6.224633694 5.181283951 -2.001413107 0.9671806097 
-6.660619736 4.607533932 -2.001413107 0.9671802521 
-7.04368639 3.997285128 -2.001413107 0.9671806097 
-7.51305151 3.024233341 -2.001413107 0.9671805501 
-7.752094746 2.344511747 -2.001413107 0.9671806097 
-7.929794788 1.646225572 -2.001413107 0.9671806097 
-8.078369141 0.5761376619 -2.001413107 0.9671805501 
-8.095991135 0.216206044 -2.001413107 0.9671806097 
-8.097597122 -0.1441455036 -2.001413107 0.9671806097 
-8.052734375 -0.86328125 -2.001413107 0.9671806097 
-8.00636673 -1.220634699 -2.001413107 0.9671806097 
-7.944145203 -1.57561028 -2.001413107 0.9671805501 
-7.663740158 -2.618940353 -2.001413107 0.9671806097 
-7.539648056 -2.957260609 -2.001413107 0.9671806097 
-7.246977329 -3.61567378 -2.001413107 0.9671806097 
-5.31268549 -3.270263672 -1.541679978 0.974622786 
-4.422866344 -3.298364162 -1.363457322 0.9775232077 
-3.58194828 -3.503119946 -1.238135576 0.9795678854 
-3.494873047 -3.736284018 -1.264289141 0.9791408181 
-3.420073271 -3.998969555 -1.300357342 0.9785521626 
-4.696117878 -6.59845686 -2.001413107 0.9671803117 
-4.397797585 -6.800776005 -2.001413107 0.9671807289 
-4.090966702 -6.989692211 -2.001413107 0.9671806097 
-3.453500986 -7.325629711 -2.001413107 0.9671806693 
-2.788661957 -7.603574276 -2.001413107 0.9671807885 
-2.447817326 -7.720117092 -2.001413107 0.9671805501 
-2.101577044 -7.82131815 -2.001413107 0.9671810865 
-1.398461938 -7.977221489 -2.001413107 0.9671806097 
-1.042216778 -8.03153801 -2.001413107 0.9671806097 
-0.6839111447 -8.069946289 -2.001413107 0.9671806097 
-0.3242529333 -8.092387199 -2.001413107 0.9671806097 
0.03604003787 -8.098793983 -2.001413107 0.9671806097 
0.7557373047 -8.063539505 -2.001413107 0.9671806097 
1.113696218 -8.021947861 -2.001413107 0.9671805501 
1.469433546 -7.964452744 -2.001413107 0.9671806097 
2.171489239 -7.8023386 -2.001413107 0.9671806097 
3.190566301 -7.443906307 -2.001413107 0.9671806693 
4.153032303 -6.95300293 -2.001413107 0.9671805501 
4.458251953 -6.761372089 -2.001413107 0.9671804905 
4.75460434 -6.556362152 -2.001413107 0.9671805501 
5.041484356 -6.338378906 -2.001413107 0.9671806693 
5.318481445 -6.107831955 -2.001413107 0.9671806097 
6.084125996 -5.345590591 -2.001413107 0.9671805501 
6.535151005 -4.783681393 -2.001413107 0.9671806097 
6.934457779 -4.183916092 -2.001413107 0.9671806097 
7.11371088 -3.871308565 -2.001413107 0.9671805501 
7.792597294 -2.206171751 -2.001413107 0.9671806097 
7.883022308 -1.857338786 -2.001413107 0.9671806097 
7.957841396 -1.504843712 -2.001413107 0.9671806097 
8.016880035 -1.149355412 -2.001413107 0.9671806693 
8.060097694 -0.7915966511 -2.001413107 0.9671806097 
8.098554611 -0.07209472358 -2.001413107 0.9671806097 
7.983364105 1.362973571 -2.001413107 0.9671806097 
5.485351562 1.984228492 -1.44151485 0.9762518406 
4.284116268 1.996425748 -1.168012738 0.9807138443 
3.86596179 2.015532255 -1.077408195 0.9821965098 
3.51180172 2.034492254 -1.002961397 0.9834164381 
3.064394474 2.160424709 -0.9265592694 0.9846699834 
2.89494133 2.240175724 -0.9045861363 0.9850308299 
2.677104473 2.481870174 -0.9021332264 0.985071063 
2.571894407 2.606479406 -0.9048984051 0.9850256443 
2.525356293 2.798027277 -0.9314380288 0.9845898747 
2.652983427 3.524623871 -1.090180278 0.9819873571 
4.229272366 6.172231197 -1.849013209 0.9696412683 
3.950507641 6.354248047 -1.849013209 0.9696413279 
3.069623947 6.823530197 -1.849013209 0.9696412683 
2.763046741 6.953315258 -1.849013209 0.9696413279 
2.134116173 7.171371937 -1.849013209 0.9696413279 
1.488276362 7.332670689 -1.849013209 0.9696413279 
1.160610318 7.391611099 -1.849013209 0.9696413279 
-0.77885741 6.972172737 -1.733697891 0.9715074301 
-1.43171382 7.053988934 -1.778741121 0.9707781076 
-1.728413105 6.920595646 -1.762763143 0.9710367322 
-2.376557589 6.854658127 -1.792860031 0.9705495834 
-2.727563381 6.864042759 -1.825272322 0.9700251818 
-3.069614172 6.823525429 -1.849013209 0.9696413279 
-3.663930655 6.523701191 -1.849013209 0.9696413279 
-4.229248047 6.172226429 -1.849013209 0.9696413279 
-4.499633789 5.977988243 -1.849013209 0.9696413279 
-5.077876091 5.626098633 -1.872887492 0.969255507 
-5.537719727 5.612119198 -1.948387504 0.9680360556 
-6.178354263 5.236459732 -2.001413107 0.9671804309 
-6.405112267 4.956445217 -2.001413107 0.9671806097 
-6.820287704 4.367543697 -2.001413107 0.9671806097 
-7.007826805 4.05982399 -2.001413107 0.9671806097 
-7.181479454 3.744067192 -2.001413107 0.9671806097 
-7.485864162 3.090986252 -2.001413107 0.9671804905 
-7.615922451 2.754926682 -2.001413107 0.9671805501 
-7.914824009 1.716738224 -2.001413107 0.9671806693 
-8.07290554 0.6479833722 -2.001413107 0.9671806097 
-8.09375 0.2882324159 -2.001413107 0.9671806097 
-8.098568916 -0.07208984345 -2.001413107 0.9671805501 
-8.060102463 -0.7916015387 -2.001413107 0.9671805501 
-8.016908646 -1.149360299 -2.001413107 0.9671806097 
-7.883022308 -1.857338786 -2.001413107 0.9671806097 
-7.278876781 -3.551030159 -2.001413107 0.9671806097 
-6.038481236 -3.286157131 -1.698902249 0.9720712304 
-4.939174652 -3.288330078 -1.466344476 0.9758477211 
-4.503002644 -3.296191216 -1.379063487 0.9772688746 
-4.150698185 -3.331713676 -1.315300584 0.9783084393 
-3.510258675 -3.686435461 -1.257940054 0.9792444706 
-3.42786622 -3.936630726 -1.289953232 0.9787219167 
-3.399892569 -4.274472713 -1.349712133 0.9777472615 
-4.15246582 -6.95290041 -2.001413107 0.9671819806 
-3.839682579 -7.130864143 -2.001413107 0.9671804905 
-3.190502882 -7.443886757 -2.001413107 0.9671808481 
-2.856264591 -7.57845211 -2.001413107 0.9671807289 
-2.516371965 -7.698012352 -2.001413107 0.9671806693 
-2.171342611 -7.802329063 -2.001413107 0.9671807885 
-1.822206974 -7.891210556 -2.001413107 0.9671806097 
-1.469370127 -7.964457989 -2.001413107 0.9671806693 
-1.113632798 -8.021943092 -2.001413107 0.9671806097 
-0.03602050617 -8.098798752 -2.001413107 0.9671806097 
0.3242724538 -8.092382431 -2.001413107 0.9671806097 
0.6839404106 -8.069941521 -2.001413107 0.9671806097 
1.398481369 -7.977221489 -2.001413107 0.9671806097 
2.10195303 -7.821362019 -2.001413107 0.9671805501 
3.124262571 -7.472006798 -2.001413107 0.9671805501 
4.091059685 -6.989672661 -2.001413107 0.9671804905 
4.397875786 -6.800776005 -2.001413107 0.9671806097 
4.69604969 -6.598408222 -2.001413107 0.9671806097 
4.984955788 -6.382973671 -2.001413107 0.9671805501 
5.790122032 -5.662709713 -2.001413107 0.9671806097 
6.270512581 -5.125669003 -2.001413107 0.9671806097 
6.49230957 -4.841660023 -2.001413107 0.9671806097 
6.701254845 -4.548071384 -2.001413107 0.9671806097 
7.246977329 -3.615678549 -2.001413107 0.9671806097 
7.400649071 -3.289726496 -2.001413107 0.9671805501 
7.539662838 -2.957260609 -2.001413107 0.9671805501 
7.66373539 -2.61894536 -2.001413107 0.9671806097 
7.772660732 -2.275410175 -2.001413107 0.9671806097 
7.944140434 -1.575576186 -2.001413107 0.9671806097 
8.052729607 -0.8632763624 -2.001413107 0.9671806097 
8.078353882 0.5761279464 -2.001413107 0.9671806097 
7.929799557 1.646235347 -2.001413107 0.9671806097 
7.848725319 1.997343659 -2.001413107 0.9671806097 
5.643012524 1.984643459 -1.478247166 0.9756541252 
3.307065248 2.07650876 -0.9649983644 0.9840391278 
2.924047709 2.221386671 -0.9074674845 0.9849834442 
2.697280169 2.456313372 -0.9015315771 0.9850809574 
2.62295413 3.420927763 -1.065285921 0.9823950529 
4.284042835 6.134340763 -1.849013209 0.9696412683 
4.006928444 6.318837643 -1.849013209 0.9696412683 
3.429448128 6.649965763 -1.849013209 0.9696412683 
3.130249023 6.795932293 -1.849013209 0.9696412683 
2.824829102 6.928447247 -1.849013209 0.9696413279 
1.877524376 7.242787838 -1.849013209 0.9696413279 
1.226303697 7.380990982 -1.849013209 0.9696413875 
0.2330370992 7.47854948 -1.849013209 0.9696413279 
-0.4252392352 7.342690468 -1.817584515 0.9701495767 
-0.7206786871 7.016928673 -1.743161321 0.9713541269 
-1.974072218 6.856298447 -1.763173223 0.9710300565 
-2.307797909 6.852817059 -1.786935091 0.9706454873 
-2.656362295 6.862138748 -1.818409324 0.9701362252 
-3.008764505 6.850566387 -1.849013209 0.9696413279 
-3.893813372 6.389145374 -1.849013209 0.9696413279 
-4.174170017 6.209609032 -1.849013209 0.9696413279 
-4.446249962 6.017778397 -1.849013209 0.9696413875 
-4.709555626 5.8140378 -1.849013209 0.9696413279 
-4.993031979 5.631977558 -1.859975576 0.9694639444 
-6.78114748 4.428085804 -2.001413107 0.9671805501 
-6.971410751 4.122050762 -2.001413107 0.9671806097 
-7.591103554 2.822577953 -2.001413107 0.9671806097 
-7.811938286 2.13671875 -2.001413107 0.9671805501 
-7.970932484 1.433945298 -2.001413107 0.9671805501 
-8.066821098 0.7198095322 -2.001413107 0.9671806097 
-8.090864182 -0.3602636755 -2.001413107 0.9671806097 
-8.026821136 -1.077949166 -2.001413107 0.9671806097 
-7.811928749 -2.136723518 -2.001413107 0.9671806097 
-7.591088772 -2.822612286 -2.001413107 0.9671806097 
-7.189785004 -3.428705931 -1.968450785 0.9677122831 
-4.192846775 -3.304619074 -1.319281936 0.9782434702 
-3.902099609 -3.36739254 -1.273715138 0.9789869189 
-3.662348509 -3.456386566 -1.244460344 0.9794645905 
-3.445151329 -3.886093616 -1.283390164 0.9788290262 
-3.408188343 -4.207470417 -1.338083148 0.9779368639 
-4.214682579 -6.91574192 -2.001413107 0.9671807885 
-3.583393574 -7.263012409 -2.001413107 0.9671805501 
-2.92349124 -7.55272913 -2.001413107 0.9671809077 
-2.240893602 -7.782719612 -2.001413107 0.9671804905 
-1.892123938 -7.874662876 -2.001413107 0.9671809077 
-0.4682226479 -8.085327148 -2.001413107 0.9671806097 
0.2522460818 -8.094941139 -2.001413107 0.9671806097 
2.72104001 -7.628090858 -2.001413107 0.9671806097 
4.028745174 -7.025795937 -2.001413107 0.9671804309 
4.337075233 -6.83965826 -2.001413107 0.9671807289 
4.927895546 -6.427099228 -2.001413107 0.9671806097 
5.479633808 -5.963676453 -2.001413107 0.9671806097 
5.739496708 -5.714028358 -2.001413107 0.9671805501 
5.98799324 -5.453051567 -2.001413107 0.9671806097 
6.22464323 -5.181283951 -2.001413107 0.9671805501 
6.448955059 -4.899262428 -2.001413107 0.9671806097 
6.858901024 -4.306664944 -2.001413107 0.9671805501 
7.513041973 -3.024223566 -2.001413107 0.9671806097 
7.640141487 -2.687031269 -2.001413107 0.9671805501 
7.848715782 -1.997348547 -2.001413107 0.9671806097 
7.929799557 -1.646235347 -2.001413107 0.9671806097 
8.04473114 -0.9349218607 -2.001413107 0.9671806097 
8.097553253 0.1441308558 -2.001413107 0.9671807289 
8.08317852 0.5042040944 -2.001413107 0.9671805501 
8.006357193 1.220668912 -2.001413107 0.9671806097 
7.866176605 1.927436471 -2.001413107 0.9671806097 
6.680805683 1.955800772 -1.720269084 0.971724987 
5.811781883 1.986069322 -1.517767429 0.9750114083 
4.029213905 2.010258675 -1.112755775 0.9816178083 
3.638940334 2.022519588 -1.028828025 0.9829924107 
3.355453968 2.065478563 -0.9737135172 0.9838960767 
3.141176701 2.131879807 -0.9381498694 0.9844796658 
2.716245174 2.429711819 -0.9006064534 0.9850961566 
2.514145374 2.939707041 -0.9559118152 0.984188199 
2.591084003 3.317812443 -1.040311933 0.9828041792 
4.062983513 6.282934666 -1.849013209 0.9696413279 
2.886372089 6.90304184 -1.849013209 0.9696412683 
2.576425791 7.024599552 -1.849013209 0.9696413279 
2.26141119 7.132255554 -1.849013209 0.9696413279 
1.618549824 7.30501461 -1.849013209 0.9696413279 
1.2919873 7.369784832 -1.849013209 0.9696413279 
0.9628710747 7.419965744 -1.849013209 0.9696413279 
0.631870091 7.455453873 -1.849013209 0.9696413279 
0.2995947301 7.476181507 -1.849013209 0.9696413279 
-0.36088866 7.36716795 -1.822774887 0.9700655937 
-0.9706786871 6.991874695 -1.74442029 0.9713338017 
-2.944584846 6.869843483 -1.847068548 0.9696727395 
-3.250707865 6.739140511 -1.849013209 0.9696413279 
-3.547245979 6.587871075 -1.849013209 0.9696413279 
-3.836791992 6.42355442 -1.849013209 0.9696413279 
-4.11874485 6.24652338 -1.849013209 0.9696413279 
-4.392524242 6.057118893 -1.849013209 0.9696413279 
-5.831899166 5.602836609 -1.998522758 0.9672271609 
-6.741479397 4.488237381 -2.001413107 0.9671806097 
-7.565673828 2.890034199 -2.001413107 0.9671806097 
-7.792602539 2.206161976 -2.001413107 0.9671806097 
-7.883022308 1.857333899 -2.001413107 0.9671806097 
-8.016899109 1.149355412 -2.001413107 0.9671806097 
-8.087333679 0.4322704971 -2.001413107 0.9671806097 
-8.098554611 0.07205566019 -2.001413107 0.9671806097 
-8.093745232 -0.2882665992 -2.001413107 0.9671806097 
-8.036088943 -1.006499052 -2.001413107 0.9671806097 
-7.983364105 -1.362968683 -2.001413107 0.9671806097 
-7.914828777 -1.716752887 -2.001413107 0.9671806097 
-7.730917931 -2.413422823 -2.001413107 0.9671806097 
-7.615912914 -2.754921913 -2.001413107 0.9671806097 
-7.48582983 -3.090976477 -2.001413107 0.9671806097 
-4.663315296 -3.287665844 -1.410010695 0.9767647386 
-3.954633713 -3.35178709 -1.281076312 0.9788668156 
-3.702826977 -3.432826996 -1.247789145 0.9794102311 
-3.550444365 -3.598173857 -1.249189377 0.9793873429 
-3.462245941 -3.836054564 -1.27699101 0.9789335132 
-4.276034832 -6.877973557 -2.001413107 0.9671807885 
-3.647905111 -7.230824947 -2.001413107 0.9671805501 
-2.652827024 -7.652001858 -2.001413107 0.9671808481 
-2.309868097 -7.762441158 -2.001413107 0.9671807885 
-1.962290049 -7.85751915 -2.001413107 0.9671807289 
-1.256264567 -8.000849724 -2.001413107 0.9671806097 
-0.8991064429 -8.048812866 -2.001413107 0.9671806097 
-0.5401318073 -8.080849648 -2.001413107 0.9671806097 
-0.1801513582 -8.096869469 -2.001413107 0.9671806097 
0.5402050614 -8.080840111 -2.001413107 0.9671806097 
0.8991503716 -8.048808098 -2.001413107 0.9671806097 
1.962426662 -7.857524395 -2.001413107 0.9671806097 
3.965922832 -7.061396122 -2.001413107 0.9671806097 
4.276123047 -6.877983093 -2.001413107 0.9671805501 
4.57779789 -6.680961609 -2.001413107 0.9671806693 
4.870497704 -6.470712662 -2.001413107 0.9671806097 
5.426352501 -6.012192249 -2.001413107 0.9671806097 
5.939203739 -5.506137371 -2.001413107 0.9671806097 
6.178295612 -5.236454964 -2.001413107 0.9671806097 
6.405092716 -4.956469536 -2.001413107 0.9671806097 
6.619252682 -4.666615963 -2.001413107 0.9671806097 
6.820268631 -4.36757803 -2.001413107 0.9671806097 
7.007817268 -4.059834003 -2.001413107 0.9671806097 
7.340932369 -3.420912981 -2.001413107 0.9671805501 
7.485854149 -3.090947151 -2.001413107 0.9671805501 
7.615912914 -2.754931688 -2.001413107 0.9671806097 
7.73110342 -2.413383722 -2.001413107 0.9671800137 
7.830629826 -2.067133665 -2.001413107 0.9671806097 
7.983364105 -1.362968683 -2.001413107 0.9671806097 
8.036078453 -1.006464839 -2.001413107 0.9671806693 
8.060102463 0.7915624976 -2.001413107 0.9671806097 
8.016903877 1.149355412 -2.001413107 0.9671806097 
7.883061409 1.857333899 -2.001413107 0.9671804905 
4.577201843 1.986054659 -1.23301971 0.9796514511 
3.707163095 2.017451048 -1.042995691 0.982760191 
3.404628754 2.054203987 -0.9826409221 0.9837496877 
2.98922348 2.188105345 -0.9154628515 0.9848521948 
2.542319298 2.6699121 -0.9110674262 0.9849243164 
2.513627768 2.886669874 -0.9459076524 0.9843524098 
3.836772442 6.423573971 -1.849013209 0.9696412683 
2.638818264 7.001401424 -1.849013209 0.9696413279 
2.324819326 7.111845493 -1.849013209 0.9696412683 
1.68349123 7.290322304 -1.849013209 0.9696413279 
1.357504845 7.357997894 -1.849013209 0.9696413279 
0.6981787086 7.449535847 -1.849013209 0.9696413279 
-1.234526396 7.042016506 -1.76677978 0.9709717631 
-1.851308584 6.888735294 -1.762763143 0.9710367322 
-2.17166996 6.849179745 -1.775627375 0.9708284736 
-2.871694326 6.867895126 -1.839601994 0.9697934985 
-4.06299305 6.282915115 -1.849013209 0.9696413279 
-5.732153416 5.606010437 -1.981367946 0.9675037861 
-7.539643288 2.957260609 -2.001413107 0.9671806693 
-7.772646427 2.275439501 -2.001413107 0.9671806097 
-7.944125652 1.575605392 -2.001413107 0.9671806097 
-8.083168983 0.5042040944 -2.001413107 0.9671806097 
-8.078353882 -0.5761767626 -2.001413107 0.9671806097 
-7.995180607 -1.291889668 -2.001413107 0.9671805501 
-7.848715782 -1.99738276 -2.001413107 0.9671805501 
-7.752104282 -2.344511747 -2.001413107 0.9671806097 
-7.640121937 -2.687055588 -2.001413107 0.9671806097 
-7.513041973 -3.024223566 -2.001413107 0.9671806097 
-5.785180569 -3.283124924 -1.643821359 0.9729643464 
-4.344526291 -3.300493002 -1.348304272 0.9777702093 
-4.007753849 -3.335995913 -1.288617253 0.978743732 
-3.409194231 -4.446406364 -1.384616017 0.9771783948 
-4.637192249 -6.639965534 -2.001413107 0.9671803713 
-4.337050915 -6.83965826 -2.001413107 0.9671807885 
-3.712021351 -7.198071003 -2.001413107 0.9671807289 
-3.057480335 -7.499501705 -2.001413107 0.9671808481 
-2.37882328 -7.741571903 -2.001413107 0.9671808481 
-2.031938314 -7.839716434 -2.001413107 0.9671810269 
-0.9706835747 -8.040493011 -2.001413107 0.9671806097 
-0.6120947003 -8.075717926 -2.001413107 0.9671806097 
-0.2522021532 -8.094945908 -2.001413107 0.9671806097 
0.108159177 -8.0981493 -2.001413107 0.9671806097 
0.8274804354 -8.056498528 -2.001413107 0.9671805501 
3.256674767 -7.415224552 -2.001413107 0.9671806693 
3.902924776 -7.096415997 -2.001413107 0.9671805501 
4.518222332 -6.721440315 -2.001413107 0.9671805501 
4.81278801 -6.513783932 -2.001413107 0.9671804905 
5.889999866 -5.558759689 -2.001413107 0.9671805501 
6.131459713 -5.291215897 -2.001413107 0.9671806097 
6.360742092 -5.013261795 -2.001413107 0.9671806097 
6.781137466 -4.428085804 -2.001413107 0.9671806097 
7.310200214 -3.486088753 -2.001413107 0.9671806097 
7.458022118 -3.157490253 -2.001413107 0.9671806097 
7.899233341 -1.787138581 -2.001413107 0.9671806097 
8.090859413 -0.3602343798 -2.001413107 0.9671806097 
8.090854645 0.3603027165 -2.001413107 0.9671806097 
8.066830635 0.7198193073 -2.001413107 0.9671805501 
7.970912933 1.433945298 -2.001413107 0.9671806097 
7.899233341 1.787133694 -2.001413107 0.9671806097 
7.811928749 2.136713743 -2.001413107 0.9671806097 
5.320629597 1.978349566 -1.402797699 0.9768822193 
4.68377924 1.982958913 -1.256925702 0.9792610407 
4.197143555 2.001542807 -1.149110794 0.981022954 
3.785815239 2.016806602 -1.060034513 0.9824810624 
3.218139648 2.101445198 -0.9498159289 0.9842882752 
3.026630878 2.174365282 -0.9209530354 0.984762013 
2.656274319 2.506899357 -0.9025996923 0.9850634336 
2.553510666 2.634330988 -0.9066444039 0.9849970341 
2.677553654 3.623920918 -1.113479733 0.981605947 
2.387959003 7.090873718 -1.849013209 0.9696413875 
2.070200205 7.190073013 -1.849013209 0.9696413875 
1.094785094 7.401650429 -1.849013209 0.9696413279 
-0.2221533209 7.129702091 -1.762763143 0.9710367322 
-0.839604497 6.954555511 -1.731105447 0.9715494514 
-1.172778249 7.058481216 -1.768220901 0.9709483981 
-1.509677649 7.112885475 -1.796908021 0.9704840779 
-1.789946198 6.904936314 -1.762763143 0.9710367322 
-3.721869946 6.490819931 -1.849013209 0.9696413279 
-4.284038067 6.134340763 -1.849013209 0.9696413279 
-4.552670956 5.937680721 -1.849013209 0.9696413875 
-4.812260628 5.729301453 -1.849013209 0.9696413875 
-5.167055607 5.623446941 -1.887238741 0.9690235257 
-5.634184361 5.609111309 -1.964666367 0.9677731395 
-5.988017559 5.453027248 -2.001413107 0.9671806097 
-6.224633694 5.181283951 -2.001413107 0.9671806097 
-6.448984146 4.899228573 -2.001413107 0.9671806097 
-7.214526176 3.680004835 -2.001413107 0.9671806097 
-7.640111923 2.687045813 -2.001413107 0.9671806693 
-7.752094746 2.344511747 -2.001413107 0.9671806097 
-7.929794788 1.646225572 -2.001413107 0.9671806097 
-7.995194912 1.291826129 -2.001413107 0.9671805501 
-8.078359604 0.5761083961 -2.001413107 0.9671806097 
-8.097592354 -0.1441699117 -2.001413107 0.9671806097 
-8.052729607 -0.8633056283 -2.001413107 0.9671806097 
-8.00636673 -1.220634699 -2.001413107 0.9671806097 
-7.866186142 -1.927407146 -2.001413107 0.9671806097 
-7.539648056 -2.957260609 -2.001413107 0.9671806097 
-7.247572899 -3.221640587 -1.96001327 0.9678484201 
-7.246977329 -3.61567378 -2.001413107 0.9671806097 
-5.31268549 -3.270263672 -1.541679978 0.974622786 
-4.422866344 -3.298364162 -1.363457322 0.9775232077 
-4.061499119 -3.319999933 -1.296347618 0.9786176085 
-3.798774242 -3.398046732 -1.259535313 0.979218483 
-3.58194828 -3.503139496 -1.238138556 0.9795678258 
-4.090966702 -6.989692211 -2.001413107 0.9671806097 
-2.788661957 -7.603574276 -2.001413107 0.9671807885 
-2.447690487 -7.720121861 -2.001413107 0.9671806693 
-1.751899362 -7.907128811 -2.001413107 0.9671806097 
-1.042187452 -8.03153801 -2.001413107 0.9671806097 
-0.6839111447 -8.069946289 -2.001413107 0.9671806097 
-0.32421875 -8.092382431 -2.001413107 0.9671806097 
0.03604003787 -8.098793983 -2.001413107 0.9671806097 
0.7557128668 -8.063539505 -2.001413107 0.9671806097 
1.113696218 -8.021947861 -2.001413107 0.9671805501 
1.469399333 -7.964462757 -2.001413107 0.9671806097 
2.171455145 -7.802353382 -2.001413107 0.9671805501 
2.516411066 -7.698017597 -2.001413107 0.9671806097 
3.190566301 -7.443906307 -2.001413107 0.9671806693 
3.518637657 -7.294584751 -2.001413107 0.9671806097 
3.839565277 -7.130864143 -2.001413107 0.9671806693 
4.754672527 -6.556342602 -2.001413107 0.9671804309 
5.041484356 -6.338378906 -2.001413107 0.9671806693 
5.318481445 -6.107817173 -2.001413107 0.9671806097 
5.840297699 -5.610947132 -2.001413107 0.9671806097 
6.084096432 -5.345610142 -2.001413107 0.9671806097 
6.535131454 -4.783710957 -2.001413107 0.9671806097 
7.11371088 -3.871308565 -2.001413107 0.9671805501 
7.429643154 -3.223720551 -2.001413107 0.9671805501 
7.565698147 -2.890004873 -2.001413107 0.9671805501 
7.686748028 -2.550629854 -2.001413107 0.9671806097 
7.957846642 -1.504804611 -2.001413107 0.9671806097 
8.087328911 -0.4322704971 -2.001413107 0.9671806097 
8.098549843 -0.07205566019 -2.001413107 0.9671806097 
8.07290554 0.6480224729 -2.001413107 0.9671806097 
3.51180172 2.034492254 -1.002961397 0.9834164381 
2.894926786 2.240195274 -0.9045851231 0.9850308299 
2.772827148 2.35013175 -0.8982387185 0.9851350784 
2.571909189 2.606459856 -0.9048980474 0.9850256443 
2.525356293 2.798027277 -0.9314380288 0.9845898747 
4.229301453 6.172211647 -1.849013209 0.9696412683 
3.950507641 6.354248047 -1.849013209 0.9696413279 
3.66395998 6.523676395 -1.849013209 0.9696413279 
3.370121956 6.680224419 -1.849013209 0.9696413279 
0.4990282953 7.465522289 -1.849013209 0.9696413279 
0.1664794832 7.480331898 -1.849013209 0.9696413279 
-0.77885741 6.972172737 -1.733697891 0.9715074301 
-1.083925724 6.9033885 -1.726882458 0.9716178179 
-1.72838378 6.920605183 -1.762763143 0.9710367322 
-2.727563381 6.864042759 -1.825272322 0.9700251818 
-3.069614172 6.823510647 -1.849013209 0.9696413875 
-3.66395998 6.523676395 -1.849013209 0.9696413279 
-3.950512648 6.354248047 -1.849013209 0.9696413279 
-4.499633789 5.977988243 -1.849013209 0.9696413279 
-5.07783699 5.626103401 -1.872880459 0.9692555666 
-5.939218521 5.506132603 -2.001413107 0.9671806097 
-6.619399071 4.666615963 -2.001413107 0.9671801329 
-7.181499004 3.744052649 -2.001413107 0.9671806097 
-7.34095192 3.420917988 -2.001413107 0.9671804905 
-7.615922451 2.754926682 -2.001413107 0.9671805501 
-7.730932236 2.413378954 -2.001413107 0.9671806097 
-8.03609848 1.006459951 -2.001413107 0.9671806097 
-8.072915077 0.6480175853 -2.001413107 0.9671805501 
-8.09375 0.2882324159 -2.001413107 0.9671806097 
-8.016908646 -1.149360299 -2.001413107 0.9671806097 
-7.957841396 -1.504873037 -2.001413107 0.9671805501 
-7.883022308 -1.857338786 -2.001413107 0.9671806097 
-7.792592525 -2.206210852 -2.001413107 0.9671806097 
-7.686742783 -2.550634623 -2.001413107 0.9671806097 
-7.429633617 -3.223720551 -2.001413107 0.9671806097 
-7.278857231 -3.551054716 -2.001413107 0.9671806097 
-5.412504673 -3.265664101 -1.562152624 0.9742901325 
-4.939174652 -3.288330078 -1.466344476 0.9758477211 
-4.150702953 -3.331699133 -1.315297484 0.9783084393 
-3.850141525 -3.382807493 -1.26653564 0.9791041613 
-3.510258675 -3.686435461 -1.257940054 0.9792444706 
-3.399892569 -4.274472713 -1.349712133 0.9777472615 
-3.487792969 -4.809575081 -1.468179345 0.9758178592 
-4.45817852 -6.761372089 -2.001413107 0.9671806693 
-4.152656078 -6.952968597 -2.001413107 0.9671813846 
-3.518574238 -7.29460907 -2.001413107 0.9671806097 
-2.856215715 -7.578456879 -2.001413107 0.9671807885 
-2.516371965 -7.698012352 -2.001413107 0.9671806693 
-0.7556884885 -8.063539505 -2.001413107 0.9671806097 
-0.3962792754 -8.089179039 -2.001413107 0.9671806097 
-0.03602050617 -8.098798752 -2.001413107 0.9671806097 
0.3242431581 -8.092377663 -2.001413107 0.9671806097 
1.042270541 -8.031528473 -2.001413107 0.9671806097 
3.453471661 -7.32563448 -2.001413107 0.9671806693 
3.775991201 -7.164745808 -2.001413107 0.9671806097 
4.090986252 -6.989687443 -2.001413107 0.9671805501 
4.397875786 -6.800776005 -2.001413107 0.9671806097 
5.263901234 -6.154936314 -2.001413107 0.9671805501 
5.532495022 -5.914672852 -2.001413107 0.9671806097 
5.790102482 -5.662729263 -2.001413107 0.9671806097 
6.03630352 -5.399531364 -2.001413107 0.9671805501 
6.2705369 -5.125644207 -2.001413107 0.9671806097 
6.701274395 -4.548046589 -2.001413107 0.9671806097 
6.896938324 -4.245473385 -2.001413107 0.9671806097 
7.078979492 -3.934438467 -2.001413107 0.9671806097 
7.246977329 -3.615678549 -2.001413107 0.9671806097 
7.400663853 -3.289692402 -2.001413107 0.9671805501 
7.663749695 -2.618916035 -2.001413107 0.9671806097 
8.006361961 -1.220644474 -2.001413107 0.9671806097 
8.078353882 0.5761669874 -2.001413107 0.9671806097 
7.995175838 1.29188478 -2.001413107 0.9671806097 
7.848696232 1.99738276 -2.001413107 0.9671806693 
6.466899395 1.955815434 -1.669603229 0.9725462198 
5.642934322 1.984638572 -1.478228927 0.9756544232 
4.909780025 1.976328135 -1.30792582 0.9784287214 
4.37549305 1.991816401 -1.188046575 0.9803863168 
3.572514534 2.02742672 -1.015107274 0.983217299 
2.791684389 2.323750019 -0.8976126909 0.9851453304 
2.697289944 2.456298828 -0.9015312791 0.9850809574 
2.531098604 2.754702091 -0.9244761467 0.9847041965 
2.52233386 3.0029881 -0.9691517353 0.9839709401 
4.006908894 6.318847656 -1.849013209 0.9696412683 
3.429414034 6.649970531 -1.849013209 0.9696413279 
3.130249023 6.795932293 -1.849013209 0.9696412683 
2.197817326 7.152099609 -1.849013209 0.9696413279 
1.877514601 7.24278307 -1.849013209 0.9696413279 
1.55348146 7.319140434 -1.849013209 0.9696413279 
1.226372004 7.380990982 -1.849013209 0.9696413279 
0.5655029416 7.460781097 -1.849013209 0.9696413279 
-0.09525390714 7.132534027 -1.762763143 0.9710367322 
-0.4252392352 7.342690468 -1.817584515 0.9701495767 
-1.028989196 6.956874847 -1.737903714 0.971439302 
-1.367524385 7.05933094 -1.776950002 0.9708070755 
-3.605717659 6.556049824 -1.849013209 0.9696413279 
-3.893813372 6.389145374 -1.849013209 0.9696413279 
-4.446249962 6.017778397 -1.849013209 0.9696413875 
-5.442885399 5.615053654 -1.932519436 0.9682922363 
-6.131567478 5.291215897 -2.001413107 0.9671803117 
-6.360742092 5.013251781 -2.001413107 0.9671806097 
-6.78114748 4.428085804 -2.001413107 0.9671805501 
-6.971430302 4.12201643 -2.001413107 0.9671806097 
-7.31013155 3.486088753 -2.001413107 0.9671808481 
-7.458022118 3.157490253 -2.001413107 0.9671806097 
-7.811938286 2.13671875 -2.001413107 0.9671805501 
-7.899233341 1.787124038 -2.001413107 0.9671806097 
-8.0268116 1.077988267 -2.001413107 0.9671806097 
-8.090864182 0.3602441251 -2.001413107 0.9671806097 
-7.761469364 -0.6925781369 -2.001413107 0.9683313966 
-7.600229263 -1.719457984 -2.001413107 0.9683313966 
-7.516215801 -2.055844784 -2.001413107 0.9683313966 
-7.417324066 -2.388168812 -2.001413107 0.9683313966 
-7.303744793 -2.715747118 -2.001413107 0.9683313966 
-7.175703049 -3.03795886 -2.001413107 0.9683313966 
-7.033466816 -3.354150295 -2.001413107 0.9683313966 
-6.877299786 -3.663706064 -2.001413107 0.9683313966 
-5.544575214 -3.278383732 -1.654411912 0.97374928 
-5.025073051 -3.281357288 -1.541469097 0.9755192399 
-4.585053444 -3.293969631 -1.450048447 0.9769542813 
-3.896591663 -3.362631798 -1.321957946 0.9789684415 
-3.515361309 -3.626601458 -1.297255635 0.9793573022 
-3.436596632 -3.876450062 -1.330571055 0.9788328409 
-3.458730459 -4.6812253 -1.494931936 0.9762494564 
-4.055131912 -6.653959751 -2.001413107 0.9683315754 
-3.755204916 -6.827783108 -2.001413107 0.968331337 
-2.812934399 -7.26683569 -2.001413107 0.9683315158 
-2.487133741 -7.384804726 -2.001413107 0.9683310986 
-2.155874014 -7.488085747 -2.001413107 0.9683315754 
-1.820556641 -7.576571941 -2.001413107 0.968331635 
-1.140043974 -7.708427429 -2.001413107 0.9683315158 
-0.7960644364 -7.751523495 -2.001413107 0.9683314562 
-0.4505126774 -7.779272079 -2.001413107 0.9683313966 
-0.1040136665 -7.791601181 -2.001413107 0.9683313966 
0.2426904291 -7.788520336 -2.001413107 0.9683313966 
0.9339696765 -7.736132622 -2.001413107 0.9683313966 
1.277172804 -7.686923504 -2.001413107 0.9683313966 
1.955581069 -7.542963505 -2.001413107 0.9683312774 
2.288920879 -7.448544979 -2.001413107 0.9683313966 
3.571567297 -6.92559576 -2.001413107 0.9683313966 
3.876152277 -6.759848595 -2.001413107 0.9683313966 
4.172973633 -6.580741882 -2.001413107 0.9683313966 
4.741342545 -6.183813572 -2.001413107 0.9683313966 
5.272216797 -5.737924576 -2.001413107 0.9683313966 
5.76132822 -5.246630669 -2.001413107 0.9683313966 
5.989008427 -4.985146523 -2.001413107 0.9683313966 
6.204838753 -4.713798523 -2.001413107 0.9683313966 
6.408393383 -4.433115005 -2.001413107 0.9683313966 
6.599252701 -4.143657207 -2.001413107 0.9683313966 
6.941420555 -3.540717602 -2.001413107 0.9683313966 
7.228647232 -2.909755707 -2.001413107 0.9683313966 
7.458647251 -2.25576663 -2.001413107 0.9683313966 
7.62962389 -1.583911061 -2.001413107 0.9683313966 
7.692529202 -1.242954016 -2.001413107 0.9683313966 
7.740204811 -0.8995263577 -2.001413107 0.9683313966 
7.772563457 -0.5543212891 -2.001413107 0.9683313966 
7.791069031 0.1386914104 -2.001413107 0.9683313966 
7.777182579 0.48513183 -2.001413107 0.9683313966 
7.643417835 1.515956998 -2.001413107 0.9683313966 
7.568418026 1.854457974 -2.001413107 0.9683313966 
6.680854321 1.955805659 -1.787960649 0.9716605544 
5.821069241 1.989233375 -1.580000997 0.9749150276 
5.027919769 1.972079992 -1.387179852 0.9779423475 
3.617758751 2.010737181 -1.063078642 0.9830519557 
2.779731274 2.272226572 -0.922139585 0.9852822423 
2.585141659 2.528247118 -0.928735435 0.9851777554 
2.582109213 3.306293964 -1.077490926 0.9828241467 
3.356420755 6.368618011 -1.849013209 0.9707071781 
3.069809437 6.511620998 -1.849013209 0.9707071185 
2.478930712 6.758691311 -1.849013209 0.9707071185 
1.86835444 6.952265263 -1.849013209 0.9707071781 
0.6079345345 7.173232079 -1.849013209 0.9707071781 
-0.0305712875 6.87150383 -1.764926553 0.9720204473 
-0.6404052377 6.833202839 -1.762763143 0.9720543027 
-1.259145498 6.824770451 -1.782490611 0.9717459679 
-1.904199123 6.842021465 -1.824127316 0.9710956812 
-2.53895998 6.73636198 -1.849013209 0.9707071781 
-2.836108446 6.616752625 -1.849013209 0.9707071185 
-3.691547871 6.180395603 -1.849013209 0.9707071781 
-3.962807417 6.010063171 -1.849013209 0.9707071781 
-4.22625494 5.827831745 -1.849013209 0.9707071781 
-4.892426491 5.618574142 -1.913529634 0.9697007537 
-6.671967506 4.025546551 -2.001413107 0.968331337 
-6.844428539 3.724760771 -2.001413107 0.9683313966 
-7.003354549 3.416606426 -2.001413107 0.968331337 
-7.148383617 3.10168457 -2.001413107 0.9683314562 
-7.27929163 2.780644417 -2.001413107 0.9683313966 
-7.584623814 1.787031174 -2.001413107 0.9683313966 
-7.713442326 1.105839849 -2.001413107 0.9683313966 
-7.787358284 -0.2773486376 -2.001413107 0.9683313966 
-7.767319202 -0.6234765649 -2.001413107 0.9683313966 
-7.731899261 -0.9683837891 -2.001413107 0.9683313966 
-7.68116188 -1.311362267 -2.001413107 0.9683313966 
-7.615224361 -1.651762605 -2.001413107 0.9683313966 
-7.438281059 -2.322045803 -2.001413107 0.9683313966 
-7.202465534 -2.973974466 -2.001413107 0.9683313966 
-6.909633636 -3.602353334 -2.001413107 0.9683313966 
-5.678710938 -3.289838791 -1.685630322 0.9732605815 
-5.11708498 -3.276860237 -1.5606848 0.9752178192 
-4.681625843 -3.300580978 -1.471239924 0.9766213894 
-4.267861366 -3.302582979 -1.386052489 0.9779600501 
-3.542563438 -3.590165854 -1.295452833 0.9793857336 
-3.402456045 -4.124804497 -1.373356342 0.9781597257 
-3.423501015 -4.548285961 -1.462149262 0.9767641425 
-4.404604435 -6.428071022 -2.001413107 0.9683312178 
-3.509780169 -6.957109451 -2.001413107 0.9683313966 
-2.552709818 -7.362377644 -2.001413107 0.9683311582 
-2.222407103 -7.468598366 -2.001413107 0.968331635 
-0.8650586009 -7.744130611 -2.001413107 0.9683313966 
-0.1733544916 -7.790370941 -2.001413107 0.9683313966 
0.1733642519 -7.790380478 -2.001413107 0.9683313966 
0.5197411776 -7.774946213 -2.001413107 0.9683313966 
0.865073204 -7.744140625 -2.001413107 0.9683313966 
1.208715796 -7.697992802 -2.001413107 0.9683313966 
1.549955964 -7.636601448 -2.001413107 0.9683313966 
1.888222575 -7.560078144 -2.001413107 0.968331337 
2.222309589 -7.468642235 -2.001413107 0.9683315754 
2.552558422 -7.362363338 -2.001413107 0.9683313966 
2.877617121 -7.241513729 -2.001413107 0.968331337 
3.196860313 -7.106352329 -2.001413107 0.968331337 
4.114267349 -6.617626667 -2.001413107 0.968331337 
4.404565334 -6.428051472 -2.001413107 0.9683313966 
4.686108112 -6.225766659 -2.001413107 0.9683314562 
4.958452225 -6.011137486 -2.001413107 0.9683313966 
5.220947266 -5.784618855 -2.001413107 0.9683313966 
6.368686199 -4.489975452 -2.001413107 0.9683313966 
6.562108994 -4.202221394 -2.001413107 0.9683313966 
7.063041687 -3.291420937 -2.001413107 0.9683313966 
7.202465534 -2.973974466 -2.001413107 0.9683313966 
7.327626705 -2.650634766 -2.001413107 0.9683313966 
7.438276291 -2.322055578 -2.001413107 0.9683313966 
7.615219593 -1.651752949 -2.001413107 0.9683313966 
7.681166649 -1.311362267 -2.001413107 0.9683313966 
7.787363052 -0.2773339748 -2.001413107 0.9683313966 
7.781196117 0.4158935547 -2.001413107 0.9683313966 
7.497533798 2.122665882 -2.001413107 0.9683316946 
6.000888348 1.991220713 -1.623935699 0.9742265344 
3.148364305 2.096088886 -0.9714649916 0.9845011234 
2.960219622 2.16686511 -0.9422460794 0.9849637151 
2.808554649 2.254389524 -0.9250086546 0.985236764 
2.542016506 2.669599533 -0.946801126 0.9848915935 
2.513364315 2.886386633 -0.983022511 0.9843181372 
2.546718597 3.201835871 -1.050790906 0.9832461476 
3.962817192 6.010063171 -1.849013209 0.9707071781 
3.412983418 6.338490963 -1.849013209 0.9707071185 
3.127636671 6.484037876 -1.849013209 0.9707071781 
2.836108446 6.61675787 -1.849013209 0.9707071185 
2.23676753 6.842636585 -1.849013209 0.9707071781 
1.930146456 6.935361385 -1.849013209 0.9707071781 
1.619716763 7.014355183 -1.849013209 0.9707071781 
0.9898876548 7.130561352 -1.849013209 0.9707071781 
0.671713829 7.167533875 -1.849013209 0.9707071781 
0.3521923721 7.190321922 -1.849013209 0.9707071781 
0.0320068337 7.198876858 -1.849013209 0.9707071781 
-0.274785161 6.85764122 -1.762763143 0.9720543027 
-0.8852587938 6.821894169 -1.76685822 0.9719902873 
-1.196147442 6.823085785 -1.779199839 0.9717974067 
-1.513637662 6.831582069 -1.79720819 0.9715160728 
-2.171645403 6.8491745 -1.845483661 0.9707622528 
-2.478920937 6.758691311 -1.849013209 0.9707071185 
-2.777114153 6.641728401 -1.849013209 0.9707071185 
-3.356425762 6.36862278 -1.849013209 0.9707071185 
-3.636410952 6.21300745 -1.849013209 0.9707071185 
-3.909189463 6.045092583 -1.849013209 0.9707071185 
-4.174233437 5.865214825 -1.849013209 0.9707071185 
-4.430903435 5.673725605 -1.849013209 0.9707073569 
-4.807333946 5.621132851 -1.89975214 0.969915688 
-5.245317459 5.607709885 -1.972199082 0.968786478 
-5.807885647 5.195136547 -2.001413107 0.9683311582 
-7.373627663 2.519789934 -2.001413107 0.9683314562 
-7.47842741 2.189286947 -2.001413107 0.9683313966 
-7.568403244 1.854448199 -2.001413107 0.9683314562 
-7.643432617 1.515956998 -2.001413107 0.968331337 
-7.777187347 0.4851220548 -2.001413107 0.9683313966 
-7.789521217 -0.2080224603 -2.001413107 0.9683313966 
-7.772563457 -0.5543310642 -2.001413107 0.9683313966 
-7.629628658 -1.583915949 -2.001413107 0.9683313966 
-7.551610947 -1.92175293 -2.001413107 0.9683313966 
-7.458657265 -2.25576663 -2.001413107 0.9683313966 
-7.350922585 -2.585317373 -2.001413107 0.9683313966 
-7.092104435 -3.228447199 -2.001413107 0.9683312178 
-6.941420555 -3.540717602 -2.001413107 0.9683313966 
-5.216025352 -3.275136709 -1.581910014 0.9748850465 
-4.759253025 -3.292294741 -1.48636806 0.9763838649 
-3.567954063 -3.552109241 -1.293124676 0.9794223905 
-4.172963619 -6.580741882 -2.001413107 0.9683314562 
-3.571508646 -6.925580978 -2.001413107 0.9683315754 
-3.259887695 -7.077597618 -2.001413107 0.9683315754 
-2.941904306 -7.215624809 -2.001413107 0.9683313966 
-1.955161095 -7.54296875 -2.001413107 0.968331635 
-1.277021408 -7.686909199 -2.001413107 0.9683315158 
0.1040234342 -7.791611195 -2.001413107 0.9683313966 
1.140151381 -7.70844698 -2.001413107 0.9683313966 
1.481928706 -7.650087833 -2.001413107 0.9683313966 
2.156074286 -7.48809576 -2.001413107 0.968331337 
2.487089872 -7.384770393 -2.001413107 0.9683312774 
2.812983274 -7.266840458 -2.001413107 0.9683313966 
3.755239248 -6.827773094 -2.001413107 0.968331337 
4.055229187 -6.653969765 -2.001413107 0.968331337 
4.347211838 -6.466991901 -2.001413107 0.968331337 
4.63054657 -6.267221451 -2.001413107 0.9683313966 
4.904760838 -6.055034161 -2.001413107 0.968331337 
5.667036057 -5.348339558 -2.001413107 0.9683313966 
5.89934063 -5.09095192 -2.001413107 0.9683313966 
6.119965553 -4.823486328 -2.001413107 0.9683313966 
6.328481197 -4.546469688 -2.001413107 0.9683313966 
6.524447918 -4.260463715 -2.001413107 0.9683313966 
6.707514286 -3.966005802 -2.001413107 0.9683313966 
