# .PCD v0.7 - Point Cloud Data file format
VERSION 0.7
FIELDS x y z intensities
SIZE 4 4 4 4
TYPE F F F F
COUNT 1 1 1 1
WIDTH 943
HEIGHT 1
VIEWPOINT 0 0 0 1 0 0 0
POINTS 943
DATA ascii
-2.652929544 -13.07088852 3.95071578 0.9458787441 
-1.463691354 -13.10270023 3.905337334 0.9464834332 
-0.8768945336 -13.11840343 3.894515276 0.9466276765 
0.2926367223 -13.14967251 3.896074057 0.9466069341 
0.8800927401 -13.16539001 3.908469677 0.94644171 
1.472460866 -13.18123531 3.928745747 0.9461714625 
2.681884766 -13.21357918 3.993845224 0.9453043938 
3.304238319 -13.23021984 4.039346218 0.9446988106 
4.599028111 -13.26485348 4.158689976 0.9431123137 
6.720136642 -13.32065392 4.419446468 0.9396551847 
7.913759708 -14.09060001 4.787055492 0.9348027706 
11.70674324 -14.19205093 5.449538231 0.9261214137 
16.90881157 -14.33118629 6.565593243 0.911678195 
18.1003685 -14.00665951 6.779409409 0.908937037 
71.74258423 31.1291008 23.16537094 0.7216209769 
70.13977051 34.21831894 23.11695671 0.7221132517 
16.9962883 92.12400055 27.74890137 0.6765096784 
12.88184071 92.78882599 27.74890137 0.6765096188 
8.74106884 93.27000427 27.74890137 0.676509738 
-8.292504311 -14.46191883 4.938088894 0.9328164458 
-7.550444126 -14.64109325 4.879624367 0.9335848689 
-6.744282246 -14.64229965 4.77521944 0.9349586368 
-6.223833084 -15.26538086 4.88319397 0.9335379601 
-4.005541801 -13.03471184 4.039246559 0.9447000623 
-2.773549795 -13.06766605 3.957045317 0.9457944632 
-0.9940820336 -13.11526299 3.89605999 0.9466071129 
-0.4091406167 -13.13090324 3.891436577 0.9466687441 
0.1755712777 -13.14653778 3.894529343 0.9466275573 
0.762260735 -13.16223621 3.90536499 0.9464830756 
1.951523423 -13.19404793 3.950772524 0.9458779693 
2.559057474 -13.21029282 3.985813618 0.9454113245 
3.178588867 -13.22686958 4.029521465 0.9448295236 
3.789941311 -13.16287613 4.057421207 0.9444583654 
4.465961933 -13.26130295 4.144946098 0.9432948232 
6.530439377 -13.23617172 4.371963501 0.9402837157 
7.290859222 -13.25650883 4.481463432 0.9388347864 
9.500278473 -14.13302708 5.044312 0.9314219952 
10.38004398 -14.04886723 5.174130917 0.9297206402 
12.46919632 -14.06508541 5.567771912 0.924580574 
14.90465546 -14.06647205 6.070674896 0.9180551171 
39.69430923 90.37927246 29.23980904 0.6624526978 
25.91963387 90.02155304 27.74890137 0.6765096188 
21.88910103 91.08547974 27.74890137 0.676509738 
17.81600952 91.96900177 27.74890137 0.6765096188 
9.570556641 93.18852997 27.74890137 0.676509738 
5.201835632 89.82199097 26.65105247 0.6870509386 
-7.697626591 -14.60571289 4.890480995 0.9334420562 
-7.005654335 -14.86035633 4.866466522 0.9337579012 
-4.131733418 -13.03133774 4.049434185 0.9445645809 
-3.506596565 -13.04805183 4.002149582 0.9451938272 
-1.111254811 -13.11212349 3.897910595 0.9465824366 
-0.525996089 -13.12777805 3.891745567 0.9466646314 
0.05846679583 -13.14340782 3.893293381 0.9466440082 
1.83127439 -13.19083023 3.944774151 0.9459578991 
3.684892416 -13.24041462 4.071043491 0.9442771673 
5.698242188 -13.2942524 4.284433365 0.9414436221 
6.422001839 -13.31362247 4.37849617 0.9401971698 
7.135746956 -13.25235844 4.458423138 0.9391394854 
9.315542221 -14.12809086 5.012770653 0.9318358302 
10.25464344 -14.14065933 5.174130917 0.9297206402 
12.3735199 -14.20987797 5.581281662 0.9244046211 
14.69551468 -14.11840057 6.03641367 0.9184981585 
16.29223442 -14.3146925 6.424128056 0.9134964347 
17.79969215 -14.2875042 6.760953903 0.9091733098 
34.9557991 87.96747589 28.03904533 0.6737508178 
26.71951103 89.787323 27.74890137 0.6765097976 
22.69862175 90.88713837 27.74890137 0.676509738 
14.24139595 90.70166016 27.19641495 0.6817958951 
10.40004826 93.099617 27.74890137 0.676509738 
6.248007774 93.47015381 27.74890137 0.6765096188 
-8.871665001 -13.45485783 4.773908615 0.9349759221 
-7.913027287 -13.24813938 4.570997715 0.9376516342 
-4.258710861 -13.02794361 4.06000185 0.9444239736 
-3.630449057 -13.04474545 4.010882378 0.9450775981 
-3.01611805 -13.0611763 3.970709801 0.9456124306 
-0.642983377 -13.12464809 3.892359495 0.9466564655 
4.202534199 -13.25425243 4.118714333 0.9436433911 
4.867807388 -13.27205086 4.187445641 0.9427304268 
8.252328873 -14.09965324 4.839271069 0.9341155887 
9.133090973 -14.12321281 4.982010841 0.9322395921 
11.0702486 -14.17502403 5.327575684 0.927713573 
12.1475563 -14.20383263 5.536199093 0.9249917865 
13.31528282 -14.23506355 5.77376318 0.9219021797 
15.99389839 -14.3067131 6.356433392 0.914367795 
23.50712776 90.68143463 27.74890137 0.6765096188 
11.22798824 93.00339508 27.74890137 0.676509738 
7.080117226 93.41078186 27.74890137 0.6765096784 
-7.251493931 -14.69772434 4.692167282 0.9340822697 
-4.359438419 -12.9448967 3.910583973 0.9447526932 
-3.754926682 -13.04141617 3.885380745 0.9450988173 
-1.936147451 -13.09006786 3.788400173 0.946431756 
-1.34604001 -13.10585403 3.77188468 0.9466589093 
-0.759907186 -13.12152767 3.762929678 0.9467821717 
-0.1743115187 -13.0568409 3.738450289 0.9471190572 
0.9980712533 -13.16854 3.780910015 0.9465348125 
2.805239201 -13.21687984 3.868227959 0.9453344345 
4.071948051 -13.2507515 3.96871829 0.943954885 
4.732954025 -13.26844215 4.033137798 0.9430715442 
6.128656864 -13.30576611 4.194051266 0.9408687353 
6.872123718 -13.32565403 4.292518139 0.9395232797 
9.78145504 -14.00618172 4.890966892 0.9313875437 
13.07374001 -14.22860813 5.532073021 0.9227499366 
14.32568836 -14.26208973 5.787373066 0.9193326831 
70.53477478 31.35390854 22.09902573 0.7253053188 
70.16080475 35.00467682 22.44796371 0.7216365337 
70.26913452 39.05535126 23.01623726 0.7157013416 
37.38979721 89.42175293 27.74890137 0.6681305766 
32.6420517 88.99804688 27.13940811 0.674074173 
29.29413414 92.3910141 27.74890137 0.6681306362 
24.02273369 89.38863373 26.49968719 0.6803715825 
20.9665432 94.62902069 27.74890137 0.6681305766 
8.184877396 96.57775116 27.74890137 0.668130517 
-9.066249847 -13.23138618 4.592048168 0.9354423881 
-8.594872475 -13.82452583 4.660462379 0.934512794 
-7.600170612 -13.53222179 4.443429947 0.9374650121 
-7.387553692 -14.64359379 4.695689678 0.9340344667 
-2.652909994 -13.07089329 3.818436861 0.9460186958 
-2.054858446 -13.08688927 3.792622566 0.9463737011 
-0.2922705114 -13.13402843 3.761147261 0.9468067288 
0.2926122844 -13.14967728 3.765627384 0.946745038 
2.681869984 -13.21358395 3.860123158 0.945445776 
3.304233313 -13.23022938 3.90410018 0.9448417425 
3.942197084 -13.24728966 3.957013369 0.9441154599 
5.278271198 -13.2830267 4.092115879 0.9422635436 
5.983950138 -13.30190372 4.175879955 0.9411172271 
6.720624924 -13.3216114 4.271777153 0.9398065209 
8.257817268 -13.28237724 4.477696419 0.9369982481 
9.687495232 -14.13803196 4.906704426 0.9311745167 
10.66131306 -14.16408634 5.075472355 0.9288933873 
11.52861786 -13.97617626 5.18695116 0.9273897409 
12.64113045 -14.00593758 5.401544094 0.9245020151 
13.85214806 -14.03831482 5.646317482 0.9212192297 
15.1809082 -14.07385921 5.926622868 0.9174740911 
16.90874672 -14.33118153 6.345754147 0.9119026065 
18.29496384 -14.15715313 6.62284708 0.9082377553 
37.10372925 -17.29057503 11.71943378 0.8433972597 
71.74236298 31.12910652 22.38968849 0.7222478986 
70.13976288 34.21802139 22.34291267 0.7227391005 
70.24703217 38.22874451 22.89664268 0.7169463038 
38.18408966 89.08546448 27.74890137 0.6681306362 
30.11520386 92.12665558 27.74890137 0.6681306362 
17.58525848 95.31534576 27.74890137 0.6681304574 
4.917026043 100.3733978 28.77092743 0.6582801938 
-8.693583488 -13.70968246 4.64764452 0.9346868992 
-7.503930569 -14.55078125 4.687162399 0.9341502786 
-6.215605259 -15.24510193 4.713430882 0.9337937236 
-4.00556612 -13.03471661 3.904009342 0.9448429942 
-2.773564339 -13.06767082 3.824554443 0.9459345937 
-0.994042933 -13.11526871 3.76561141 0.9467452168 
-0.4091406167 -13.13090324 3.761145592 0.9468067288 
1.353452086 -13.17804623 3.792664766 0.9463731647 
1.951523423 -13.19404793 3.818492413 0.946017921 
2.559013605 -13.21028805 3.852357626 0.9455525279 
5.109023094 -13.19814873 4.051801682 0.9428157806 
5.840497971 -13.29806137 4.158189774 0.9413591623 
7.335741997 -13.33804703 4.358065128 0.9386287928 
9.500350952 -14.13302708 4.875432014 0.9315978289 
13.80759048 -14.24450684 5.679598331 0.920773685 
15.13485813 -14.28373528 5.958041668 0.9170553088 
16.49425507 -14.23404312 6.237491131 0.9133384824 
18.10147476 -14.26677227 6.598501205 0.9085591435 
28.21453476 -18.42405701 9.647382736 0.8691806197 
73.42160797 31.08419609 22.82650566 0.7176774144 
70.22515106 37.41066742 22.78009033 0.7181617618 
22.64744568 94.24085999 27.74890137 0.6681305766 
18.43278694 95.15507507 27.74890137 0.6681304574 
9.902500153 96.41678619 27.74890137 0.6681304574 
-8.295868874 -14.17395973 4.701898575 0.9339501858 
-6.980410099 -14.80671883 4.686554909 0.9341584444 
-3.506596565 -13.04805183 3.868149996 0.9453355074 
-2.876928568 -12.98455048 3.807572603 0.9461680651 
-2.293120146 -13.08051682 3.802004337 0.946244657 
-1.699487209 -13.09639645 3.78087759 0.9465352297 
-0.5260204673 -13.12778759 3.761440277 0.9468026161 
0.6446386576 -13.15909195 3.771908522 0.9466586113 
1.234746099 -13.17487717 3.788438082 0.9464312196 
1.831245065 -13.19083023 3.812695742 0.946097672 
4.333827972 -13.25775814 3.993290901 0.9436178803 
6.421933651 -13.31360817 4.231887817 0.9403515458 
9.315542221 -14.12809086 4.844932556 0.9320108294 
19.16797829 -14.0308857 6.800816536 0.9058917165 
27.86207962 -18.54971123 9.582940102 0.869994998 
75.16760254 31.03750229 23.28253937 0.7129368186 
70.09825897 32.66625595 22.14095497 0.7248634696 
70.31407928 40.73498535 23.26478195 0.7131208777 
23.48534203 94.03554535 27.74890137 0.6681306362 
14.24135685 90.70030975 26.28543472 0.6824945211 
10.76013184 96.32484436 27.74890137 0.6681304574 
6.464599609 96.70808411 27.74890137 0.6681306362 
-8.861381531 -13.43928146 4.608725071 0.9352157116 
-7.892543793 -13.21370125 4.406480789 0.9379685521 
-7.845077991 -14.56972599 4.737499237 0.9334671497 
-6.36475563 -14.84924316 4.625339031 0.9349899292 
-3.630483389 -13.04474068 3.876592398 0.9452195168 
-3.016093731 -13.0611763 3.837762356 0.9457530975 
-1.81769526 -13.09323692 3.78448534 0.946485579 
-0.6429541111 -13.12465763 3.762036562 0.9467944503 
0.5271728635 -13.15595627 3.769514084 0.9466915727 
1.10947752 -13.09118176 3.761384249 0.9468034506 
1.711318374 -13.18762684 3.80721426 0.9461730123 
2.929140568 -13.22019005 3.876674175 0.9452184439 
3.557363272 -13.23699665 3.924160004 0.9445663095 
4.202470779 -13.25424767 3.980807304 0.9437890649 
4.86780262 -13.27204514 4.047238827 0.9428783059 
5.557143211 -13.29047775 4.124237537 0.9418238401 
9.133051872 -14.12319756 4.815196037 0.9324136972 
10.06915951 -14.14825153 4.97166872 0.9302957654 
11.07019997 -14.1750145 5.149187088 0.9278988242 
12.14761162 -14.20383263 5.350846291 0.925183475 
14.59024334 -14.26916504 5.842710018 0.9185936451 
18.93074608 -14.11767769 6.760956764 0.9064166546 
27.42650795 -18.61408615 9.489731789 0.8711743355 
37.50228882 -16.67039108 11.74972343 0.8430261016 
70.18204498 35.79888916 22.55581284 0.7205063701 
36.59251022 89.75095367 27.74890137 0.6681306362 
28.47072601 92.6480484 27.74890137 0.6681306362 
11.61694336 96.22520447 27.74890137 0.6681306362 
-8.932953835 -13.28897476 4.584257603 0.9355483055 
-7.803002834 -12.80358887 4.292703152 0.9395207167 
-7.251493931 -14.69772434 4.692167282 0.9340822697 
-6.075063229 -13.83212376 4.325186729 0.9390773177 
-2.532626867 -13.07411098 3.812639713 0.9460983872 
-1.936147451 -13.09006786 3.788400173 0.946431756 
-0.759907186 -13.12152767 3.762929678 0.9467821717 
0.4098193347 -13.152812 3.76742053 0.9467203617 
0.998085916 -13.16854477 3.780910492 0.9465348125 
2.193251848 -13.20051193 3.831058264 0.9458452463 
2.805253744 -13.21687984 3.868228674 0.9453344345 
5.417143345 -13.28674316 4.107949257 0.9420467615 
6.128642559 -13.30577087 4.194048882 0.9408687353 
7.652944088 -13.34654236 4.404653072 0.9379934072 
8.952763557 -14.11838818 4.786196709 0.9328066707 
13.0737257 -14.22860813 5.532070637 0.9227499962 
15.58911133 -14.19638634 6.03641367 0.9160113931 
17.22736549 -14.33970165 6.417171478 0.9109566212 
18.80436516 -14.28558064 6.760956287 0.9064166546 
20.32182884 -14.0579195 7.074448109 0.9022961855 
70.53466797 31.35399818 22.09900665 0.7253054976 
70.26913452 39.05538559 23.01624298 0.715701282 
37.38973999 89.42177582 27.74890137 0.6681306362 
32.64200974 88.99804688 27.13947678 0.674074173 
29.29410172 92.39102936 27.74890137 0.6681305766 
20.9665432 94.62902069 27.74890137 0.6681305766 
8.18494606 96.5776825 27.74890137 0.6681306362 
-9.066245079 -13.23139572 4.592048168 0.9354423881 
-7.600175381 -13.53226089 4.44343996 0.9374648333 
-7.387543678 -14.64357853 4.695689678 0.9340345263 
-6.318227291 -14.04497051 4.409152031 0.9379321337 
-4.486918926 -12.94148922 3.921462297 0.9446033239 
-3.879956007 -13.03806591 3.894518375 0.94497329 
-3.260385752 -13.05464363 3.852286816 0.9455534816 
-2.652929544 -13.07088852 3.818437338 0.9460186958 
-1.463691354 -13.10270023 3.774579287 0.9466218948 
-0.2922412157 -13.13403797 3.761146784 0.9468066692 
0.2926464677 -13.14967728 3.765627861 0.946745038 
1.472460866 -13.18123531 3.797200918 0.946310699 
5.983950138 -13.30189896 4.175877571 0.9411172271 
8.257787704 -13.28237724 4.477692604 0.9369983077 
9.687460899 -14.13803673 4.906699181 0.9311745167 
10.66127872 -14.16408157 5.075465679 0.9288935065 
12.64117908 -14.00593948 5.401556492 0.9245018959 
19.91484833 -14.0401001 6.976017952 0.9035880566 
37.10372925 -17.29057503 11.71943378 0.8433972597 
71.74260712 31.12909508 22.38974571 0.7222472429 
70.24702454 38.2286377 22.89662361 0.7169464827 
34.18362045 90.69577789 27.74890137 0.6681306362 
30.11531639 92.1266098 27.74890137 0.6681306362 
25.98740578 93.37505341 27.74890137 0.6681306362 
21.80802155 94.43862915 27.74890137 0.6681306362 
17.58504295 95.31530762 27.74890137 0.6681306958 
4.916879654 100.3733978 28.77092934 0.6582801938 
-8.693593979 -13.70966244 4.647640228 0.9346869588 
-7.503945351 -14.55077648 4.687161922 0.934150219 
-6.215649128 -15.24511242 4.71343565 0.9337936044 
-4.005532265 -13.03471184 3.904006243 0.9448429942 
-3.383208036 -13.05136204 3.860047579 0.9454467893 
-1.571792006 -13.01945782 3.754478693 0.9468984604 
-0.9940234423 -13.11526299 3.765610933 0.9467452765 
-0.4091406167 -13.13090324 3.761145592 0.9468067288 
0.1755126864 -13.14653778 3.764130831 0.9467656016 
0.7622558475 -13.16223621 3.774603128 0.9466215372 
1.951523423 -13.19404793 3.818492413 0.946017921 
2.558999062 -13.21029282 3.852354765 0.9455525279 
3.178588867 -13.22686958 3.894604445 0.9449720979 
3.78988266 -13.16287613 3.92156291 0.944601953 
5.108989239 -13.19814396 4.051797867 0.9428158402 
6.530439377 -13.23617172 4.225579262 0.9404376745 
8.092133522 -13.27794933 4.451751709 0.937351644 
9.500370979 -14.13302708 4.875436306 0.9315977693 
10.46122074 -14.15873051 5.039997578 0.9293724298 
11.37559986 -14.04341316 5.174130917 0.9275625348 
12.46919632 -14.06509495 5.381349564 0.9247733951 
13.80759048 -14.24450684 5.679598331 0.920773685 
15.13485813 -14.28373528 5.958041668 0.9170553088 
70.22515106 37.41078186 22.78010368 0.7181615829 
38.97529602 88.74216461 27.74890137 0.6681306362 
34.98917389 90.38806152 27.74890137 0.6681306362 
22.6473484 94.24087524 27.74890137 0.6681306362 
9.902500153 96.41678619 27.74890137 0.6681304574 
-8.789042473 -13.5912981 4.633839607 0.9348744154 
-8.29583931 -14.1739893 4.701904774 0.9339501262 
-6.980375767 -14.80672836 4.686554432 0.934158504 
-4.131796837 -13.03133297 3.913853645 0.9447078109 
-3.506596565 -13.04805183 3.868149996 0.9453355074 
-2.293120146 -13.08051682 3.802004337 0.946244657 
-1.699487209 -13.09639645 3.78087759 0.9465352297 
-1.111254811 -13.11212349 3.767402172 0.9467206597 
-0.5260449052 -13.12778282 3.7614429 0.9468026161 
0.05846679583 -13.14341259 3.762939453 0.9467820525 
0.6446045041 -13.15909195 3.771906137 0.9466586113 
3.053603411 -13.22352028 3.885464907 0.9450976253 
3.684956074 -13.24040985 3.934742451 0.9444210529 
5.003647327 -13.27567387 4.061769962 0.9426792264 
5.698242188 -13.2942524 4.140981197 0.9415946603 
6.421933651 -13.31360817 4.231887817 0.9403515458 
7.928300381 -13.27356911 4.42644453 0.9376963973 
10.26382256 -14.15344238 5.005396843 0.9298399091 
11.12515068 -13.98697758 5.116644382 0.9283377528 
12.37340832 -14.2098732 5.394390583 0.9245981574 
13.5610199 -14.24163532 5.630101681 0.9214363098 
16.29237175 -14.31470203 6.209065914 0.9137158394 
19.16804123 -14.03088379 6.800832748 0.9058915377 
27.86210823 -18.54963303 9.582937241 0.8699950576 
70.09825897 32.66625595 22.14095497 0.7248634696 
31.75017929 91.57603455 27.74890137 0.6681306362 
6.464404106 96.70810699 27.74890137 0.6681306362 
-7.892543793 -13.21370125 4.406480789 0.9379685521 
-7.845077991 -14.56972599 4.737499237 0.9334671497 
-6.36475563 -14.84924316 4.625339031 0.9349899292 
-3.630507708 -13.04474545 3.876594782 0.9452195168 
-1.228554606 -13.10898876 3.769492149 0.9466918707 
-0.6429247856 -13.12464809 3.762036562 0.9467944503 
2.314726591 -13.20376396 3.837827682 0.9457521439 
4.202470779 -13.25424767 3.980807304 0.9437890649 
4.86780262 -13.27204514 4.047238827 0.9428783059 
5.557114124 -13.29048824 4.124231339 0.9418238401 
7.772280216 -13.27931595 4.405129433 0.9379869699 
9.133095741 -14.12319279 4.815201283 0.9324136376 
10.06919861 -14.14824677 4.971675396 0.9302957058 
12.14766598 -14.20383263 5.350856781 0.9251832962 
13.31528091 -14.23506355 5.58044529 0.9221014977 
14.59024334 -14.26916504 5.842710018 0.9185936451 
15.75061226 -14.08909893 6.050157547 0.9158284068 
17.5532074 -14.348423 6.49072361 0.9099833965 
27.42650795 -18.61408615 9.489731789 0.8711743355 
37.5022049 -16.67044449 11.74970818 0.8430262804 
70.10202789 31.91161537 22.05156898 0.7258059382 
70.18205261 35.7991066 22.55584145 0.7205060124 
70.36904907 39.93489838 23.16451073 0.7141609788 
36.59267426 89.75088501 27.74890137 0.6681306362 
32.36082458 90.72129059 27.57603645 0.66981107 
23.60425758 91.0577774 26.93114471 0.6761187315 
20.12339401 94.81188965 27.74890137 0.6681306362 
11.61694336 96.22520447 27.74890137 0.6681306362 
7.324999809 96.64671326 27.74890137 0.6681306362 
-7.251459599 -14.69772911 4.692165852 0.9340823293 
-3.754907131 -13.04141617 3.885380268 0.9450988173 
-1.936147451 -13.09006786 3.788400173 0.946431756 
0.4098193347 -13.152812 3.76742053 0.9467203617 
0.9980614781 -13.16854954 3.7809093 0.9465348125 
2.80521965 -13.21687508 3.86822629 0.9453344941 
3.430502892 -13.23360348 3.913952589 0.94470644 
5.417177677 -13.2867384 4.107952118 0.9420467615 
6.872148514 -13.32565403 4.292519569 0.9395232201 
7.652944088 -13.34654236 4.404653072 0.9379934072 
8.952763557 -14.11838818 4.786196709 0.9328066707 
10.86428165 -14.1695118 5.11186409 0.9284023046 
11.92540455 -14.19789028 5.308415413 0.9257541299 
13.0737257 -14.22860813 5.532070637 0.9227499962 
15.5890789 -14.19642067 6.03641367 0.9160113931 
17.2272892 -14.33970165 6.417155743 0.9109568596 
18.80433464 -14.28561974 6.760956764 0.9064166546 
70.16081238 35.00476074 22.44797707 0.7216363549 
37.38973999 89.42177582 27.74890137 0.6681306362 
32.64200974 88.99804688 27.13947678 0.674074173 
16.73633194 95.46800232 27.74890137 0.6681306362 
12.47301197 96.11798859 27.74890137 0.6681306362 
-9.066245079 -13.23139572 4.592048168 0.9354423881 
-6.318227291 -14.04497051 4.409152031 0.9379321337 
-4.486918926 -12.94148922 3.921462297 0.9446033239 
-3.879956007 -13.03806591 3.894518375 0.94497329 
-0.2922412157 -13.13403797 3.761146784 0.9468066692 
0.8800927401 -13.16539001 3.77760601 0.9465802312 
1.472460866 -13.18123531 3.797200918 0.946310699 
2.681894541 -13.21358871 3.860123873 0.9454457164 
3.304238319 -13.23021984 3.904099703 0.9448417425 
4.599028111 -13.26485348 4.01944828 0.9432591796 
5.983950138 -13.30189896 4.175877571 0.9411172271 
6.720620155 -13.32160091 4.271776199 0.9398065805 
7.493481159 -13.3422699 4.381060123 0.9383151531 
15.18082523 -14.07385445 5.926605701 0.9174743295 
16.90881157 -14.33118153 6.345767498 0.9119024277 
18.29483795 -14.15714836 6.622818947 0.9082381129 
37.10372925 -17.29057503 11.71943378 0.8433972597 
70.13977051 34.21831894 22.34295273 0.7227386236 
70.24702454 38.2286377 22.89662361 0.7169464827 
30.11531639 92.1266098 27.74890137 0.6681306362 
21.80802155 94.43862915 27.74890137 0.6681306362 
4.917309284 100.3733749 28.77090836 0.6582801938 
-7.5038867 -14.55082035 4.687164783 0.934150219 
-6.646894455 -14.43083477 4.548681736 0.9360321164 
-6.21556139 -15.2451067 4.71342802 0.9337937832 
-2.773549795 -13.06766605 3.824552536 0.9459345937 
-1.571792006 -13.01945782 3.754478693 0.9468984604 
-0.4091406167 -13.13090324 3.761145592 0.9468067288 
3.178588867 -13.22686958 3.894604445 0.9449720979 
3.789941311 -13.16287613 3.921572208 0.9446018934 
4.465961933 -13.26130295 4.006164551 0.9434412718 
5.109052658 -13.19815445 4.051804543 0.942815721 
6.530439377 -13.23617172 4.225579262 0.9404376745 
7.335707664 -13.3380518 4.358060837 0.9386288524 
8.092133522 -13.27794933 4.451751709 0.937351644 
9.500283241 -14.13303185 4.875421524 0.9315979481 
10.46122074 -14.15873051 5.039997578 0.9293724298 
12.46919632 -14.06509495 5.381349564 0.9247733951 
13.80759525 -14.24438953 5.679577351 0.920773983 
15.13485813 -14.28373528 5.958041668 0.9170553088 
16.49426079 -14.23392105 6.237470627 0.9133387208 
73.42119598 31.08420563 22.82639885 0.7176785469 
70.11891174 33.43839264 22.24056053 0.7238149047 
38.97529602 88.74216461 27.74890137 0.6681306362 
34.98956299 90.38791656 27.74890137 0.6681306362 
26.81751823 93.14001465 27.74890137 0.6681306362 
22.6473484 94.24087524 27.74890137 0.6681306362 
-8.789081573 -13.59121513 4.63383007 0.9348745942 
-8.29583931 -14.1739893 4.701904774 0.9339501262 
-7.619062424 -14.45664501 4.678497314 0.9342678189 
-6.980375767 -14.80672836 4.686554432 0.934158504 
-6.376479149 -15.24988747 4.732273579 0.9335380197 
-2.293120146 -13.08051682 3.802004337 0.946244657 
-1.111254811 -13.11212349 3.767402172 0.9467206597 
-0.525996089 -13.12777805 3.761441469 0.9468026161 
0.05846679583 -13.14341259 3.762939453 0.9467820525 
1.83127439 -13.19083023 3.81269455 0.946097672 
3.684892416 -13.24041462 3.934736967 0.9444211125 
6.422001839 -13.31362247 4.231896877 0.940351367 
7.179643631 -13.33388138 4.335652351 0.938934505 
7.928378582 -13.27356434 4.426456928 0.9376962781 
10.26391602 -14.15345669 5.005413055 0.9298396707 
11.12515068 -13.98697758 5.116644382 0.9283377528 
13.5610199 -14.24163532 5.630101681 0.9214363098 
14.85995579 -14.27638149 5.899590969 0.9178345799 
17.83525085 -14.31604958 6.547635555 0.9092310667 
27.86210823 -18.54963303 9.582937241 0.8699950576 
37.15691757 -16.12239647 11.59610176 0.8449103236 
75.16677856 31.03752327 23.28232193 0.7129390836 
70.09825897 32.66625595 22.14095497 0.7248634696 
70.20349884 36.60115814 22.66654968 0.719347775 
39.76329041 88.39189148 27.74890137 0.6681306362 
35.79235458 90.07304382 27.74890137 0.6681306362 
27.64512634 92.89777374 27.74890137 0.6681305766 
14.24139118 90.70163727 26.28587341 0.6824907064 
-7.892587662 -13.21391106 4.406536102 0.9379677176 
-7.845077991 -14.56972599 4.737499237 0.9334671497 
-7.115693092 -14.75204086 4.689099789 0.9341239333 
-6.36475563 -14.84924316 4.625339031 0.9349899292 
-4.258710861 -13.02794361 3.924066067 0.9445676208 
-3.01611805 -13.0611763 3.837762356 0.9457530379 
-2.412680626 -13.07731915 3.807164192 0.9461737275 
-1.817729473 -13.09323692 3.784484148 0.946485579 
-1.228554606 -13.10898876 3.769492149 0.9466918707 
-0.642983377 -13.12464809 3.762036562 0.9467944503 
-0.05845702812 -13.14029312 3.762041569 0.9467943311 
0.5271191001 -13.15595627 3.769512892 0.9466915727 
1.711376905 -13.18762684 3.807218552 0.9461729527 
4.20252943 -13.25424767 3.980810404 0.9437890053 
4.86780262 -13.27204514 4.047238827 0.9428783059 
5.557182312 -13.29047775 4.124241352 0.9418237805 
6.274609089 -13.30967712 4.212714672 0.9406135678 
7.025160789 -13.32975101 4.313814163 0.9392325878 
7.772275448 -13.27944279 4.405158997 0.9379865527 
9.133095741 -14.12319279 4.815201283 0.9324136376 
12.14756298 -14.20383263 5.350836754 0.9251835942 
15.75061226 -14.08909893 6.050157547 0.9158284068 
17.55336189 -14.348423 6.490757942 0.9099829197 
37.50239182 -16.67033577 11.74974346 0.8430258632 
70.10192871 31.91188622 22.05150604 0.7258059382 
70.18203735 35.79869461 22.55577087 0.7205066681 
36.59231186 89.75102997 27.74890137 0.6681306362 
32.3608017 90.72003937 27.5757103 0.6698143482 
23.60421371 91.05597687 26.93052101 0.6761237383 
14.87114239 89.50335693 25.97565842 0.6855717897 
11.61694336 96.22520447 27.74890137 0.6681306362 
-17.83769989 -10.54704571 5.728323936 0.9175953269 
-7.186826229 -14.5666399 4.490067482 0.9348127842 
-6.693129539 -15.23940849 4.601019859 0.9332569838 
-3.118818283 -12.97807598 3.689664125 0.946113646 
-1.936157227 -13.09005833 3.657849073 0.9465656281 
-1.34604001 -13.10585403 3.641901731 0.9467922449 
-0.759907186 -13.12152767 3.633256197 0.9469151497 
0.9980712533 -13.16854 3.650616884 0.9466684461 
1.58908689 -13.1626997 3.664980888 0.9464643002 
4.071948051 -13.2507515 3.831953049 0.9440947771 
5.417153358 -13.28673267 3.966386557 0.9421913028 
6.128652096 -13.30576611 4.049520016 0.941016078 
8.47729969 -13.36859322 4.375837803 0.9364172816 
10.86428165 -14.1695118 4.935703754 0.9285795093 
14.32569504 -14.2620945 5.587935448 0.9195313454 
17.22732353 -14.33970165 6.19602108 0.9111750126 
18.93572044 -14.38539505 6.573572636 0.9060249329 
29.39258385 -18.45556068 9.593870163 0.8658601046 
69.32823944 30.81761169 20.97249222 0.7298924327 
68.88396454 34.36763382 21.27994156 0.7265312076 
70.26913452 39.05537415 22.22307777 0.7163165808 
70.38333893 43.32505798 22.84667015 0.7096418142 
38.72426987 92.61328125 27.74890137 0.6592900157 
30.33964348 95.68852997 27.74890137 0.6592900157 
21.71485329 98.00639343 27.74890137 0.6592900157 
17.33359337 98.87535095 27.74890137 0.6592900157 
-46.88503265 97.19968414 29.83134651 0.6389971972 
-17.84477997 -10.3380127 5.700826168 0.917974174 
-9.055927277 -13.21631336 4.428753376 0.9356737137 
-8.552060127 -13.75567341 4.477446079 0.9349899292 
-4.486908913 -12.94148922 3.786324263 0.9447416663 
-3.24044919 -12.97482872 3.696793079 0.9460123777 
-2.637182474 -12.99334908 3.664980888 0.9464643002 
-2.054863214 -13.0868845 3.661927462 0.9465076923 
-1.463671803 -13.102705 3.644503117 0.94675529 
-0.2922705114 -13.13402843 3.631535053 0.9469396472 
0.8800634742 -13.16538048 3.647426605 0.9467138052 
1.471889615 -13.17631817 3.664980888 0.9464643002 
2.059521437 -13.11659145 3.670238018 0.9463896155 
2.665473461 -13.13279724 3.704313278 0.9459055662 
3.304228544 -13.23022938 3.769561052 0.9449794888 
3.942202091 -13.24729443 3.820651054 0.9442549348 
5.278271198 -13.28303146 3.951097965 0.9424074888 
5.983959675 -13.30189896 4.031974792 0.9412639737 
6.720624924 -13.3216114 4.124567986 0.9399564266 
7.49350071 -13.3422699 4.230088234 0.9384685755 
8.308603287 -13.36408615 4.349984169 0.9367808104 
9.116943359 -13.30536079 4.458590984 0.9352546334 
10.66131306 -14.16408157 4.900568008 0.9290694594 
12.64111805 -14.00592709 5.215400219 0.924688518 
13.85215569 -14.03831768 5.451741695 0.921413362 
19.98974991 -14.09294415 6.760959148 0.9034796953 
37.0620079 -17.27113152 11.30284882 0.8439275622 
68.92658234 33.62615585 21.19981956 0.7274056673 
70.24703217 38.22872162 22.10759926 0.7175594568 
39.54690933 92.26499939 27.74890137 0.6592900157 
31.19002914 95.41472626 27.74890137 0.6592900157 
22.58616066 97.80925751 27.74890137 0.6592900753 
9.366918564 99.94522095 27.74890137 0.6592900753 
-50.65644073 96.11768341 30.03391457 0.6370568275 
-17.98347092 -10.20568848 5.715891361 0.9177666306 
-6.540859222 -14.20068836 4.321880341 0.937176168 
-4.005561352 -13.03471184 3.769471884 0.9449806809 
-3.362558603 -12.97155762 3.704242468 0.9459065795 
0.7622558475 -13.16223621 3.644529343 0.9467549324 
1.939916968 -13.11558056 3.664980412 0.9464643002 
2.543374062 -13.12953568 3.696861506 0.9460113645 
3.178608418 -13.22686958 3.760394096 0.9451094866 
6.530405045 -13.23617649 4.0799613 0.9405860901 
8.141894341 -13.35962391 4.324776649 0.9371353984 
10.46119595 -14.15872574 4.86631155 0.9295474291 
12.41694069 -14.00614929 5.174130917 0.9252616167 
15.13485813 -14.28372574 5.75272274 0.9172593355 
73.4216156 31.08419609 22.0398941 0.7182893157 
68.90569305 32.86000443 21.10260201 0.7284680605 
70.45506287 46.00706482 23.2604847 0.7052468061 
39.69429779 90.37871552 27.28677177 0.6638799906 
23.45575142 97.60437012 27.74890137 0.6592900753 
-49.55331421 96.08811188 29.88568687 0.6384760141 
-8.7789011 -13.57553196 4.468972683 0.9351089001 
-6.801699162 -14.42764664 4.409206867 0.9359483123 
-6.367959023 -15.22968197 4.56313467 0.9337879419 
-3.485156059 -12.96827126 3.712015867 0.9457962513 
-2.876928568 -12.98455048 3.676361561 0.9463025928 
-2.28937006 -13.05912113 3.664980888 0.9464643002 
-1.699487209 -13.09639645 3.65058589 0.9466688633 
-0.5260204673 -13.12778759 3.631819963 0.9469355941 
0.05849609151 -13.14342213 3.633265257 0.9469150305 
1.823110342 -13.13233376 3.664980888 0.9464643002 
3.053574085 -13.22352505 3.751568556 0.9452347755 
3.684926748 -13.24040985 3.799144745 0.9445598722 
7.179643631 -13.33388138 4.186242104 0.9390864968 
8.800732613 -13.34729004 4.419446468 0.9358044863 
11.12515068 -13.98697758 4.940323353 0.9285151362 
12.29180908 -14.11609077 5.174130917 0.9252616167 
17.83524704 -14.31610775 6.322009087 0.9094532132 
19.63202667 -14.37057114 6.725428104 0.9039617777 
21.13768768 -14.07280445 7.019600868 0.8999782801 
68.88500214 32.10086441 21.0079422 0.7295040488 
70.31407928 40.73497772 22.46305656 0.7137405276 
39.98852539 88.89157867 26.94428253 0.667303443 
28.63178253 96.21335602 27.74890137 0.6592900157 
24.32354927 97.39173889 27.74890137 0.6592900753 
11.14421844 99.76269531 27.74890137 0.6592900157 
-8.851186752 -13.42381287 4.444784641 0.9354485869 
-7.87230444 -13.17981434 4.243721962 0.9382765293 
-7.090288162 -14.69922352 4.511307716 0.934514761 
-4.258676529 -13.02794933 3.788837194 0.9447060227 
-2.997646332 -12.98131847 3.682855129 0.9462103844 
-1.817700148 -13.09322739 3.654069185 0.9466193914 
1.10947752 -13.09118176 3.631762505 0.9469364285 
1.706176758 -13.14803696 3.664980888 0.9464643002 
2.911225557 -13.13936996 3.720195293 0.9456800818 
4.202470779 -13.25424767 3.843625307 0.9439293146 
5.557143211 -13.29047775 3.982112408 0.9419688582 
8.648022652 -13.37315845 4.402350903 0.9360446334 
13.31528282 -14.23506355 5.388138771 0.922293663 
14.59024906 -14.26916504 5.641365051 0.9187940359 
17.55319786 -14.348423 6.267045975 0.9102039337 
19.17879868 -14.30267048 6.61350584 0.9054819345 
36.73351288 -16.32862663 11.11224937 0.8463458419 
76.98496246 30.9888916 22.9403286 0.7086446881 
68.9276123 31.37713623 20.93494797 0.7303039432 
68.90481567 35.14739609 21.38217735 0.7254169583 
29.48688316 95.95475006 27.74890137 0.6592900157 
23.60422707 91.05686951 26.00272179 0.6768014431 
20.84182549 98.19576263 27.74890137 0.6592900157 
12.03155708 99.6595459 27.74890137 0.6592900753 
-47.51643753 96.30877686 29.68652725 0.6403878927 
-17.83769417 -10.54707527 5.728328705 0.9175952673 
-8.984609604 -13.3658247 4.451878548 0.935348928 
-7.783671856 -12.77185535 4.134502888 0.9398162365 
-7.611025333 -13.83858395 4.365787983 0.9365586042 
-6.693139553 -15.23940849 4.601020336 0.9332569838 
-4.359447956 -12.9448967 3.775823355 0.9448906183 
-3.754912138 -13.04142094 3.751486778 0.945235908 
-3.118808508 -12.97808075 3.689664125 0.946113646 
-1.936147451 -13.09006786 3.657848358 0.9465656281 
-0.1743212789 -13.0568409 3.609620333 0.9472512603 
0.998085916 -13.16854477 3.650617599 0.9466683865 
1.589116216 -13.16269493 3.664980888 0.9464643002 
2.179843664 -13.11980915 3.676422119 0.9463017583 
2.788095713 -13.13607407 3.712090254 0.9457951188 
4.071948051 -13.2507515 3.831953049 0.9440947771 
4.732954025 -13.26844215 3.894152164 0.943213582 
6.128642559 -13.30577087 4.049519062 0.941016078 
6.872143269 -13.32565403 4.144598961 0.939673841 
9.295351028 -13.3101263 4.487734318 0.9348455667 
10.86429214 -14.1695118 4.935705662 0.9285794497 
11.92540455 -14.19789028 5.125482559 0.9259376526 
18.93574905 -14.38540459 6.573580265 0.9060248137 
20.31873894 -14.05583 6.829647064 0.902548492 
68.88396454 34.36771774 21.279953 0.7265310884 
38.72420883 92.61329651 27.74890137 0.6592900753 
32.64200211 88.99803162 26.20408821 0.6747576594 
21.71485329 98.00639343 27.74890137 0.6592900157 
12.91814423 99.54853058 27.74890137 0.6592900157 
8.477080345 100.0246353 27.74890137 0.6592900157 
-17.84478569 -10.33800793 5.700823784 0.917974174 
-9.055922508 -13.21633244 4.428756714 0.9356736541 
-6.302109241 -14.00914478 4.246349335 0.9382395148 
-4.486918926 -12.94148922 3.78632617 0.9447416663 
-3.879956007 -13.03806591 3.76031065 0.9451107383 
-2.637192249 -12.99334908 3.664980888 0.9464643002 
-1.463691354 -13.10268974 3.644504309 0.9467553496 
-0.876953125 -13.11839771 3.634406567 0.946898818 
-0.2922460735 -13.1340332 3.631534338 0.9469396472 
2.05953598 -13.11659145 3.670238495 0.9463895559 
2.665478468 -13.13280201 3.704313993 0.9459055662 
4.599023342 -13.26485825 3.880934477 0.9434007406 
5.278271198 -13.28303146 3.951097965 0.9424074888 
9.116909027 -13.30536079 4.458586216 0.9352547526 
11.70663071 -14.19203568 5.085549831 0.9264929295 
13.85221386 -14.03831768 5.451752663 0.9214132428 
15.18096638 -14.07386208 5.722397327 0.9176769853 
16.65858269 -14.11910152 6.03641367 0.9133609533 
18.29500771 -14.15714836 6.394627571 0.9084622264 
29.13895416 -18.65989304 9.564909935 0.8662366867 
37.0620079 -17.27113152 11.30284882 0.8439275622 
39.54702377 92.26493835 27.74890137 0.6592900753 
35.40365601 93.9327774 27.74890137 0.6592900753 
22.58637619 97.80921936 27.74890137 0.6592900157 
18.21266556 98.71720123 27.74890137 0.6592900753 
9.366640091 99.94522858 27.74890137 0.6592900753 
-50.65632248 96.11768341 30.03389549 0.6370570064 
-17.98341179 -10.20571232 5.715878963 0.9177667499 
-8.153979301 -14.22034645 4.531301975 0.9342342615 
-6.207436562 -15.2250042 4.545003414 0.9340421557 
-3.362524271 -12.97156239 3.704240561 0.9459066391 
-2.173037052 -13.07897949 3.664980888 0.9464643002 
-0.9940234423 -13.11526299 3.635845184 0.9468783736 
-0.4091406167 -13.13090324 3.631533623 0.9469397068 
0.7622558475 -13.16223621 3.644529343 0.9467549324 
1.939916968 -13.11558056 3.664980412 0.9464643002 
2.543349504 -13.12953568 3.696859598 0.9460114241 
3.178588867 -13.22686958 3.760392904 0.9451095462 
4.465961933 -13.26130295 3.868108988 0.9435824156 
5.108989239 -13.19814396 3.912169695 0.9429584742 
5.840527058 -13.29806614 4.014901161 0.9415052533 
8.940839767 -13.30065441 4.430175781 0.9356536865 
10.46122074 -14.15872574 4.866314411 0.9295473695 
16.49425507 -14.23404312 6.02254343 0.9135511518 
18.10147858 -14.26680183 6.37112093 0.9087828994 
19.86352921 -14.27028751 6.760959148 0.9034796953 
73.42124176 31.08420372 22.03979492 0.7182902694 
68.90569305 32.86014175 21.10262489 0.7284678817 
70.33690643 41.58879852 22.58771896 0.7124059796 
70.4550705 46.00715637 23.26049232 0.7052466273 
23.45565414 97.60439301 27.74890137 0.6592900753 
14.68785095 99.30284882 27.74890137 0.6592900157 
10.25597668 99.85791779 27.74890137 0.6592900157 
-8.778876305 -13.57557106 4.468978882 0.9351088405 
-7.659941196 -14.5343647 4.541547775 0.9340905547 
-4.131796837 -13.03133297 3.778981209 0.9448458552 
-3.485156059 -12.96827126 3.712015867 0.9457962513 
-2.28937006 -13.05912113 3.664980888 0.9464643002 
-1.111254811 -13.11212349 3.637574434 0.9468538165 
0.05846679583 -13.14341259 3.633265257 0.9469150305 
2.421767473 -13.12627411 3.689731359 0.9461126924 
6.421923637 -13.31361294 4.086053371 0.9405000806 
7.179643631 -13.33388138 4.186242104 0.9390864968 
7.977065086 -13.35520935 4.300195217 0.9374813437 
13.56101322 -14.24164009 5.436083317 0.9216300249 
17.83525085 -14.31604958 6.321997166 0.9094533324 
19.63203049 -14.3705225 6.725418568 0.9039618969 
21.13782501 -14.07281017 7.019628525 0.8999778032 
75.16757965 31.03750229 22.48019218 0.7135568857 
70.31407928 40.73497772 22.46305656 0.7137405276 
70.43087006 45.10224915 23.11904716 0.706745863 
32.88335419 94.84446716 27.74890137 0.6592900753 
28.63178253 96.21335602 27.74890137 0.6592900157 
24.32354927 97.39173889 27.74890137 0.6592900753 
19.96712303 98.37735748 27.74890137 0.6592900157 
-8.851186752 -13.42381287 4.444784641 0.9354485869 
-7.763661861 -14.41851521 4.5267663 0.9342979193 
-7.090288162 -14.69922352 4.511307716 0.934514761 
-4.258706093 -13.02793407 3.788839579 0.9447060227 
-1.817670822 -13.09324169 3.654067993 0.9466193318 
-0.6429247856 -13.12464809 3.632394314 0.9469274879 
0.5271728635 -13.15595627 3.639612913 0.946824789 
1.10947752 -13.09118176 3.631762505 0.9469364285 
1.706176758 -13.14803696 3.664980888 0.9464643002 
2.30057621 -13.12303638 3.682917356 0.9462094307 
2.911225557 -13.13936996 3.720195293 0.9456800818 
3.557363272 -13.23700142 3.788931847 0.9447047114 
6.274604321 -13.30967236 4.067540646 0.9407615066 
7.772280216 -13.27931595 4.253322601 0.9381412268 
10.06919861 -14.14824677 4.800347805 0.9304683805 
12.14766598 -14.20383263 5.166462421 0.9253681898 
13.31528282 -14.23506355 5.388138771 0.922293663 
14.59024906 -14.26916504 5.641365051 0.9187940359 
19.17879868 -14.30267048 6.61350584 0.9054819345 
20.71874619 -14.06160355 6.921764851 0.9013011456 
36.7335701 -16.32875443 11.11227798 0.8463454843 
76.98535919 30.98888206 22.94043159 0.7086435556 
70.36904907 39.93492126 22.3662281 0.7147789001 
70.40696716 44.20860291 22.98117828 0.7082102895 
32.3608284 90.72130585 26.62575531 0.6705009937 
20.84160995 98.19580078 27.74890137 0.6592900157 
12.03155708 99.6595459 27.74890137 0.6592900753 
-8.984633446 -13.3657856 4.451873302 0.9353489876 
-7.783652306 -12.77177715 4.134479046 0.9398165345 
-7.611044884 -13.83870602 4.365817547 0.9365581274 
-7.186777115 -14.56661129 4.490056515 0.934812963 
-6.693100452 -15.23941326 4.601015091 0.9332570434 
-3.754912138 -13.04142094 3.751486778 0.945235908 
-2.521425724 -13.01631355 3.664980888 0.9464643002 
-1.936147451 -13.09006786 3.657848358 0.9465656281 
0.9980614781 -13.16854954 3.650616407 0.9466683865 
2.179814339 -13.11980438 3.676420212 0.9463017583 
3.430512667 -13.23360825 3.779075146 0.9448444843 
4.071977615 -13.25076103 3.831955433 0.9440947175 
4.732988358 -13.26843739 3.894155264 0.9432135224 
6.128676414 -13.30576611 4.04952383 0.9410160184 
6.872143269 -13.32565403 4.144598961 0.939673841 
7.652944088 -13.34654236 4.252867222 0.9381476641 
9.295351028 -13.3101263 4.487734318 0.9348455667 
10.86429214 -14.1695118 4.935705662 0.9285794497 
11.92540455 -14.19789028 5.125482559 0.9259376526 
13.0737257 -14.22860813 5.341432571 0.9229405522 
14.32566833 -14.26208496 5.587930202 0.919531405 
17.22728157 -14.33970165 6.196012497 0.9111751318 
18.93566513 -14.38539505 6.573559284 0.9060251117 
20.31882286 -14.05583477 6.829665184 0.9025482535 
29.3927536 -18.45556641 9.593909264 0.8658596277 
37.05413055 -16.86764526 11.25420666 0.8445440531 
68.88396454 34.36771774 21.279953 0.7265310884 
70.26913452 39.0553894 22.22307396 0.7163165808 
70.38333893 43.3250885 22.84667397 0.7096417546 
38.72420883 92.61329651 27.74890137 0.6592900753 
32.64200211 88.99803162 26.20408821 0.6747576594 
30.3396225 95.68852997 27.74890137 0.6592900753 
17.33366203 98.87532806 27.74890137 0.6592900753 
12.91814423 99.54853058 27.74890137 0.6592900157 
8.477080345 100.0246353 27.74890137 0.6592900157 
-46.88505173 97.19960785 29.83132172 0.6389973164 
-17.84478569 -10.33800793 5.700823784 0.917974174 
-8.552055359 -13.75568771 4.477447987 0.9349899292 
-8.053734779 -14.33982372 4.546350002 0.9340232611 
-4.486918926 -12.94148922 3.78632617 0.9447416663 
-1.463691354 -13.10268974 3.644504309 0.9467553496 
-0.2922460735 -13.1340332 3.631534338 0.9469396472 
0.2926464677 -13.14967728 3.635860443 0.9468781352 
0.8800927401 -13.16539001 3.647426605 0.9467137456 
1.471909165 -13.17631817 3.664980888 0.9464643002 
2.05953598 -13.11659145 3.670238495 0.9463895559 
4.599023342 -13.26485825 3.880934477 0.9434007406 
5.983950138 -13.30190372 4.031974316 0.9412639737 
6.720620155 -13.32160091 4.124567986 0.9399564266 
8.308584213 -13.36409187 4.349980831 0.93678087 
9.116909027 -13.30536079 4.458586216 0.9352547526 
12.64117432 -14.00592995 5.215411186 0.9246883988 
13.85221386 -14.03831768 5.451752663 0.9214132428 
29.13866234 -18.65988731 9.564839363 0.8662375808 
37.0620079 -17.27113152 11.30284882 0.8439275622 
70.57735443 30.62353516 21.26708031 0.7266716957 
68.92658234 33.62644577 21.1998558 0.7274053097 
70.24703217 38.22864532 22.10759163 0.717559576 
31.19016457 95.41466522 27.74890137 0.6592900753 
26.91449738 96.70780945 27.74890137 0.6592900157 
22.58637619 97.80921936 27.74890137 0.6592900157 
18.21266556 98.71720123 27.74890137 0.6592900753 
-50.65682983 96.11769104 30.03396416 0.6370563507 
-8.65028286 -13.64149857 4.465156078 0.9351624846 
-8.153979301 -14.22034645 4.531301975 0.9342342615 
-7.45813942 -14.46211433 4.49805212 0.9347007275 
-3.362582922 -12.97155285 3.70424366 0.9459065795 
-0.4091406167 -13.13090324 3.631533623 0.9469397068 
0.7622558475 -13.16223621 3.644529343 0.9467549324 
1.939916968 -13.11558056 3.664980412 0.9464643002 
7.335707664 -13.3380518 4.207877636 0.9387815595 
10.46122074 -14.15872574 4.866314411 0.9295473695 
15.13485813 -14.28372574 5.75272274 0.9172593355 
18.10147858 -14.26680183 6.37112093 0.9087828994 
19.86358261 -14.27020931 6.760959148 0.9034796953 
70.4550705 46.00715637 23.26049232 0.7052466273 
39.69430923 90.37927246 27.28691292 0.6638786197 
32.03783035 95.13341522 27.74890137 0.6592900157 
27.7746582 96.46427155 27.74890137 0.6592900753 
-49.55298233 96.08810425 29.88563919 0.6384764314 
-6.801630497 -14.42758751 4.409184456 0.9359486699 
-6.368036747 -15.22968197 4.563143253 0.9337878227 
0.6446630955 -13.15908623 3.641926289 0.9467919469 
3.684897423 -13.24040508 3.799142361 0.9445598722 
4.333827972 -13.25775814 3.855678558 0.9437585473 
7.179643631 -13.33388138 4.186242104 0.9390864968 
7.977143288 -13.35521412 4.300206661 0.9374811649 
8.800732613 -13.34729004 4.419446468 0.9358044863 
11.12515068 -13.98697758 4.940323353 0.9285151362 
12.29183769 -14.11606884 5.174130917 0.9252616167 
13.56101322 -14.24164009 5.436083317 0.9216300249 
16.29222679 -14.3146925 5.995066166 0.9139280915 
17.83525085 -14.31604958 6.321997166 0.9094533324 
19.63202667 -14.3706398 6.725439072 0.9039615989 
37.13605881 -16.11334991 11.19020462 0.8453559279 
70.31407928 40.73497772 22.46305656 0.7137405276 
70.43087769 45.10270309 23.11911774 0.7067451477 
37.0698204 93.28781128 27.74890137 0.6592900157 
14.24138641 90.70166016 25.37997055 0.6831608415 
11.14441872 99.76266479 27.74890137 0.6592900753 
6.695112228 100.1596832 27.74890137 0.6592900753 
-48.47102737 96.07901764 29.74750328 0.6398019195 
-7.872353554 -13.18003845 4.243779182 0.9382756948 
-2.405468702 -13.03823662 3.664980888 0.9464643002 
-1.817724586 -13.09323215 3.654069662 0.9466193318 
-0.642983377 -13.12464809 3.632393599 0.9469274282 
0.5271191001 -13.15595627 3.639612436 0.946824789 
1.10947752 -13.09118176 3.631762505 0.9469364285 
2.911293983 -13.13936996 3.720200062 0.9456800222 
3.557363272 -13.23700142 3.788931847 0.9447047114 
4.20252943 -13.25424767 3.843630791 0.943929255 
4.867797852 -13.27204037 3.90776968 0.9430208206 
5.557182312 -13.29047775 3.982116699 0.9419687986 
6.274604321 -13.30967236 4.067540646 0.9407615066 
7.025160789 -13.32975101 4.165156364 0.9393838644 
7.772275448 -13.27944279 4.253350735 0.9381408095 
10.06911087 -14.14823723 4.800333023 0.9304686189 
14.59011173 -14.26915455 5.641339779 0.9187944531 
15.99389362 -14.3067131 5.931891918 0.9147952795 
17.55335808 -14.348423 6.26707983 0.9102034569 
19.17879868 -14.30267048 6.61350584 0.9054819345 
36.73345947 -16.32853889 11.11222649 0.8463461399 
76.98535919 30.98888206 22.94043159 0.7086435556 
68.90481567 35.14719772 21.38214493 0.7254171968 
70.36904907 39.93492126 22.3662281 0.7147789001 
70.40695953 44.20822144 22.98111534 0.7082108855 
37.89831924 92.95432281 27.74890137 0.6592900157 
32.36079407 90.71997833 26.62541008 0.6705045104 
23.60420418 91.05597687 26.00253105 0.6768038273 
20.84160995 98.19580078 27.74890137 0.6592900157 
14.87114239 89.50335693 25.08054161 0.686236918 
7.586845398 100.0961075 27.74890137 0.6592900157 
-8.974399567 -13.35060501 4.288899899 0.9355748892 
-7.1997118 -14.59276295 4.338384151 0.9348562956 
-3.754926682 -13.04141617 3.618267775 0.9453678727 
-3.138007641 -13.0579195 3.580532074 0.9459219575 
-2.532626867 -13.07411575 3.55053091 0.9463627338 
-1.936147451 -13.09006786 3.527955294 0.9466944933 
-0.7598974705 -13.12152767 3.504235268 0.9470432401 
-0.1743115187 -13.0568409 3.481437922 0.9473785162 
1.591723561 -13.18441868 3.540667534 0.9465076923 
2.193251848 -13.20050716 3.567681313 0.946110785 
2.805239201 -13.21687984 3.602294207 0.945602417 
3.430478334 -13.23360348 3.644873619 0.9449774623 
6.872133732 -13.3256588 3.99741745 0.9398187995 
7.652934551 -13.34653282 4.101841927 0.9382962584 
9.352529526 -13.39200687 4.35499239 0.9346152544 
11.92541027 -14.19788551 4.943472862 0.9261143208 
13.07373714 -14.22860813 5.151753426 0.9231240749 
14.32569504 -14.2620945 5.389503002 0.9197226167 
17.22732353 -14.33970165 5.97599411 0.9113851786 
20.5524559 -14.21753407 6.662890434 0.9017164111 
22.4818058 -14.11632061 7.077587605 0.8959290385 
36.97369385 -16.83111382 10.83100891 0.8452069163 
69.26382446 30.78894997 20.20893097 0.7306756377 
68.94765472 34.39941025 20.54323959 0.7268926501 
70.55250549 47.88319397 22.73327255 0.7025899887 
40.15006638 96.02315521 27.74890137 0.6499504447 
31.45672226 99.21160126 27.74890137 0.6499505043 
22.51435471 101.6148224 27.74890137 0.6499505043 
17.97183609 102.5157852 27.74890137 0.6499504447 
11.49666023 88.59489441 23.81862831 0.6908492446 
-52.18901825 96.92425537 29.34929657 0.6339986324 
-57.52071762 96.30098724 29.90649605 0.6285369992 
-8.509809494 -13.68770981 4.297114372 0.9354556203 
-7.299018383 -14.46808052 4.320463657 0.9351165295 
-6.286147118 -13.97367668 4.085185051 0.938538909 
-3.879941225 -13.03807068 3.626777172 0.945243001 
-2.652909994 -13.07089329 3.55592823 0.9462834001 
-1.463671803 -13.102705 3.515083551 0.946883738 
-0.8769286871 -13.11839294 3.505346537 0.9470269084 
-0.2922705114 -13.13402843 3.502575636 0.947067678 
0.2926220596 -13.14967251 3.506747246 0.9470063448 
1.472441316 -13.18124008 3.536151648 0.9465740323 
2.07219243 -13.19727516 3.561679602 0.9461989403 
2.68187499 -13.21357918 3.594747305 0.945713222 
3.920820236 -13.17541027 3.664980888 0.9446824789 
4.57090807 -13.18375969 3.720234394 0.9438723326 
5.278271198 -13.2830267 3.8107903 0.9425461292 
5.983959675 -13.30189896 3.888796329 0.9414052367 
7.493510723 -13.34228039 4.079873562 0.9386163354 
8.308603287 -13.36408615 4.195511818 0.9369325042 
9.116943359 -13.30536079 4.300261974 0.9354098439 
10.0334034 -13.32986832 4.448167801 0.9332641363 
13.85214615 -14.03831291 5.258142471 0.9216004014 
15.1809082 -14.07385921 5.519177914 0.9178726077 
16.9087429 -14.33117676 5.909493446 0.9123267531 
18.29495621 -14.15715313 6.167536259 0.9086786509 
20.4624939 -14.4262352 6.675086498 0.9015457034 
22.01234627 -14.09619808 6.969001293 0.8974407315 
36.99799347 -17.24130821 10.88263988 0.8445295691 
80.85354614 30.88542938 23.07586861 0.6988630295 
70.68817139 30.67166901 20.54405403 0.726883471 
68.92658234 33.62616348 20.44698524 0.7279798985 
70.34005737 38.27938461 21.35077667 0.7178353071 
70.35998535 42.45192337 21.90889931 0.7116414905 
41.00297928 95.66205597 27.74890137 0.6499504447 
36.70706558 97.39126587 27.74890137 0.6499505043 
-51.06540298 96.89362335 29.20121956 0.6354578733 
-56.34556198 96.26947021 29.73980331 0.6301659942 
