# .PCD v0.7 - Point Cloud Data file format
VERSION 0.7
FIELDS x y z intensities
SIZE 4 4 4 4
TYPE F F F F
COUNT 1 1 1 1
WIDTH 945
HEIGHT 1
VIEWPOINT 0 0 0 1 0 0 0
POINTS 945
DATA ascii
-8.509887695 -13.68786621 4.297157764 0.9354549646 
-8.009487152 -14.26104927 4.360816479 0.9345307946 
-7.299096584 -14.46827602 4.320518017 0.935115695 
-6.286186218 -13.97375965 4.085207939 0.9385385513 
-4.486918926 -12.94148922 3.65186739 0.9448748231 
-2.652929544 -13.07088852 3.555928469 0.9462834001 
-1.463691354 -13.10270023 3.515083313 0.946883738 
-0.2922412157 -13.13403797 3.502574682 0.9470676184 
0.8800927401 -13.16539001 3.517903566 0.9468423128 
5.983950138 -13.30190372 3.888794184 0.9414052367 
6.720620155 -13.32160091 3.978101492 0.9401007295 
8.308584213 -13.36407185 4.195508003 0.9369325638 
10.03337383 -13.32987309 4.448162556 0.9332641959 
12.64118671 -14.00593758 5.030209541 0.9248678088 
20.46254158 -14.42624474 6.675095081 0.9015455246 
22.0121479 -14.09619141 6.968955994 0.8974413872 
70.34004974 38.27924347 21.35076141 0.7178355455 
70.47954559 46.92280197 22.57432365 0.70432657 
41.00263596 95.66087341 27.7485714 0.649953723 
32.33815002 98.92649841 27.7485714 0.6499538422 
27.90512657 100.2672653 27.7485714 0.649953723 
18.88299751 102.3505859 27.7485714 0.6499538422 
8.310908318 88.68008423 23.74690819 0.6916191578 
4.917309284 100.3733749 26.79298973 0.6596693993 
-51.06577682 96.89363098 29.20126724 0.6354573965 
-7.469965458 -14.48503399 4.345197201 0.9347574711 
-6.199243069 -15.20508289 4.377861977 0.9342834353 
-4.005532265 -13.03471184 3.635612965 0.9451133609 
-3.383261681 -13.05135727 3.594679117 0.9457142353 
-2.773549795 -13.06766605 3.561623096 0.9461997151 
-2.173881769 -13.08370113 3.536112309 0.9465746284 
-1.571792006 -13.01945782 3.496366262 0.9471589923 
-0.9940771461 -13.11526871 3.506733656 0.947006464 
-0.4091406167 -13.13090324 3.502573967 0.947067678 
0.762260735 -13.16223621 3.515108347 0.9468833804 
1.353510737 -13.17804623 3.531927824 0.9466361403 
5.84045887 -13.2980566 3.87231946 0.9416460991 
6.530439377 -13.23617172 3.935082674 0.9407289028 
7.335707664 -13.3380518 4.058451176 0.9389286041 
8.141919136 -13.35962868 4.17120266 0.9372861981 
9.849648476 -13.33097649 4.419116497 0.9336852431 
11.49121571 -14.1862793 4.867417812 0.9272085428 
12.46919632 -14.06509972 5.011393547 0.9251380563 
15.1348629 -14.28373528 5.548437595 0.9174557328 
20.06599045 -14.41562939 6.587315559 0.9027751684 
21.56865883 -14.08433056 6.867948055 0.8988499641 
72.33808136 30.6256485 20.94354248 0.7223887444 
70.3368988 41.5884285 21.7855587 0.713005662 
70.4550705 46.00716782 22.43449402 0.7058574557 
70.58071136 50.70588684 23.17041206 0.69783777 
39.69430923 90.37927246 26.31792641 0.6645531654 
33.21701431 98.63488007 27.7485714 0.6499538422 
24.01518059 99.93260193 27.40195084 0.6534616351 
13.09765625 88.55207062 23.8660183 0.690341115 
5.140610218 88.76487732 23.70555305 0.692063272 
-49.95262909 96.86329651 29.05689812 0.6368834376 
-55.21080399 96.28609467 29.5919838 0.6316140294 
-8.768842697 -13.5599165 4.305321693 0.9353363514 
-7.970448971 -13.61803722 4.206912041 0.9367666841 
-7.605668545 -14.43122005 4.349201202 0.9346993566 
-1.699428678 -13.09638596 3.520949841 0.9467975497 
-0.5259863138 -13.12778282 3.502850533 0.9470636249 
0.05846679583 -13.14341259 3.504244089 0.9470431209 
0.6446630955 -13.15909195 3.512597799 0.9469202757 
1.234726548 -13.1748724 3.527989626 0.9466940165 
3.053603411 -13.22352028 3.618348122 0.9453667402 
5.00357914 -13.2756834 3.782525778 0.9429599047 
6.422001839 -13.31362247 3.940961599 0.9406429529 
7.977143288 -13.35521412 4.147501469 0.9376312494 
9.71883297 -13.40180588 4.413752079 0.9337629676 
12.3735199 -14.20987797 5.023556709 0.9249634147 
13.3819313 -14.05355644 5.173799992 0.9228081107 
14.85995579 -14.27638149 5.494005203 0.9182314277 
16.29222107 -14.31468678 5.78217268 0.9141320586 
19.63202667 -14.37062931 6.486608505 0.9041879773 
21.16173935 -14.08875656 6.778024673 0.9001058936 
36.98521042 -16.04789543 10.74898624 0.8462839723 
73.91808319 30.52194023 21.32152557 0.7181614637 
70.31407928 40.73498917 21.66537094 0.7143375278 
39.9880867 88.89160156 25.98735809 0.6679735184 
34.09322739 98.33548737 27.7485714 0.6499537826 
25.21838379 100.9765015 27.7485714 0.649953723 
20.7020607 101.9982376 27.7485714 0.6499537826 
13.90043926 88.5306015 23.89262962 0.6900560856 
9.901601791 88.63755798 23.77894402 0.6912750602 
5.932060242 88.74370575 23.71305847 0.6919826269 
-7.85236311 -13.14658165 4.082684994 0.9385753274 
-7.623012543 -14.15730476 4.286919594 0.9356036782 
-3.630439281 -13.04474545 3.610081434 0.9454880953 
-3.01611805 -13.0611763 3.57392478 0.9460190535 
-1.817719698 -13.09323215 3.524309874 0.9467480779 
-0.642983377 -13.12464809 3.50340414 0.947055459 
1.10947752 -13.09118176 3.502794504 0.9470643997 
1.711376905 -13.18762684 3.545481205 0.9464369416 
2.314726591 -13.20375443 3.573985815 0.9460181594 
3.55736804 -13.23699188 3.654382467 0.9448379278 
4.176840782 -13.17321777 3.684474707 0.9443965554 
6.274609089 -13.30967712 3.923098326 0.9409039617 
7.025160789 -13.32975101 4.017246723 0.9395294785 
8.64805603 -13.37315845 4.246025562 0.9361979365 
11.07025337 -14.17501926 4.795202732 0.9282488227 
12.14756298 -14.20383263 4.982976437 0.9255464077 
14.59011459 -14.26916504 5.441008091 0.9189873338 
19.17879868 -14.30266094 6.378652096 0.9057048559 
30.36707497 -18.69274902 9.507216454 0.8627595305 
36.88105774 -16.39414978 10.76068497 0.8461302519 
76.98532867 30.98888397 22.12579536 0.7092490196 
68.87223816 31.35211372 20.17531776 0.7310571074 
70.40695953 44.20820618 22.16502571 0.7088169456 
70.94567108 49.07801819 22.99984741 0.6996883154 
39.29321671 96.37562561 27.7485714 0.649953723 
32.36079407 90.71997833 25.67990875 0.671169281 
14.70580578 88.50906372 23.92120361 0.6897498965 
10.69833946 88.61624146 23.79782677 0.691072464 
6.724765301 88.72251129 23.72245598 0.6918816566 
-47.85808182 97.00078583 28.83810425 0.6390509009 
-53.32378387 96.95519257 29.5011425 0.6325054765 
-58.7094841 96.33307648 30.07756805 0.6268697381 
-8.964272499 -13.33554173 4.127097607 0.9357939363 
-8.370283127 -13.73438454 4.131092548 0.9357338548 
-3.754926682 -13.04141617 3.485698462 0.9454948306 
-3.138007641 -13.05791473 3.449343443 0.9460476637 
-2.532636642 -13.07411098 3.420442104 0.9464874268 
-1.34604001 -13.10585403 3.383876562 0.9470440149 
-0.759907186 -13.12152767 3.375842571 0.9471663833 
0.4098290801 -13.152812 3.379872084 0.9471050501 
2.193242073 -13.20051193 3.436963081 0.9462360144 
3.430468559 -13.23360825 3.511328459 0.9451052547 
6.128652096 -13.30576611 3.762614965 0.9412943125 
6.872133732 -13.3256588 3.850955963 0.9399582148 
7.652934551 -13.34654713 3.951553583 0.9384390116 
9.352529526 -13.39200687 4.195429802 0.9347662926 
15.7016325 -14.29889107 5.454551697 0.9160317779 
18.71325493 -14.21639633 6.036082745 0.9075063467 
20.5524559 -14.21753407 6.418767929 0.9019393921 
22.48123169 -14.11594009 6.81808567 0.8961669207 
37.04990768 -16.86581039 10.45567322 0.8452543616 
70.64401245 39.2637291 20.75874901 0.7162100077 
70.63336945 52.67505646 22.63113213 0.694969058 
23.72156143 88.26793671 23.47559547 0.6855963469 
15.76424313 89.92333984 23.44857216 0.6858943701 
-7.96586895 -14.18335915 4.178153992 0.9350260496 
-6.270390511 -13.93863297 3.925639153 0.9388301373 
-6.379209042 -16.05360222 4.436899662 0.9311440587 
-4.486908913 -12.94148922 3.518068552 0.9450028539 
-3.879946232 -13.03807545 3.493895531 0.9453701973 
-2.054858446 -13.08688927 3.40248251 0.9467607737 
-1.463671803 -13.102705 3.38629365 0.9470072389 
-0.8769286871 -13.11839294 3.376911879 0.9471501112 
-0.2922705114 -13.13402843 3.374243975 0.9471907616 
0.8800634742 -13.16538048 3.389009714 0.9469659328 
1.472441316 -13.18124008 3.406590223 0.9466982484 
2.072187424 -13.19727516 3.431182384 0.9463239908 
2.681869984 -13.21358395 3.463038445 0.9458394051 
3.942202091 -13.24729443 3.54996109 0.9445183873 
5.947363377 -13.22057629 3.723409653 0.9418879151 
6.720629692 -13.32160091 3.832346439 0.9402395487 
9.116943359 -13.30535126 4.14270401 0.9355591536 
10.09512138 -13.41186523 4.311551094 0.9330226779 
12.64113045 -14.00593758 4.845897198 0.9250406027 
15.18091011 -14.07386398 5.316960335 0.9180606008 
16.90875244 -14.33118629 5.692975998 0.9125267863 
32.05037689 -18.56773376 9.513623238 0.8581551313 
80.85355377 30.88543129 22.2303772 0.6994617581 
69.19691467 46.06908035 21.35148239 0.7094166279 
70.60686493 51.68386078 22.47436523 0.6967229843 
38.10267639 101.0941544 27.7485714 0.6400738358 
28.80927277 88.13187408 23.81494331 0.6818657517 
20.54125023 88.95378876 23.44857216 0.6858943701 
12.55380821 90.42742157 23.44857216 0.6858943701 
4.917026043 100.3733978 25.81130791 0.6603255272 
-50.65618515 96.11724091 27.90590286 0.6384566426 
-56.80146027 97.04845428 28.88198662 0.6285145879 
-8.649575233 -13.64027786 4.148440838 0.935472846 
-7.913442135 -13.80088806 4.086071968 0.9364114404 
-7.443530083 -14.43367672 4.171154499 0.9351312518 
-6.516274452 -14.14730453 4.000586033 0.9376994967 
-4.00556612 -13.03471184 3.502409935 0.9452407956 
-0.994042933 -13.11526871 3.378248453 0.9471297264 
1.353452086 -13.17804623 3.402519226 0.9467602372 
4.465981483 -13.26130295 3.59405899 0.9438489079 
5.109023094 -13.19814873 3.634996653 0.9432278275 
5.80479002 -13.21676254 3.707637548 0.9421267509 
6.530405045 -13.23617649 3.790896177 0.9408663511 
7.335741997 -13.33804703 3.909759045 0.9390699267 
8.995815277 -13.38247013 4.141617775 0.9355754852 
9.905630112 -13.40678692 4.281411171 0.9334749579 
12.46919632 -14.06509972 4.827781677 0.9253101349 
15.1348629 -14.28373528 5.345146179 0.9176446199 
18.10147858 -14.26677227 5.919728756 0.9092057943 
20.06585121 -14.41562939 6.345934868 0.9029963017 
36.14148712 -17.2352829 10.28426456 0.8475871682 
68.8428421 32.83003235 19.58961296 0.7298011184 
68.94713593 36.72984695 20.06481552 0.7242462039 
70.58071899 50.70616913 22.32150841 0.6984375119 
70.71520233 55.73460007 23.12600517 0.6894610524 
29.67202568 88.10881042 23.87912369 0.6811625361 
21.3321228 88.7674408 23.44857216 0.6858943701 
17.36224174 89.62851715 23.44857216 0.6858943701 
9.327406883 90.81694031 23.44857216 0.6858943701 
-8.732133865 -13.50321293 4.130228519 0.9357468486 
-8.172856331 -13.96380329 4.155676365 0.9353640079 
-7.645053387 -14.50602055 4.21156311 0.9345238805 
-7.018691063 -14.88792896 4.227518082 0.9342841506 
-6.35127449 -15.189785 4.22873354 0.9342659116 
-5.892773151 -16.06661606 4.395431519 0.9317650795 
-4.131796837 -13.03133297 3.511241674 0.945106566 
-3.506596565 -13.04805183 3.470239401 0.9457299113 
-2.293120146 -13.08050728 3.410898685 0.9466326833 
-1.111254811 -13.11212349 3.379854918 0.9471052885 
-0.5260204673 -13.12778282 3.374508381 0.9471867085 
0.6446386576 -13.15909195 3.383898497 0.9470437169 
1.234750986 -13.17487717 3.39872694 0.9468179345 
3.684926748 -13.24040985 3.529978752 0.9448218942 
4.333827972 -13.25775814 3.58250761 0.9440242648 
5.663413048 -13.2129879 3.692291975 0.9423592091 
6.421933651 -13.31360817 3.796560287 0.9407806993 
7.179643631 -13.33388138 3.889650583 0.9393735528 
8.820824623 -13.37778282 4.115710735 0.9359652996 
9.718740463 -13.40180588 4.252021313 0.9339160919 
10.68015575 -13.42751884 4.406696796 0.9315963387 
12.37346649 -14.2098732 4.839487076 0.9251359701 
13.56107426 -14.24164009 5.050952435 0.9219956994 
14.63387203 -14.05922794 5.212193489 0.9196084142 
16.29230118 -14.3146925 5.570334435 0.9143279791 
17.83524704 -14.31610775 5.874098778 0.9098730683 
19.63203049 -14.37058067 6.248936653 0.9044057131 
21.71900177 -14.45983887 6.701643944 0.8978463411 
74.05425262 30.57777786 20.57812119 0.71829319 
68.82255554 32.0717659 19.50185585 0.7308316827 
68.92586517 35.93466568 19.9647522 0.7254123092 
70.6891861 40.95230484 20.98291969 0.7136332393 
70.55492401 49.74184036 22.17249489 0.7001129985 
11.9093256 21.20474052 6.24652195 0.9044408202 
39.98853302 88.89157867 25.03513336 0.6686176062 
39.89596558 100.3999557 27.7485714 0.6400738358 
30.53997421 88.08558655 23.94555092 0.6804352403 
22.12131882 88.57407379 23.44857216 0.6858943701 
14.16118145 90.18968201 23.44857216 0.6858943701 
10.13518524 90.73034668 23.44857216 0.6858943701 
6.089145184 91.09137726 23.44857216 0.6858943701 
-46.79269028 104.0167542 29.2950058 0.6243544817 
-48.4708519 96.07884216 27.63986015 0.6411936283 
-54.03355026 96.20757294 28.34097099 0.6340059042 
-8.814052582 -13.36748981 4.112546444 0.9360129237 
-7.545136452 -14.01267529 4.087659359 0.9363875389 
-6.848031998 -14.19696712 4.048460484 0.9369779229 
-3.016093731 -13.0611763 3.442978144 0.9461445212 
-2.412704945 -13.07731438 3.415527582 0.9465622306 
-1.817700148 -13.09322739 3.395181417 0.9468719363 
-1.228574157 -13.10898399 3.381730556 0.9470767379 
-0.6429541111 -13.12465763 3.375041723 0.9471786022 
-0.05848632753 -13.14028263 3.375047922 0.9471785426 
0.5271728635 -13.15595627 3.381749392 0.9470764399 
1.711318374 -13.18762684 3.415572643 0.9465615153 
2.929140568 -13.22019005 3.477886677 0.9456136227 
4.867807388 -13.27205086 3.630907774 0.9432898164 
7.025121689 -13.32975101 3.870054007 0.9396696091 
8.648022652 -13.37315845 4.090448856 0.9363455772 
9.534414291 -13.39687443 4.223370075 0.9343464971 
10.45574188 -13.38822269 4.363091469 0.9322497249 
12.14761162 -14.20383263 4.800412178 0.9257174134 
14.40130806 -14.08438492 5.173799992 0.9201763272 
17.55319977 -14.34841728 5.823031902 0.9106205106 
36.81560898 -16.36513138 10.348032 0.8467185497 
76.43986511 30.76949883 21.16411781 0.7115571499 
68.90481567 35.14738846 19.8672657 0.7265503407 
70.47892761 39.99705505 20.8140831 0.7155738473 
69.19058228 43.44465256 20.98405457 0.7136202455 
70.94580078 49.07790756 22.15716934 0.7002856135 
70.66025543 53.68020248 22.79190445 0.6931747794 
40.53498459 99.42072296 27.57666016 0.641846776 
32.36080933 90.7205658 24.73916435 0.6718076468 
14.87094688 89.50335693 23.30362511 0.6874947548 
6.89954567 91.03359222 23.44857216 0.6858943701 
-46.59122467 106.0822449 29.7587471 0.6197161078 
-8.964267731 -13.33555126 4.127098083 0.9357939363 
-8.37027359 -13.73439407 4.131093502 0.9357338548 
-6.567509651 -14.95337391 4.1947999 0.9347757697 
-6.216078758 -16.05796814 4.4226408 0.9313575029 
-3.754912138 -13.04142094 3.485696554 0.9454948306 
-3.137997866 -13.05790997 3.449343443 0.9460477233 
-1.936147451 -13.09005833 3.398692846 0.946818471 
-1.34604001 -13.10585403 3.383876562 0.9470440149 
-0.1743212789 -13.05683041 3.353881359 0.9475009441 
0.4098193347 -13.152812 3.379872084 0.9471050501 
0.9980908036 -13.16854 3.391974211 0.9469207525 
1.591733336 -13.18442822 3.410940886 0.9466320276 
3.430478334 -13.23360348 3.511328459 0.9451052547 
4.071948051 -13.2507515 3.56046176 0.9443589449 
5.386694431 -13.21203613 3.66465044 0.9427782297 
6.128642559 -13.30577087 3.76261425 0.9412943125 
7.652944088 -13.34654236 3.951555967 0.9384390116 
8.477304459 -13.36858845 4.065814495 0.9367164969 
11.22304153 -13.36168957 4.481862545 0.9304711223 
15.70167732 -14.29889107 5.45456028 0.9160316586 
18.71326447 -14.2163763 6.036082745 0.9075063467 
37.04990005 -16.86582947 10.45567608 0.8452543616 
69.26374054 30.78901291 19.46848297 0.7312239408 
70.64401245 39.26374817 20.75875664 0.7162100077 
70.63336945 52.67503357 22.63112831 0.694969058 
23.72154236 88.26793671 23.47559547 0.6855964065 
15.76430607 89.92331696 23.44857216 0.6858943701 
7.709633827 90.96855927 23.44857216 0.6858943701 
-46.88503265 97.199646 27.71780777 0.6403905153 
-51.77054214 96.14704895 28.04723167 0.6370074749 
-8.566371918 -13.77871513 4.167191505 0.9351908565 
-7.308730125 -14.48736286 4.167708874 0.9351831079 
-4.486918926 -12.94148922 3.51806736 0.9450028539 
-3.879956007 -13.03806591 3.493896008 0.9453702569 
-3.26039052 -13.05463791 3.456007957 0.9459463358 
-2.652929544 -13.07088852 3.425642252 0.9464082718 
0.8800927401 -13.16539478 3.389010191 0.9469658732 
1.472460866 -13.18123531 3.4065907 0.9466982484 
2.072206974 -13.19727993 3.4311831 0.9463239312 
2.681884766 -13.21357918 3.463039875 0.9458394051 
7.493485928 -13.3422699 3.930388451 0.9387584925 
8.308584213 -13.36407185 4.041789055 0.937078476 
12.64118671 -14.00593758 4.845908165 0.9250404835 
16.90880013 -14.33118153 5.692986965 0.9125266075 
18.29499626 -14.15714836 5.941572189 0.9088864923 
20.46254158 -14.4262352 6.43052721 0.9017689228 
22.16635513 -14.19481945 6.760634422 0.8969951272 
32.05037689 -18.56771851 9.513620377 0.8581551313 
80.85355377 30.88543129 22.2303772 0.6994617581 
70.55082703 30.61199188 19.75287819 0.7278878093 
68.9686203 37.53292084 20.16745567 0.723051846 
69.19691467 46.06886292 21.35145187 0.7094169855 
70.60686493 51.68412399 22.47440529 0.6967225075 
38.10278702 101.0941086 27.7485714 0.6400738358 
28.80929184 88.13187408 23.81495476 0.6818656921 
20.54143906 88.95372772 23.44857216 0.6858943701 
16.56372452 89.7795105 23.44857216 0.6858943701 
8.518612862 90.89637756 23.44857216 0.6858943701 
-50.65606689 96.11724091 27.9058857 0.6384568214 
-56.80114746 97.04845428 28.88195038 0.6285150051 
-62.58475113 96.77944946 29.60198593 0.6212802529 
-7.913442135 -13.80082035 4.086055279 0.9364116788 
-6.516298771 -14.14732361 4.000591755 0.9376993775 
-3.383208036 -13.05136204 3.462970257 0.9458404183 
-2.773549795 -13.06766605 3.43112874 0.9463247657 
-2.173823118 -13.0837059 3.406549215 0.9466988444 
-1.571792006 -13.01945782 3.368262529 0.9472818971 
0.1755126864 -13.14653778 3.376922846 0.947149992 
0.7622558475 -13.16223621 3.386317253 0.9470068812 
3.178588867 -13.22686958 3.493973732 0.9453690648 
3.78988266 -13.16287613 3.518160582 0.9450014234 
4.465961933 -13.26130295 3.594056606 0.9438489079 
7.335785866 -13.33807087 3.909762859 0.9390698075 
8.141913414 -13.35962391 4.018373013 0.9374313354 
15.1348629 -14.28373528 5.345146179 0.9176446199 
16.49425507 -14.23404312 5.595849514 0.9139529467 
20.06580925 -14.41562462 6.345926285 0.9029964209 
21.86582756 -14.27838326 6.707472801 0.897762239 
31.67309952 -18.72767448 9.450746536 0.8590232134 
36.14140701 -17.23533249 10.28425026 0.847587347 
68.8428421 32.83021545 19.58963585 0.72980088 
70.55764771 41.71928024 21.05326462 0.7128264904 
69.23693085 45.21172333 21.23884773 0.7107025981 
70.58071899 50.70629883 22.32152939 0.6984372735 
39.69430923 90.37929535 25.35366249 0.6652024388 
39.00072479 100.751091 27.7485714 0.6400738955 
29.67190933 88.10881042 23.87911415 0.681162715 
25.40139198 88.2230072 23.58016586 0.6844446063 
21.33203506 88.76745605 23.44857216 0.6858943701 
17.36224174 89.62851715 23.44857216 0.6858943701 
13.35803699 90.31213379 23.44857216 0.6858943701 
5.201835632 89.82199097 23.10896873 0.6896498799 
-49.55319595 96.08773041 27.76821136 0.6398717165 
-5.892773151 -16.06661606 4.395431519 0.9317650795 
-4.131796837 -13.03133297 3.511241674 0.945106566 
-2.8769238 -12.98455524 3.415893793 0.9465566278 
-2.293120146 -13.08050728 3.410898685 0.9466326833 
-1.699487209 -13.09639168 3.391944885 0.9469212294 
-1.111254811 -13.11212349 3.379854918 0.9471052885 
0.05846679583 -13.14341259 3.375852346 0.9471662641 
1.83127439 -13.19083023 3.42049098 0.9464867115 
3.053603411 -13.22352028 3.485774755 0.9454936981 
5.663413048 -13.2129879 3.692291975 0.9423592091 
7.179643631 -13.33388138 3.889650583 0.9393735528 
7.977065086 -13.35521984 3.995529413 0.9377756715 
8.820824623 -13.37778282 4.115710735 0.9359652996 
10.68015575 -13.42751884 4.406696796 0.9315963387 
14.63380337 -14.05922794 5.212178707 0.919608593 
16.29237556 -14.3146925 5.570349216 0.9143278003 
17.83525085 -14.31604958 5.874090672 0.9098731875 
36.74256897 -15.94261169 10.28721619 0.8475469351 
68.82255554 32.0717659 19.50185585 0.7308316827 
68.92586517 35.93466568 19.9647522 0.7254123092 
70.55491638 49.74161148 22.17246056 0.7001134157 
11.9093256 21.20474052 6.24652195 0.9044408202 
39.98853302 88.89157867 25.03513336 0.6686176062 
39.89596558 100.3999557 27.7485714 0.6400738358 
22.12131882 88.57407379 23.44857216 0.6858943701 
10.13538074 90.73033142 23.44857216 0.6858943701 
-46.79269028 104.0167542 29.2950058 0.6243544817 
-6.053920746 -16.06230354 4.408821106 0.9315645695 
-4.258706093 -13.02793407 3.520403147 0.9449673891 
-3.630507708 -13.04474545 3.477815151 0.9456146955 
-3.016059399 -13.0611763 3.44297576 0.9461445808 
-2.412680626 -13.07731915 3.415527582 0.9465622306 
-1.228549719 -13.10898876 3.38173008 0.9470767379 
-0.05846191198 -13.1402874 3.375048399 0.947178483 
0.5271728635 -13.15595627 3.381749392 0.9470764399 
3.557363272 -13.23699665 3.520489693 0.9449660778 
4.867807388 -13.27205086 3.630907774 0.9432898164 
6.274609089 -13.30967712 3.779359341 0.9410409331 
7.025087833 -13.32974625 3.870049715 0.9396697283 
7.772280216 -13.27931595 3.95197773 0.9384326339 
13.31528091 -14.23506355 5.006392956 0.9226565361 
17.55319977 -14.34841728 5.823031902 0.9106205106 
20.97875977 -14.23806095 6.512073994 0.9005872607 
22.94013214 -14.12100792 6.91887188 0.894715786 
36.81567383 -16.36526871 10.34806252 0.8467181325 
68.9048233 35.14758301 19.86728477 0.726549983 
70.94567108 49.07801819 22.15715599 0.7002857327 
40.53524017 99.42072296 27.57679176 0.6418464184 
32.3608284 90.72130585 24.73934937 0.6718056798 
18.95462418 89.30532837 23.44857216 0.6858943701 
14.87075138 89.50335693 23.30361938 0.687494874 
6.89954567 91.03359222 23.44857216 0.6858943701 
-46.59124374 106.0816956 29.75862503 0.6197173595 
-47.51661682 96.30866241 27.58325958 0.6417774558 
-59.18354797 97.11095428 29.20952415 0.6252132654 
-8.964282036 -13.33551693 4.127093315 0.9357939959 
-7.872641563 -14.31432629 4.195926189 0.9347589016 
-7.118071079 -14.4273634 4.132057667 0.9357193112 
-6.567402363 -14.95322227 4.19475317 0.934776485 
-4.359414101 -12.9448967 3.508308411 0.9451512098 
-3.754912138 -13.04142094 3.485696554 0.9454948306 
-3.137997866 -13.05790997 3.449343443 0.9460477233 
-2.532626867 -13.07411098 3.420442104 0.9464874268 
-1.936147451 -13.09005833 3.398692846 0.946818471 
0.4098193347 -13.152812 3.379872084 0.9471050501 
1.591704011 -13.18441868 3.41094017 0.9466320872 
3.430502892 -13.23360348 3.511330128 0.9451052547 
4.071982384 -13.25076675 3.560464144 0.9443588257 
4.732983112 -13.26843739 3.618257761 0.9434817433 
5.386713982 -13.21203613 3.66465044 0.9427781701 
6.128676414 -13.30576611 3.762618065 0.9412943125 
6.872148514 -13.32565403 3.850957155 0.9399582148 
9.352534294 -13.39200211 4.195431232 0.9347662926 
10.28732395 -13.41701126 4.34246397 0.9325589538 
11.22304153 -13.36168957 4.481862545 0.9304711223 
15.7016058 -14.29889107 5.454546928 0.9160318971 
17.22728157 -14.33970165 5.75702858 0.9115874171 
18.71323204 -14.21642017 6.036082745 0.9075063467 
37.04992294 -16.86573601 10.45567036 0.8452543616 
77.56806183 30.42432022 21.40066338 0.7088558674 
69.26374054 30.78901291 19.46848297 0.7312239408 
68.88396454 34.36772537 19.77228737 0.7276607156 
70.64401245 39.26374817 20.75875664 0.7162100077 
70.05838776 43.12511444 21.13001251 0.7119473815 
70.63336945 52.67503357 22.63112831 0.694969058 
27.95083427 88.15483856 23.75298309 0.6825453639 
23.72154236 88.26793671 23.47559547 0.6855964065 
19.74882698 89.13306427 23.44857216 0.6858943701 
15.76430607 89.92331696 23.44857216 0.6858943701 
-51.77054214 96.14704895 28.04723167 0.6370074749 
-57.98567581 97.07952881 29.04366302 0.6268827915 
-7.965864182 -14.18335438 4.178152561 0.9350260496 
-6.270390511 -13.93863297 3.925639153 0.9388301373 
-2.652929544 -13.07088852 3.425642252 0.9464082718 
-2.05487299 -13.08688927 3.40248251 0.9467607737 
-1.463691354 -13.10270023 3.38629365 0.9470072389 
0.2926367223 -13.14967251 3.378263235 0.9471295476 
2.681884766 -13.21357918 3.463039875 0.9458394051 
3.304238319 -13.23021984 3.502491713 0.9452396035 
3.94220686 -13.24728966 3.549962282 0.9445183873 
4.599028111 -13.26485348 3.605973721 0.9436681271 
5.268906116 -13.25945282 3.66465044 0.9427781701 
5.947363377 -13.22057629 3.723408461 0.9418879151 
7.493485928 -13.3422699 3.930388451 0.9387584925 
10.09508801 -13.41187 4.311544418 0.9330227375 
11.01725101 -13.35618591 4.446959496 0.9309934378 
12.64118671 -14.00593758 4.845908165 0.9250404835 
15.18081951 -14.07385731 5.316942215 0.9180608988 
16.90880013 -14.33118153 5.692986965 0.9125266075 
18.29483795 -14.15714359 5.941539288 0.9088869691 
32.05037689 -18.56771851 9.513620377 0.8581551313 
36.65017319 -17.07920456 10.38534737 0.8462106586 
80.85256958 30.88545799 22.23014641 0.6994643807 
68.86331177 33.59558487 19.67977905 0.7287438512 
68.9686203 37.53292084 20.16745567 0.723051846 
70.74327087 56.78436279 23.29949188 0.6875404716 
28.80929184 88.13187408 23.81495476 0.6818656921 
24.55937386 88.24552917 23.52681923 0.6850319505 
16.56372452 89.7795105 23.44857216 0.6858943701 
8.518612862 90.89637756 23.44857216 0.6858943701 
-46.77375412 99.21621704 28.17301941 0.6357203722 
-50.65663528 96.11724091 27.90595818 0.6384561062 
-8.649540901 -13.64032173 4.148447037 0.9354727864 
-7.913442135 -13.80082035 4.086055279 0.9364116788 
-7.443481445 -14.43368626 4.171153545 0.9351312518 
-6.516298771 -14.14732361 4.000591755 0.9376993775 
-6.191171646 -15.18528271 4.211967468 0.9345178008 
-3.383271456 -13.05135727 3.462973833 0.9458403587 
-2.773549795 -13.06766605 3.43112874 0.9463247657 
-2.173881769 -13.08370113 3.406551123 0.9466988444 
-0.9940820336 -13.11526299 3.378249168 0.9471297264 
-0.4091406167 -13.13090324 3.374243498 0.9471907616 
0.1755712777 -13.14653778 3.376923561 0.947149992 
0.7622558475 -13.16223621 3.386317253 0.9470068812 
5.109052658 -13.19815445 3.634999037 0.9432277679 
5.804760456 -13.21676254 3.707634449 0.9421268106 
8.141913414 -13.35962391 4.018373013 0.9374313354 
8.995746613 -13.38246059 4.141609192 0.9355756044 
9.905658722 -13.40679646 4.281414986 0.9334748387 
12.46919632 -14.06509972 4.827781677 0.9253101349 
13.80759048 -14.24438 5.0953269 0.921338141 
18.10147858 -14.26680183 5.91973114 0.9092057347 
21.86582756 -14.27838326 6.707472801 0.897762239 
36.14156342 -17.23522949 10.28427601 0.8475869894 
68.84283447 32.82982254 19.58959007 0.7298014164 
68.94713593 36.72995377 20.06482697 0.7242460847 
70.55763245 41.71894455 21.05321693 0.7128270268 
39.69430923 90.37929535 25.35366249 0.6652024388 
39.00113678 100.7509384 27.7485714 0.6400738358 
29.67190933 88.10881042 23.87911415 0.681162715 
21.33203506 88.76745605 23.44857216 0.6858943701 
17.36259651 89.62843323 23.44857216 0.6858943701 
5.201835632 89.82199097 23.10896873 0.6896498799 
-55.18339157 96.2383194 28.49360847 0.6324518323 
-61.62130356 97.17491913 29.55407333 0.621759057 
-8.172836304 -13.96382809 4.15568018 0.9353639483 
-7.645053387 -14.50596142 4.211549282 0.9345241189 
-7.018657207 -14.88794422 4.227517128 0.9342842102 
-6.351352215 -15.189785 4.228743076 0.9342657924 
-5.892773151 -16.06661606 4.395431519 0.9317650795 
-4.131733418 -13.03133774 3.51123929 0.9451066256 
-2.876870155 -12.98455048 3.415890217 0.9465566874 
-2.293120146 -13.08050728 3.410898685 0.9466326833 
-1.699428678 -13.09639645 3.391942978 0.9469212294 
-1.111254811 -13.11212349 3.379854918 0.9471052885 
-0.5259863138 -13.12778282 3.374508381 0.9471867085 
0.05846679583 -13.14341259 3.375852346 0.9471662641 
1.234716773 -13.1748724 3.39872694 0.9468179941 
1.83127439 -13.19083023 3.42049098 0.9464867115 
2.421704054 -13.12626934 3.428313255 0.946367681 
4.333827972 -13.25775814 3.58250761 0.9440242648 
5.00357914 -13.2756834 3.643935204 0.943092227 
5.663413048 -13.2129879 3.692291975 0.9423592091 
6.422001839 -13.31362247 3.796567678 0.94078058 
7.179643631 -13.33388138 3.889650583 0.9393735528 
8.820824623 -13.37778282 4.115710735 0.9359652996 
10.68015575 -13.42751884 4.406696796 0.9315963387 
13.5610199 -14.24163532 5.050941944 0.9219958782 
14.63393021 -14.05923557 5.212204456 0.9196082354 
17.83525085 -14.31604958 5.874090672 0.9098731875 
21.71911621 -14.45984364 6.701669693 0.8978459835 
23.42559433 -14.13399887 7.027077675 0.8931604028 
36.74256897 -15.94261169 10.28721619 0.8475469351 
74.05344391 30.57780266 20.57793236 0.7182953954 
68.82255554 32.0717659 19.50185585 0.7308316827 
68.92588043 35.93506622 19.9648037 0.7254117131 
70.6891861 40.95230484 20.98291969 0.7136332393 
70.55491638 49.74161148 22.17246056 0.7001134157 
11.9094677 21.2047596 6.246539116 0.9044405222 
30.53950691 88.08560181 23.94551659 0.6804356575 
26.2472496 88.20038605 23.63562775 0.6838344932 
-54.03409576 96.20757294 28.34104156 0.6340052485 
-6.512709618 -15.19442844 4.245995522 0.9340066314 
-6.053837776 -16.06230927 4.408814907 0.9315646291 
-4.258706093 -13.02793407 3.520403147 0.9449673891 
-3.630449057 -13.04474545 3.47781086 0.9456147552 
-3.01611805 -13.0611763 3.442978859 0.9461445212 
-1.228549719 -13.10898876 3.38173008 0.9470767379 
-0.642983377 -13.12464809 3.375042439 0.9471786022 
-0.05846191198 -13.1402874 3.375048399 0.947178483 
1.711376905 -13.18762684 3.415575266 0.9465614557 
2.929194212 -13.22019005 3.477890968 0.9456135631 
5.52321291 -13.20923328 3.677366495 0.9425854683 
6.274609089 -13.30967712 3.779359341 0.9410409331 
7.025160789 -13.32975101 3.870058775 0.9396695495 
7.772275448 -13.27944279 3.952007055 0.9384322166 
9.534369469 -13.39687443 4.2233634 0.9343465567 
17.55335808 -14.348423 5.82306242 0.9106200337 
22.94013214 -14.12100792 6.91887188 0.894715786 
36.81555176 -16.36502838 10.34800911 0.8467188478 
76.44004059 30.76937485 21.16413498 0.7115568519 
68.87223816 31.35211372 19.43611717 0.7316046357 
70.47894287 39.99725342 20.81411552 0.7155735493 
69.19058228 43.44443893 20.98402023 0.7136205435 
70.94567108 49.07801819 22.15715599 0.7002857327 
32.36079407 90.71997833 24.7390213 0.6718091965 
22.90888214 88.3736496 23.44857216 0.6858943701 
18.95462418 89.30532837 23.44857216 0.6858943701 
14.87114239 89.50335693 23.30363274 0.6874946356 
10.94224548 90.6365509 23.44857216 0.6858943701 
-47.51661682 96.30866241 27.58325958 0.6417774558 
-52.89587402 96.17714691 28.19217873 0.6355245113 
-7.00454092 -14.19717216 3.912212849 0.936852634 
-6.493979454 -14.78596115 3.990823507 0.9356254935 
-1.34604001 -13.10585403 3.255783319 0.9471626282 
0.9980712533 -13.16854 3.263575077 0.9470396042 
2.805234194 -13.21687508 3.338944912 0.9458502531 
3.430468559 -13.23360348 3.378410816 0.9452280402 
4.071948051 -13.25076103 3.425682545 0.9444833398 
5.417153358 -13.28673267 3.545863867 0.9425926805 
6.830117226 -13.24418449 3.682528973 0.9404472709 
8.477294922 -13.36859798 3.911904573 0.9368574023 
9.352523804 -13.39201164 4.036616325 0.9349114299 
10.28732395 -13.41701126 4.178085327 0.9327087998 
14.3256855 -14.26208496 4.995494366 0.920083344 
15.47940922 -14.09652042 5.173799992 0.9173520207 
18.93572044 -14.38539505 5.876631737 0.9066647291 
20.5524559 -14.21753407 6.175789833 0.9021536112 
37.04219055 -16.86229897 10.05778885 0.8456109166 
77.71015167 30.47992516 20.62825584 0.7089715004 
69.32823944 30.81761169 18.74895668 0.7315381169 
68.88396454 34.36763382 19.02380753 0.7281933427 
68.9903183 38.34459305 19.5053978 0.7223696709 
69.28443146 47.0226059 20.69265556 0.7082107663 
69.34793091 51.71643448 21.37817764 0.7001619935 
32.6420517 88.99802399 23.42592239 0.6766590476 
28.6783638 90.44891357 23.44857216 0.676404655 
12.21072197 94.09752655 23.44857216 0.6764047742 
-57.52054214 96.30083466 27.72008896 0.6299065351 
-6.232641697 -13.854702 3.754297733 0.9393226504 
-6.37921381 -16.05361366 4.268946648 0.931296885 
-3.879946232 -13.03807545 3.361635923 0.9454924464 
-2.652909994 -13.07089329 3.295966387 0.9465282559 
-2.054863214 -13.0868845 3.273683786 0.9468799829 
-0.8769335747 -13.11840343 3.249082804 0.9472684264 
-0.2922705114 -13.13402843 3.246513844 0.9473090172 
0.2926122844 -13.14967728 3.250381708 0.9472479224 
0.8800634742 -13.16538048 3.260719776 0.9470846653 
1.472441316 -13.18124008 3.277637005 0.9468175769 
2.072187424 -13.19727516 3.30129838 0.9464440942 
3.304233313 -13.23022938 3.369906902 0.9453620911 
4.599028111 -13.26485348 3.46947217 0.9437940121 
5.983950138 -13.30190372 3.604500294 0.9416716099 
8.308603287 -13.36408615 3.888792276 0.9372185469 
9.116943359 -13.30536079 3.985883951 0.9357025623 
12.08035851 -13.38462639 4.455631256 0.9284026027 
18.29495621 -14.15715313 5.716649055 0.9090864658 
79.66131592 30.42998695 21.07347298 0.703728199 
70.55058289 30.61199951 19.00510788 0.7284206152 
69.07952118 41.67935562 19.93766022 0.7171822786 
69.26052856 46.11148453 20.56213379 0.7097536325 
69.3853302 50.78972244 21.2495327 0.7016655207 
70.7432785 56.78461456 22.41753769 0.6881329417 
37.67375946 87.89480591 23.63191795 0.6743399501 
33.46495056 88.78931427 23.44857216 0.6764047742 
29.48214722 90.19007874 23.44857216 0.6764047742 
25.44100952 91.41231537 23.44857216 0.676404655 
21.34940338 92.45349121 23.44857216 0.6764047742 
8.854008675 94.47249603 23.44857216 0.6764047742 
-5.732616901 -16.07089233 4.21657896 0.9321103692 
-1.57180655 -13.01946259 3.240760803 0.9473999143 
-0.994042933 -13.11526871 3.250369549 0.9472481012 
-0.4091406167 -13.13090324 3.246514559 0.9473090172 
0.1755126864 -13.14653778 3.249092579 0.9472683072 
0.762260735 -13.16223621 3.258131981 0.9471255541 
1.353452086 -13.17804623 3.273719072 0.9468794465 
2.559013605 -13.21028805 3.325244427 0.9460663199 
3.178608418 -13.22686958 3.361713409 0.9454912543 
4.465981483 -13.26130295 3.458009243 0.9439744353 
5.840497971 -13.29806137 3.589231253 0.9419113398 
6.530395508 -13.23616695 3.647395849 0.9409983158 
8.141894341 -13.35962391 3.866256952 0.9375707507 
8.995810509 -13.38246536 3.984842777 0.9357188344 
11.86071777 -13.37873459 4.418362141 0.9289797544 
13.80759048 -14.24450684 4.902470112 0.9215114713 
19.83701324 -14.25121593 6.036082745 0.9042575955 
21.86583138 -14.27835464 6.453564167 0.8979851007 
36.1646347 -17.24632263 9.901296616 0.8478201628 
68.8428421 32.83001328 18.84806824 0.7303302884 
68.94713593 36.72984314 19.30527115 0.7247840762 
69.23693085 45.2116394 20.43485832 0.7112614512 
69.35913086 49.8285675 21.10484505 0.7033601999 
70.71520233 55.73460007 22.25059509 0.690051198 
30.28358841 89.92414093 23.44857216 0.6764047742 
26.25351906 91.18222809 23.44857216 0.6764047742 
22.17140579 92.25988007 23.44857216 0.676404655 
-55.18323517 96.2383194 27.41499138 0.6331191063 
-61.12763214 96.39730072 28.20770645 0.6248060465 
-8.686933517 -13.43332481 3.953316927 0.9362108111 
-8.132905006 -13.89554214 3.978821516 0.9358127117 
-4.131796837 -13.03133297 3.378327847 0.9452293515 
-3.506596565 -13.0480566 3.338877201 0.945851326 
-2.8769238 -12.98455524 3.286592007 0.9466762543 
-2.293124914 -13.08052254 3.281782389 0.946752131 
-1.699487209 -13.09640121 3.263545752 0.9470400214 
0.6446288824 -13.15909672 3.255804777 0.9471622705 
1.831245065 -13.19083023 3.291011572 0.9466064572 
4.333827972 -13.25775814 3.446894169 0.944149375 
6.421933651 -13.31360817 3.652845621 0.9409128428 
7.135746956 -13.25235844 3.719532728 0.9398672581 
7.977065086 -13.35521984 3.844281197 0.9379143119 
8.820819855 -13.37777328 3.959914207 0.9361078739 
9.718745232 -13.40180111 4.091067314 0.934063077 
11.71635246 -13.45522881 4.40900898 0.9291245341 
17.83524704 -14.31610775 5.651739597 0.9100708365 
23.45519257 -14.15179157 6.769610405 0.8932655454 
36.81625366 -15.97458458 9.917656898 0.847589016 
68.83409119 32.07758713 18.76677704 0.7313203216 
69.5014801 40.26422882 19.8494091 0.7182381749 
39.51796722 87.84546661 23.80404091 0.6724076271 
31.08277321 89.65106964 23.44857216 0.6764047146 
22.99166489 92.05888367 23.44857216 0.676404655 
18.8735733 92.99050903 23.44857216 0.6764047742 
14.24135208 90.70015717 22.68852806 0.6850296855 
10.53393555 94.30001068 23.44857216 0.676404655 
6.328764439 94.67525482 23.44857216 0.676404655 
-59.91130066 96.36478424 28.04107094 0.6265444756 
-8.882236481 -13.47091293 3.987479448 0.9356776476 
-7.733026981 -14.36161613 4.030863762 0.9350010753 
-6.504218578 -15.17461872 4.079944134 0.9342362881 
-4.258671761 -13.02794361 3.387139559 0.9450904727 
-3.630473614 -13.04474068 3.346163034 0.9457364082 
-3.016093731 -13.0611763 3.31264782 0.9462650418 
-2.412704945 -13.07731915 3.286237478 0.9466817975 
-1.817700148 -13.09322739 3.266658545 0.9469909072 
-1.228579044 -13.10899353 3.253717184 0.9471952319 
-0.6429492235 -13.12465286 3.247282267 0.9472968578 
-0.05849121138 -13.1402874 3.247288942 0.9472967982 
0.5271728635 -13.15595627 3.253737926 0.9471949339 
1.10947752 -13.09118176 3.246717691 0.9473057985 
1.711318374 -13.18762684 3.286278963 0.9466811419 
2.929140568 -13.22019005 3.346235037 0.9457352757 
4.202465534 -13.25424767 3.436119556 0.9443190098 
5.557143211 -13.29047775 3.559925079 0.9423717856 
7.772275448 -13.27938461 3.802390337 0.9385696054 
8.648022652 -13.37315845 3.935606956 0.9364872575 
10.45574188 -13.38822269 4.197932243 0.9324002266 
13.31528091 -14.23506355 4.816880703 0.9228274822 
14.59024143 -14.26916504 5.043257713 0.9193508625 
15.75061512 -14.08909607 5.222325325 0.9166101217 
68.9276123 31.37713623 18.71539688 0.7319476008 
69.12564087 43.40388107 20.17077065 0.7144001722 
69.3086319 47.94537354 20.82648087 0.7066322565 
69.37432098 52.70326233 21.53005409 0.6983912587 
27.87228966 90.70056152 23.44857216 0.676404655 
23.61810493 91.11048889 23.25961876 0.6785390377 
19.70059013 92.81886292 23.44857216 0.676404655 
14.87094688 89.50335693 22.42148209 0.6880877614 
11.37274837 94.20246124 23.44857216 0.6764048338 
7.170990944 94.61513519 23.44857216 0.6764047742 
-47.85794449 97.00091553 26.72987556 0.6403928995 
-8.438071251 -13.84563923 4.00690794 0.9353746176 
-7.00454092 -14.19717216 3.912212849 0.936852634 
-6.493988991 -14.78597641 3.990828514 0.9356254339 
-6.216059208 -16.05796814 4.255228043 0.9315099716 
-4.359447956 -12.9448967 3.375504494 0.9452738166 
-3.754912138 -13.04142094 3.353748322 0.9456167817 
-1.936147451 -13.09006786 3.270038605 0.9469375014 
-1.34604001 -13.10585403 3.255782127 0.9471626282 
-0.759907186 -13.12152767 3.248054504 0.9472846985 
-0.1743164062 -13.0568409 3.226922274 0.9476184845 
0.4098193347 -13.152812 3.251929045 0.9472234845 
2.193256855 -13.20051765 3.306859255 0.9463563561 
2.805243969 -13.21688461 3.338943005 0.9458502531 
3.430468559 -13.23360825 3.378409147 0.9452280402 
5.417143345 -13.28674316 3.545863152 0.9425926805 
13.07371998 -14.22860336 4.775126457 0.9234701395 
15.47942829 -14.09649849 5.173799992 0.9173520207 
18.93575096 -14.38539505 5.87664032 0.9066646695 
23.08723068 -14.49643517 6.736821175 0.893754065 
37.042202 -16.86231422 10.05779362 0.845610857 
69.32815552 30.81768036 18.74892998 0.7315382957 
68.88396454 34.36771393 19.02382469 0.7281932235 
69.10244751 42.53667068 20.05273819 0.7158073187 
12.40575123 21.19589233 6.069185734 0.9037584066 
32.64198303 88.99803162 23.42585945 0.6766591072 
16.38451576 93.46118927 23.44857216 0.6764047742 
12.21082497 94.09755707 23.44857216 0.676404655 
-47.55271912 98.58372498 27.04832649 0.6370014548 
-57.52054214 96.30083466 27.72008896 0.6299065351 
-7.279594421 -14.42961407 3.993958235 0.9355766177 
-6.232641697 -13.854702 3.754297733 0.9393226504 
-6.37921381 -16.05361366 4.268946648 0.931296885 
-3.879951 -13.03807068 3.361637115 0.9454924464 
-3.260385752 -13.05464363 3.325183392 0.9460672736 
-2.05487299 -13.0868845 3.273686171 0.9468799829 
-1.463691354 -13.10270023 3.258109331 0.9471259117 
-0.876953125 -13.11839771 3.249082804 0.9472684264 
0.8800927401 -13.16539001 3.26072216 0.9470846653 
1.472455978 -13.18123531 3.277637482 0.9468175769 
2.072202206 -13.19727516 3.30129838 0.9464440942 
2.681884766 -13.21357918 3.331948519 0.9459605813 
3.304238319 -13.23021984 3.369907379 0.9453620911 
3.94220686 -13.24728966 3.415582418 0.9446424246 
4.599028111 -13.26485348 3.46947217 0.9437940121 
6.679535866 -13.24015617 3.66473341 0.9407263994 
8.308584213 -13.36409187 3.8887887 0.9372185469 
9.116909027 -13.30536079 3.985881567 0.9357026219 
10.09509754 -13.41187 4.148334503 0.9331715703 
11.08492184 -13.43833447 4.30492878 0.9307383299 
12.08041 -13.38462353 4.455639839 0.9284024835 
16.90880585 -14.33118153 5.477481365 0.9127188325 
18.29500198 -14.15715313 5.716661453 0.909086287 
22.3204689 -14.29351044 6.549940109 0.8965432048 
79.66131592 30.42998695 21.07347298 0.703728199 
69.07952118 41.67923737 19.93763924 0.7171824574 
69.26052856 46.11122131 20.56210327 0.7097540498 
69.38533783 50.78993607 21.24956894 0.7016651034 
25.44112206 91.41222382 23.44857216 0.6764047742 
13.04749489 93.9851532 23.44857216 0.6764047742 
-46.8284111 99.33208466 27.13823509 0.6360474825 
-2.773549795 -13.06766605 3.301245928 0.9464449286 
-1.571792006 -13.01945782 3.240760088 0.9473999143 
-0.9940234423 -13.11526299 3.250368834 0.9472481608 
-0.4091406167 -13.13090324 3.246514559 0.9473090172 
1.353452086 -13.17804623 3.273719072 0.9468794465 
2.559008837 -13.21030235 3.325243711 0.9460662603 
4.465961933 -13.26130295 3.458008051 0.9439744353 
5.108989239 -13.19814396 3.497395277 0.9433547258 
5.840532303 -13.29806614 3.589234829 0.9419112802 
6.530439377 -13.23617172 3.647400618 0.9409982562 
8.141913414 -13.35962391 3.866261721 0.9375706911 
8.995834351 -13.38247013 3.984845161 0.9357187748 
10.88104916 -13.43288517 4.271999836 0.9312494993 
11.86071777 -13.37873459 4.418362141 0.9289797544 
13.80759048 -14.24450684 4.902470112 0.9215114713 
15.13485813 -14.28372574 5.142812252 0.9178261757 
16.49425507 -14.23404312 5.384022236 0.9141421914 
19.83699989 -14.25123501 6.036083698 0.9042575955 
21.86582756 -14.27838326 6.453569412 0.8979850411 
23.92674828 -14.14740181 6.869102478 0.8917850256 
72.20157623 30.5678463 19.37579727 0.7239322662 
69.11362457 40.86552811 19.84176064 0.7183299065 
69.23693085 45.21173096 20.43487167 0.7112612724 
69.35913086 49.82869339 21.10486794 0.7033600211 
70.71520233 55.73460007 22.25059509 0.690051198 
34.25369644 88.48808289 23.44857216 0.676404655 
30.28354836 89.92421722 23.44857216 0.676404655 
13.88358879 93.86533356 23.44857216 0.676404655 
5.201835632 89.82199097 22.23420906 0.6902397275 
-61.12763214 96.39730072 28.20770645 0.6248060465 
-8.68691349 -13.43336391 3.953320503 0.9362107515 
-6.343007565 -15.17005348 4.063369751 0.9344944954 
-5.892783165 -16.06661034 4.229044914 0.9319166541 
-3.506596565 -13.0480566 3.338877201 0.945851326 
-2.293124914 -13.08052254 3.281782389 0.946752131 
-1.111254811 -13.11212349 3.251914978 0.9472237229 
1.234780192 -13.17487717 3.270073414 0.946936965 
4.333827972 -13.25775814 3.446894169 0.944149375 
5.003647327 -13.27567387 3.506003141 0.9432193637 
5.698242188 -13.2942524 3.574378252 0.9421446919 
8.820819855 -13.37777328 3.959914207 0.9361078739 
9.718745232 -13.40180111 4.091067314 0.934063077 
10.68016052 -13.42751408 4.239886761 0.9317482114 
11.7162981 -13.45522881 4.409003735 0.9291246533 
17.83525085 -14.31604958 5.651733398 0.9100709558 
19.63203049 -14.37051201 6.012381554 0.904614985 
21.71910858 -14.4598484 6.447980881 0.8980686665 
36.81625366 -15.97458458 9.917656898 0.847589016 
73.91894531 30.52191544 19.76297569 0.7192739844 
68.92586517 35.93466187 19.20900154 0.7259483337 
69.21361542 44.32275772 20.31072617 0.7127349377 
31.08277321 89.65106964 23.44857216 0.6764047146 
27.06399918 90.94496155 23.44857216 0.6764047742 
22.99166489 92.05888367 23.44857216 0.676404655 
18.87379265 92.99050903 23.44857216 0.676404655 
10.53414059 94.29992676 23.44857216 0.6764048338 
-54.0335083 96.20757294 27.26815605 0.634671092 
-7.81311512 -13.08072281 3.765269279 0.9391507506 
-6.053940296 -16.06230927 4.241929054 0.9317164421 
-4.258706093 -13.02793407 3.387138844 0.9450904727 
-3.630507708 -13.04474545 3.346165895 0.9457363486 
-2.412680626 -13.07731438 3.286236286 0.9466818571 
-1.228554606 -13.10898876 3.253718376 0.9471952319 
-0.6429247856 -13.12464809 3.24728179 0.9472969174 
-0.05845702812 -13.14029312 3.247288465 0.9472967386 
0.5271728635 -13.15595627 3.253737926 0.9471949339 
1.711318374 -13.18762684 3.286278963 0.9466811419 
2.314726591 -13.20376396 3.312704802 0.9462641478 
6.982143402 -13.24825191 3.700786352 0.9401610494 
8.64805603 -13.37315845 3.935612917 0.9364871979 
9.53445816 -13.39686489 4.063503742 0.9344924092 
13.31528091 -14.23506355 4.816880703 0.9228274822 
15.75061512 -14.08909607 5.222325325 0.9166101217 
17.55319786 -14.348423 5.602606297 0.9108167291 
19.17879868 -14.30267048 5.912334919 0.9061252475 
23.26624489 -14.32175732 6.751597881 0.8935338855 
76.44004059 30.76937485 20.36298752 0.7121142149 
68.9048233 35.14760208 19.11523819 0.7270842195 
69.17138672 39.25519562 19.6546154 0.7205747962 
69.1256485 43.40407181 20.1707859 0.7143998146 
35.85573578 87.94341278 23.4696846 0.676166594 
7.170990944 94.61513519 23.44857216 0.6764047742 
-47.85810852 97.0007782 26.72986031 0.6403930187 
-8.438090324 -13.84559536 4.006901264 0.9353747368 
-7.833832741 -14.24377918 4.017193794 0.9352142215 
-7.004477501 -14.19710922 3.91219449 0.936852932 
-4.359414101 -12.9448967 3.375503063 0.9452738762 
-3.754912138 -13.04142094 3.353748322 0.9456167817 
-2.532626867 -13.07410145 3.290963411 0.9466072321 
-1.936147451 -13.09006786 3.270038605 0.9469375014 
-1.34604001 -13.10585403 3.255782127 0.9471626282 
-0.759907186 -13.12152767 3.248054504 0.9472846985 
0.4098193347 -13.152812 3.251929045 0.9472234845 
2.80521965 -13.21687508 3.338943005 0.9458503127 
3.430512667 -13.23360825 3.3784132 0.9452279806 
5.417177677 -13.2867384 3.545866251 0.9425926208 
6.830126762 -13.24418449 3.682528973 0.9404472709 
8.477304459 -13.36858845 3.911906242 0.9368574619 
11.29208469 -13.44388199 4.338733196 0.9302138686 
13.07371998 -14.22860336 4.775126457 0.9234701395 
15.47940159 -14.09652805 5.173799992 0.9173520207 
18.93566513 -14.38539505 5.876624584 0.9066649079 
23.08734894 -14.49643993 6.736850262 0.8937536478 
68.88396454 34.36771393 19.02382469 0.7281932235 
69.28443146 47.0226059 20.69265556 0.7082107663 
69.34793091 51.71641541 21.37818336 0.7001619935 
28.67831039 90.44888306 23.44857216 0.6764047742 
20.52579498 92.63982391 23.44857216 0.6764047742 
16.38451576 93.46118927 23.44857216 0.6764047742 
12.21082497 94.09755707 23.44857216 0.676404655 
-57.52054214 96.30083466 27.72008896 0.6299065351 
-8.521689415 -13.70685482 3.988532305 0.9356612563 
-7.84896946 -13.97523403 3.961004257 0.936090827 
-4.486918926 -12.94148922 3.384893417 0.9451258779 
-3.260385752 -13.05464363 3.325183392 0.9460672736 
-1.463691354 -13.10270023 3.258109331 0.9471259117 
-0.2922412157 -13.13403797 3.246513844 0.9473090172 
0.2926464677 -13.14967728 3.250381708 0.9472479224 
3.304238319 -13.23021984 3.369907379 0.9453620911 
4.599028111 -13.26485348 3.46947217 0.9437940121 
5.278271198 -13.28303146 3.532197475 0.942807436 
5.983950138 -13.30189896 3.604497194 0.9416716099 
6.679535866 -13.24015617 3.66473341 0.9407263994 
7.493481159 -13.3422699 3.781607389 0.9388950467 
9.116909027 -13.30536079 3.985881567 0.9357026219 
13.85220909 -14.03831959 4.87375021 0.9219528437 
15.18082237 -14.07386208 5.11567688 0.9182414412 
18.29483604 -14.15714836 5.716624737 0.9090868235 
20.15128708 -14.20680141 6.092990398 0.9033999443 
22.3204689 -14.29363728 6.549958229 0.8965429664 
32.05037689 -18.56771851 9.15349102 0.8584572673 
79.66033173 30.43001175 21.07324409 0.7037308216 
69.07953644 41.67962646 19.93768501 0.7171818018 
69.26052856 46.11122131 20.56210327 0.7097540498 
69.38533783 50.78993607 21.24956894 0.7016651034 
70.7432785 56.7843895 22.41751671 0.688133359 
37.67378998 87.89480591 23.63194466 0.6743399501 
33.46468735 88.78948975 23.44857216 0.6764045954 
29.48229027 90.19007874 23.44857216 0.676404655 
25.44075203 91.41238403 23.44857216 0.676404655 
13.04791451 93.98509216 23.44857216 0.6764047742 
8.853808403 94.47251892 23.44857216 0.6764047742 
4.917309284 100.3733749 24.83423996 0.6609564424 
-46.8284111 99.33208466 27.13823509 0.6360474825 
-56.34518814 96.26939392 27.56558037 0.631531477 
