# .PCD v0.7 - Point Cloud Data file format
VERSION 0.7
FIELDS x y z intensities
SIZE 4 4 4 4
TYPE F F F F
COUNT 1 1 1 1
WIDTH 922
HEIGHT 1
VIEWPOINT 0 0 0 1 0 0 0
POINTS 922
DATA ascii
3.849538565 2.713951588 -3.91976428 0.9757870436 
2.897656202 4.228837967 -4.266222 0.9736753106 
1.400754333 5.608751297 -4.811050415 0.9703637958 
0.928732872 5.914993763 -4.982851982 0.969321847 
-0.1436523348 6.45487833 -5.373173714 0.9669588804 
-0.7460351586 6.678391457 -5.592423439 0.9656341076 
-1.392925978 6.862920761 -5.827872753 0.9642134309 
-2.083535194 7.00144434 -6.0792346 0.9626990557 
-2.815837383 7.086195946 -6.345770836 0.9610958695 
-5.217215538 6.931333065 -7.219800949 0.9558573961 
-6.902530193 6.39921236 -7.833205223 0.9521980286 
-9.260908127 4.828149796 -8.691584587 0.9471006989 
-9.919704437 4.095908642 -8.931365967 0.9456816912 
-10.47724438 3.270713806 -9.13429451 0.9444824457 
-11.33473587 -0.6058468223 -9.446395874 0.9426409602 
-11.16067505 -1.60006988 -9.383043289 0.9430144429 
-10.83613873 -2.553138256 -9.264921188 0.9437112808 
-9.795298576 -4.250189781 -8.886086464 0.9459494948 
-9.118969917 -4.962566853 -8.639923096 0.9474067092 
-8.368658066 -5.571565628 -8.366831779 0.9490259886 
-7.566889286 -6.073818684 -8.075012207 0.9507592916 
-5.050085545 -6.96393919 -7.158970356 0.9562210441 
-4.226429462 -7.075968266 -6.859183788 0.9580152631 
-3.429342031 -7.109620094 -6.569068432 0.9597548246 
-1.259981632 -6.829452991 -5.779485226 0.9645051956 
-0.6219652891 -6.636590004 -5.547266483 0.9659067988 
-0.02850097604 -6.406049252 -5.331260681 0.9672123194 
0.5206969976 -6.143893719 -5.131366253 0.9684220552 
1.490222096 -5.545138836 -4.778486729 0.9705613852 
1.913437486 -5.216971397 -4.624448776 0.9714967012 
2.297851562 -4.874186516 -4.484532833 0.9723470211 
2.957311869 -4.155353069 -4.24450922 0.9738075137 
3.235771418 -3.783511162 -4.143157959 0.9744248986 
3.884567738 -2.636390209 -3.907014608 0.9758648276 
4.174221039 -1.855499983 -3.801589251 0.976508379 
4.358512878 -1.067937851 -3.734512806 0.9769180417 
4.383188248 0.9099509716 -3.725531578 0.9769729376 
4.313952446 1.304689169 -3.75073123 0.9768189788 
4.098669529 2.090663433 -3.829087973 0.9763404727 
3.951237679 2.480963945 -3.882748365 0.9760129452 
3.776093721 2.868666649 -3.946495771 0.9756239653 
2.774199247 4.374908447 -4.311155796 0.9734017849 
0.7281469703 6.031392574 -5.055859089 0.9688794613 
-0.3792431653 6.5485425 -5.458921909 0.9664405584 
-1.66398561 6.924266815 -5.926530838 0.9636187553 
-2.371600389 7.042258739 -6.184081078 0.9620680809 
-3.11968255 7.103161335 -6.456360817 0.9604314566 
-7.236552715 6.244886398 -7.954778671 0.9514743686 
-8.826453209 5.218855381 -8.533455849 0.948037684 
-9.535123825 4.547124386 -8.791390419 0.9465097785 
-10.15608406 3.77630949 -9.017401695 0.9451730251 
-10.66709805 2.917664528 -9.203395844 0.9440743923 
-11.28380203 1.006882429 -9.427857399 0.9427502751 
-10.8670435 6.37054427e-06 -9.276168823 0.9444514513 
-10.57120705 -1.901742935 -9.168494225 0.9450781941 
-9.732118607 -3.618697405 -8.863090515 0.946858108 
-9.146655083 -4.36190033 -8.649999619 0.948102057 
-8.476985931 -5.012254715 -8.406259537 0.9495268464 
-7.744185448 -5.563544273 -8.139541626 0.9510884881 
-6.968726635 -6.013807774 -7.857298374 0.9527437687 
-6.169435978 -6.364664555 -7.566380501 0.9544529915 
-4.56291008 -6.787944317 -6.981652737 0.9578976035 
-3.780842304 -6.874435425 -6.697003841 0.9595789909 
-2.302817345 -6.837982655 -6.15904665 0.9627646804 
-0.972746551 -6.57665205 -5.674940586 0.9656405449 
-0.3694995046 -6.380288601 -5.455375671 0.9669476748 
2.027045965 -4.971760273 -4.583098888 0.9721581936 
2.389980316 -4.634379387 -4.45100069 0.9729497433 
2.717609882 -4.285642147 -4.331753254 0.9736648202 
3.011511087 -3.927692413 -4.22478199 0.9743067026 
3.705441713 -2.815012693 -3.972211123 0.9758239985 
3.878486156 -2.435297251 -3.909228325 0.9762027264 
4.143547058 -1.667908907 -3.812753916 0.9767831564 
4.237177849 -1.281474829 -3.778674841 0.976988256 
4.305700779 -0.8938680887 -3.753734589 0.9771384001 
4.334941387 0.6609061956 -3.743091345 0.9772024751 
4.281274319 1.049021721 -3.762624979 0.9770848751 
4.20277071 1.436213613 -3.791198015 0.9769128561 
3.969147921 2.206041098 -3.876229763 0.9764012098 
3.628356934 2.965910912 -4.000267982 0.9756553173 
3.415329456 3.340172291 -4.077804565 0.9751893878 
3.172290087 3.709260225 -4.166262627 0.974658072 
2.897900343 4.071853638 -4.266131878 0.9740585089 
2.590695858 4.42635107 -4.3779459 0.9733877182 
2.249130726 4.770828247 -4.502266884 0.9726424813 
1.871628404 5.102968216 -4.639665604 0.9718194604 
1.456599116 5.420022011 -4.790723801 0.9709154367 
-0.02779296786 6.24521637 -5.331003189 0.9676889181 
-1.887038589 6.780349731 -6.007715225 0.9636627436 
-4.090916634 6.849017143 -6.809862137 0.958912015 
-4.88131237 6.731145859 -7.097541809 0.9572139382 
-5.685413837 6.529222965 -7.390211105 0.9554895163 
-6.490895748 6.236019135 -7.683382511 0.9537652135 
-8.043541908 5.355129719 -8.24849987 0.9504502416 
-8.753605843 4.763747215 -8.506941795 0.9489380717 
-9.938105583 3.297692299 -8.938063622 0.9464208484 
-10.37192631 2.443760633 -9.095961571 0.9455006123 
-10.67672825 1.530672669 -9.206900597 0.9448545575 
-10.84007168 0.5793927312 -9.266352654 0.9445085526 
-10.85504532 -0.3865983784 -9.271801949 0.9444768429 
-8.190265656 -5.244858265 -8.301902771 0.9501375556 
-7.438019753 -5.755753517 -8.028107643 0.9517416954 
-6.650887489 -6.165885448 -7.741614819 0.9534230828 
-5.846840858 -6.478095055 -7.448965073 0.9551436901 
-5.041396141 -6.697737217 -7.155807495 0.9568703771 
-4.247399807 -6.831784725 -6.866816998 0.9585756063 
-1.354772925 -6.674962044 -5.813986778 0.9648137689 
2.176557541 -4.838323593 -4.528680325 0.9724841714 
3.119965792 -3.782345772 -4.185307503 0.9745436907 
3.777997971 -2.663521051 -3.945803642 0.9759827852 
3.940004826 -2.282563448 -3.886837006 0.9763374329 
4.075080395 -1.899015784 -3.837673187 0.9766331911 
4.326179028 -0.7385837436 -3.746281624 0.9771832824 
4.360229492 -0.3499912918 -3.733888388 0.9772579074 
4.36993885 0.0388943851 -3.730354548 0.9772791862 
4.355370998 0.4277436435 -3.735656023 0.9772472382 
4.316432953 0.8162384033 -3.749828339 0.9771618843 
4.252875805 1.204032898 -3.772961378 0.9770226479 
4.164311409 1.590737224 -3.805195808 0.9768286347 
4.050182819 1.975901008 -3.846735716 0.9765786529 
3.909787416 2.358983994 -3.897835016 0.9762712717 
3.546662569 3.116159916 -4.030002117 0.9754766226 
3.321784496 3.488496542 -4.111851215 0.9749848247 
3.066376925 3.855158091 -4.20481205 0.9744265676 
2.779040575 4.214726448 -4.30939436 0.9737989306 
2.102529287 4.905310631 -4.555624485 0.972322762 
1.710205078 5.231771946 -4.698418617 0.9714677334 
1.27973628 5.541909695 -4.85509634 0.9705304503 
0.8096728325 5.832249165 -5.026186466 0.9695079327 
-0.8487389684 6.540485859 -5.629805565 0.9659090638 
-2.162691593 6.820932388 -6.108045101 0.9630672336 
-5.20193243 6.660897732 -7.214238167 0.9565259814 
-7.591879845 5.66167593 -8.084107399 0.9514133334 
-9.622772217 3.774317265 -8.823291779 0.9470903277 
-10.12613583 2.964407682 -9.006501198 0.9460218549 
-10.86404133 0.1933971047 -9.275076866 0.9444577694 
-10.81913948 -0.7716100812 -9.258733749 0.9445528984 
-10.62676716 -1.717067361 -9.188715935 0.9449604154 
-10.29500484 -2.619891405 -9.067964554 0.9456636906 
-9.837298393 -3.459786415 -8.90137291 0.946634829 
-8.616646767 -4.889977455 -8.457092285 0.9492295384 
-7.894794941 -5.46136713 -8.194359779 0.9507672787 
-7.126298904 -5.931804657 -7.914649487 0.9524071813 
-6.330370903 -6.302260399 -7.624955654 0.9541085958 
-5.524045467 -6.576698303 -7.331478119 0.9558352828 
-4.721795559 -6.761191368 -7.03948307 0.9575563669 
-1.098430157 -6.611162663 -5.720685482 0.9653683901 
-0.4867797792 -6.422567368 -5.498062134 0.9666934013 
0.6102673411 -5.941949368 -5.098765373 0.9690744877 
1.096545339 -5.660634041 -4.921773434 0.9701318145 
1.950083017 -5.037652969 -4.611110687 0.9719904065 
2.320268393 -4.702841759 -4.476374626 0.9727976322 
2.955353975 -3.999927044 -4.245221615 0.9741840363 
3.223361731 -3.635914326 -4.147674561 0.9747696519 
3.667470694 -2.890537977 -3.986032009 0.9757409096 
3.846096039 -2.511492968 -3.921017885 0.9761318564 
4.342729568 -0.5832065344 -3.740257978 0.977219522 
4.367026329 -0.1944533139 -3.73141408 0.9772728086 
4.220476151 1.358870029 -3.784753323 0.9769516587 
4.121762753 1.745017171 -3.820682287 0.9767354131 
3.997221708 2.12941885 -3.866011858 0.9764627218 
3.846096039 2.511493444 -3.921017408 0.9761318564 
3.223361731 3.635917187 -4.147674561 0.9747696519 
1.950075626 5.037654877 -4.611113071 0.9719904065 
1.096535563 5.660636902 -4.921777248 0.9701318145 
0.08273925632 6.197593212 -5.290772438 0.9679287672 
-1.75156486 6.756947994 -5.958406925 0.9639555216 
-2.444448233 6.852788448 -6.210595608 0.9624589682 
-3.173980713 6.890950203 -6.476124287 0.9608857036 
-5.524045467 6.576699257 -7.331478119 0.9558352828 
-7.126306057 5.931800842 -7.914652348 0.9524071813 
-7.894799709 5.461358547 -8.194361687 0.9507672787 
-8.616644859 4.889976501 -8.457092285 0.9492295384 
-10.81914043 0.7716097832 -9.258733749 0.9445528984 
-10.75956726 -1.153477907 -9.237051964 0.9446790814 
-10.51013851 -2.084526539 -9.146266937 0.9452075958 
-9.622782707 -3.774307966 -8.823295593 0.9470902681 
-8.334805489 -5.130563259 -8.354510307 0.949829638 
-6.81021452 -6.091820717 -7.799604893 0.9530825019 
-6.008211613 -6.423264027 -7.50769949 0.9547981024 
-5.201933384 -6.660896301 -7.214238167 0.9565259814 
-4.404755592 -6.81144762 -6.924089432 0.9582374096 
-3.627388716 -6.882753372 -6.641150951 0.9599092603 
-2.162684202 -6.820936203 -6.10804224 0.9630672336 
0.2987609804 -6.098727226 -5.212145329 0.9683977962 
1.71021235 -5.231769085 -4.69841671 0.9714677334 
2.779037952 -4.214728355 -4.309396267 0.9737989306 
3.546664953 -3.116160154 -4.03000164 0.9754766226 
3.742280245 -2.739337444 -3.958803654 0.9759046435 
4.316428185 -0.8162449598 -3.749830246 0.9771618843 
4.36993885 -0.03889030218 -3.730353355 0.9772791862 
4.360231876 0.349991709 -3.733887196 0.9772579074 
4.075080395 1.899014115 -3.837673187 0.9766331911 
3.940009594 2.282561064 -3.886835337 0.9763374329 
3.369160175 3.414441824 -4.094608784 0.9750884175 
3.119968176 3.782343388 -4.185307026 0.9745436907 
2.176555157 4.838326931 -4.528680801 0.9724841714 
1.791674733 5.167683601 -4.668766975 0.971645236 
1.368962407 5.4813447 -4.822621346 0.9707246423 
0.4042578042 6.04755497 -5.173745632 0.9686269164 
-0.7263952494 6.502714157 -5.58527565 0.9661741257 
-5.041399002 6.697734356 -7.155808449 0.9568703771 
-6.650882244 6.165883064 -7.741612434 0.9534230828 
-8.190281868 5.244851112 -8.301907539 0.950137496 
-8.887719154 4.633628845 -8.555754662 0.9486526847 
-9.509360313 3.926529408 -8.782012939 0.9473312497 
-10.72102547 1.342752695 -9.223023415 0.9447607398 
-10.85504532 0.3865983784 -9.271801949 0.9444768429 
-10.37192822 -2.443762541 -9.095962524 0.9455006123 
-9.938128471 -3.297688007 -8.938072205 0.9464207888 
-9.392130852 -4.075256824 -8.739345551 0.9475802779 
-8.043541908 -5.355133533 -8.24849987 0.9504502416 
-7.282779217 -5.845795631 -7.97160387 0.9520730376 
-5.68540144 -6.529230118 -7.390206337 0.9554895163 
-4.88131094 -6.731145859 -7.097541332 0.9572139382 
-3.323902607 -6.890942097 -6.530691147 0.9605627656 
-1.225776315 -6.643964291 -5.767035484 0.9650927782 
0.5081018209 -5.995280743 -5.135950089 0.96885252 
1.002539039 -5.718735695 -4.955988884 0.9699273109 
1.456601501 -5.420025349 -4.790723801 0.9709153771 
1.871623516 -5.102971554 -4.639667034 0.9718194604 
2.897897959 -4.071855068 -4.266133308 0.9740585089 
3.628356934 -2.965910673 -4.000268459 0.9756553173 
3.812599897 -2.587571144 -3.933209181 0.9760585427 
3.969145536 -2.206043243 -3.876230478 0.9764012098 
4.281271935 -1.049022794 -3.762625694 0.9770848751 
4.334943771 -0.6609096527 -3.74309063 0.9772024751 
4.364113808 -0.2722241879 -3.732474327 0.9772664309 
4.349538326 0.5054827929 -3.737778902 0.9772344828 
3.273188353 3.562324762 -4.129539013 0.9748786092 
2.717614651 4.285637856 -4.33175087 0.9736648202 
2.389973164 4.634381771 -4.451004028 0.9729496837 
0.7107849121 5.88759613 -5.062178612 0.9692929387 
-2.302820921 6.837984085 -6.159048557 0.9627646804 
-3.025345325 6.888323784 -6.422025204 0.9612060785 
-3.780842304 6.874433517 -6.697003841 0.9595789909 
-4.562901497 6.787944317 -6.981650352 0.9578976631 
-5.362864971 6.620569229 -7.272812366 0.9561808109 
-6.169438362 6.364661694 -7.566381454 0.9544529915 
-6.968720436 6.013809681 -7.857296467 0.9527437687 
-8.476994514 5.012245178 -8.406263351 0.9495268464 
-9.732123375 3.61869812 -8.863093376 0.946858108 
-10.57119942 1.90173018 -9.168491364 0.9450781941 
-10.79228497 0.9630233645 -9.248959541 0.9446097612 
-10.8670435 6.37054427e-06 -9.276168823 0.9444514513 
-10.21302319 -2.793492556 -9.038125992 0.9458375573 
-9.732118607 -3.618697405 -8.863090515 0.946858108 
-8.476976395 -5.012261868 -8.406255722 0.949526906 
-7.744178295 -5.563549519 -8.139539719 0.9510884881 
-5.362865925 -6.620569229 -7.27281332 0.9561808109 
-4.562901497 -6.787944794 -6.981650352 0.9578976035 
-2.302822113 -6.837984562 -6.159048557 0.9627646804 
-1.617675781 -6.731544495 -5.909675121 0.9642450213 
-0.3694995046 -6.380288601 -5.455375671 0.9669476748 
1.188940406 -5.601682186 -4.888144493 0.9703328013 
1.627214313 -5.295207977 -4.728625774 0.9712869525 
2.027043343 -4.97176075 -4.583099842 0.9721581936 
2.389982939 -4.634376049 -4.451000214 0.9729497433 
2.717614651 -4.285639763 -4.331752777 0.9736648202 
4.024228573 -2.052703857 -3.856182098 0.9765218496 
4.143549919 -1.667904496 -3.812753201 0.9767831564 
4.305700779 -0.893866539 -3.753734589 0.9771384001 
4.364116192 0.2722300291 -3.732473612 0.9772663713 
4.334943771 0.6609077454 -3.74309063 0.9772024751 
4.281274319 1.049021721 -3.762624979 0.9770848751 
2.897900343 4.071853638 -4.266131878 0.9740585089 
2.590698242 4.42634964 -4.377945423 0.9733877182 
2.249125957 4.770831585 -4.502267838 0.9726424813 
1.002539039 5.718735218 -4.955988884 0.9699273109 
0.5080993772 5.995280743 -5.135951519 0.96885252 
-2.587554932 6.865297794 -6.262682438 0.9621501565 
-4.090916634 6.849017143 -6.809862137 0.958912015 
-7.282795429 5.84578371 -7.971610069 0.952072978 
-8.043557167 5.355120182 -8.248504639 0.950450182 
-9.392133713 4.075257301 -8.739346504 0.9475802779 
-9.938105583 3.297692299 -8.938063622 0.9464208484 
-10.67672729 1.530688167 -9.206899643 0.9448545575 
-10.85504532 -0.3866143823 -9.271802902 0.9444768429 
-10.72102547 -1.34277463 -9.223023415 0.9447607398 
-10.03444386 -3.132528305 -8.973128319 0.9462164044 
-8.887719154 -4.633628845 -8.555754662 0.9486526847 
-8.190280914 -5.24485302 -8.301907539 0.950137496 
-6.650900841 -6.165878773 -7.74161911 0.9534230232 
-2.732088566 -6.875432491 -6.315288544 0.9618383646 
-1.354783893 -6.674988747 -5.813990116 0.9648136497 
-0.7264086604 -6.502717018 -5.585281372 0.9661740661 
0.4042724371 -6.047546387 -5.173741817 0.968626976 
1.791677237 -5.167685032 -4.668765545 0.971645236 
2.52517581 -4.496120453 -4.401793957 0.9732447267 
3.369164944 -3.414433718 -4.094606876 0.9750884175 
3.940009594 -2.282562017 -3.886835337 0.9763374329 
4.184045315 -1.513507009 -3.798013926 0.9768718481 
4.267570496 -1.126553059 -3.767612219 0.9770548344 
4.326179028 -0.738592267 -3.746281624 0.9771832824 
4.252875805 1.204032898 -3.772961378 0.9770226479 
4.050182819 1.975896716 -3.846735716 0.9765786529 
3.742280245 2.739346504 -3.958802938 0.9759046435 
3.06637454 3.855162382 -4.204812527 0.9744265676 
1.710209966 5.231768131 -4.69841671 0.9714677334 
0.2987463176 6.098726749 -5.212150097 0.9683977962 
-0.2539148033 6.336608887 -5.413306236 0.9671983719 
-1.485416174 6.704210758 -5.861537457 0.9645310044 
-2.16268301 6.820932865 -6.108041763 0.9630672932 
-7.591879845 5.66167593 -8.084107399 0.9514133334 
-8.334804535 5.130561829 -8.354510307 0.949829638 
-10.62676716 -1.717067361 -9.188715935 0.9449604154 
-9.837310791 -3.459776878 -8.901377678 0.9466347694 
-9.271172523 -4.220396042 -8.695319176 0.9478373528 
-7.126282692 -5.931809425 -7.914644718 0.9524072409 
-6.33036375 -6.302268505 -7.62495327 0.9541085958 
-5.524045467 -6.576698303 -7.331478119 0.9558352828 
-4.721795559 -6.761191368 -7.03948307 0.9575563669 
-3.173989296 -6.890954494 -6.476127148 0.9608857036 
0.08274047822 -6.197593212 -5.290771961 0.9679287672 
0.6102673411 -5.941949368 -5.098765373 0.9690744877 
1.096535563 -5.660638332 -4.921777248 0.9701318145 
1.542675734 -5.35797596 -4.759395123 0.9711028337 
2.320275784 -4.702833176 -4.476371288 0.9727976322 
3.223361731 -3.635914326 -4.147674561 0.9747696519 
3.460290432 -3.265694618 -4.061439037 0.9752877355 
3.667468071 -2.890541077 -3.986033916 0.9757409096 
4.121762753 -1.745005131 -3.820682287 0.9767354727 
4.220480919 -1.358861089 -3.784752131 0.9769516587 
4.367026329 -0.1944533139 -3.73141408 0.9772728086 
4.367028713 0.1944536865 -3.731412888 0.9772728086 
4.342731953 0.5832008719 -3.740256786 0.977219522 
4.293982029 0.9714571834 -3.757999897 0.9771127105 
3.997219086 2.129424095 -3.866012573 0.9764626622 
3.846093655 2.511495352 -3.921017885 0.9761318564 
3.667468071 2.890538216 -3.986032009 0.9757409096 
3.223361731 3.635911465 -4.147674561 0.9747697115 
1.542675734 5.357973099 -4.759394646 0.9711028337 
1.096535563 5.660636902 -4.921777248 0.9701318145 
0.6102673411 5.941949844 -5.09876442 0.9690744877 
-0.4867724478 6.422564507 -5.49805975 0.9666934013 
-1.751579523 6.756949425 -5.95841217 0.9639555216 
-2.444461584 6.852790833 -6.210600376 0.9624589682 
-3.935385704 6.863211632 -6.753252506 0.9592465162 
-4.721796989 6.761190414 -7.03948307 0.9575563669 
-5.524045467 6.576699257 -7.331478119 0.9558352828 
-6.33036375 6.302268505 -7.62495327 0.9541085958 
-7.894777775 5.461369038 -8.194353104 0.9507673383 
-9.271170616 4.220394611 -8.695319176 0.9478373528 
-9.837306023 3.459777117 -8.901375771 0.9466347694 
-10.29500198 2.619879484 -9.0679636 0.9456637502 
-10.81914043 0.7716097832 -9.258733749 0.9445528984 
-10.12612629 -2.964427233 -9.006497383 0.9460219145 
-9.018785477 -4.499670982 -8.603459358 0.9483739138 
-6.008235931 -6.42325592 -7.507708549 0.9547980428 
-5.201916218 -6.660903931 -7.214231968 0.9565259814 
-2.878026009 -6.883127689 -6.368405819 0.9615236521 
-1.485417485 -6.704210758 -5.861537457 0.9645310044 
-0.2539159954 -6.336619854 -5.413306236 0.9671983123 
1.279748559 -5.541908264 -4.855092525 0.9705304503 
1.71021235 -5.231769085 -4.69841671 0.9714677334 
2.102534056 -4.905305862 -4.555622578 0.972322762 
3.06637454 -3.855164289 -4.204813957 0.9744265676 
3.321779728 -3.48850131 -4.1118536 0.9749848247 
3.742287397 -2.739329815 -3.95880127 0.9759046435 
4.252878189 -1.204033136 -3.772960663 0.9770226479 
4.36993885 -0.0388994962 -3.730353355 0.9772791862 
4.360229492 0.3500006497 -3.733888388 0.9772579074 
4.184047699 1.513507843 -3.798012495 0.9768718481 
4.075080395 1.899014115 -3.837673187 0.9766331911 
3.940009594 2.282561064 -3.886835337 0.9763374329 
3.119960785 3.782351017 -4.18530941 0.9745436907 
2.525178194 4.496118546 -4.401792049 0.9732447267 
1.791674733 5.167683601 -4.668766975 0.971645236 
0.9069225788 5.775947094 -4.990790844 0.9697194099 
0.4042419195 6.047558308 -5.173751831 0.9686269164 
-0.1400195211 6.29156971 -5.371850967 0.9674454331 
-2.024091721 6.801700115 -6.057598591 0.9633666277 
-2.732087374 6.875432014 -6.315288067 0.9618383646 
-4.24739027 6.831786156 -6.866812706 0.9585756063 
-5.041379452 6.69773531 -7.155801773 0.9568704367 
-5.846862793 6.478088379 -7.448973179 0.9551436305 
-6.650900841 6.165878296 -7.74161911 0.9534230232 
-9.509360313 3.926529408 -8.782012939 0.9473312497 
-10.0344429 3.132528067 -8.973127365 0.9462164044 
-10.44368649 2.26526618 -9.122080803 0.9453484416 
-10.72102547 1.34272778 -9.223023415 0.9447607398 
-10.85504627 0.3865728378 -9.271802902 0.9444768429 
-9.938128471 -3.297688007 -8.938072205 0.9464207888 
-9.392130852 -4.075256824 -8.739345551 0.9475802779 
-8.753613472 -4.763746738 -8.506943703 0.9489380121 
-8.043557167 -5.355119705 -8.248504639 0.950450182 
-7.282756329 -5.845804691 -7.971595764 0.9520730972 
-6.490880013 -6.236023903 -7.683376312 0.9537652135 
-5.68540144 -6.529230118 -7.390206337 0.9554895163 
-4.88131094 -6.731145859 -7.097541332 0.9572139382 
-2.587556124 -6.865298748 -6.262682915 0.9621501565 
-1.887048244 -6.780352116 -6.007719517 0.9636627436 
-0.6057348251 -6.463385582 -5.541358948 0.9664355516 
-0.0277844239 -6.245213032 -5.331000328 0.9676889181 
0.5081018209 -5.995280743 -5.135950089 0.96885252 
2.249128342 -4.770833015 -4.502267361 0.9726424217 
3.172292471 -3.70925498 -4.16626215 0.974658072 
3.415327072 -3.340167046 -4.077805042 0.9751893878 
4.098937988 -1.822059035 -3.828989744 0.9766854644 
4.36896944 0.1166782007 -3.730706692 0.9772770405 
4.305700779 0.8938643932 -3.753734589 0.9771384001 
4.237180233 1.281468987 -3.778674126 0.976988256 
4.143549919 1.667903423 -3.812753201 0.9767831564 
4.024226189 2.052713156 -3.85618329 0.9765218496 
3.878483772 2.435304165 -3.909228325 0.9762027264 
3.705439329 2.8150177 -3.972211838 0.9758239985 
3.504067421 3.191026449 -4.045506477 0.9753834605 
3.273188353 3.562324762 -4.129539013 0.9748786092 
3.011511087 3.927690983 -4.22478199 0.9743067026 
2.027048349 4.971753597 -4.583096981 0.9721581936 
1.627204537 5.295217991 -4.728628635 0.9712868929 
0.191583246 6.148749352 -5.251155853 0.9681650996 
-0.3694982827 6.380288601 -5.455375195 0.9669476748 
-2.30280757 6.837982655 -6.159042835 0.96276474 
-3.025363684 6.888323307 -6.422031879 0.9612060189 
-3.780860424 6.874433041 -6.697010517 0.9595789909 
-4.562921047 6.787940502 -6.981657028 0.9578976035 
-5.362864971 6.620569229 -7.272812366 0.9561808109 
-6.169438362 6.364661694 -7.566381454 0.9544529915 
-6.968720436 6.013809681 -7.857296467 0.9527437687 
-8.476976395 5.012261868 -8.406255722 0.949526906 
-10.79228497 0.9630233645 -9.248959541 0.9446097612 
-10.21303368 -2.793473482 -9.038129807 0.9458375573 
-9.732110977 -3.618710756 -8.863088608 0.9468581676 
-8.476976395 -5.012261868 -8.406255722 0.949526906 
-7.744178295 -5.563549519 -8.139539719 0.9510884881 
-6.169435978 -6.364661694 -7.566380501 0.9544529915 
-5.362865925 -6.620569229 -7.27281332 0.9561808109 
-4.562923431 -6.787941933 -6.981657982 0.9578976035 
-0.3694995046 -6.380288601 -5.455375671 0.9669476748 
0.1915844679 -6.148749352 -5.251155376 0.9681650996 
2.717614651 -4.285639763 -4.331752777 0.9736648202 
3.273185968 -3.562326193 -4.129540443 0.9748786092 
3.705439329 -2.815018177 -3.972212553 0.9758239985 
4.024230957 -2.052694321 -3.856181622 0.9765218496 
4.305700779 -0.893866539 -3.753734589 0.9771384001 
4.36896944 -0.1166786924 -3.730706692 0.9772770405 
4.281271935 1.049031496 -3.762625694 0.9770848751 
4.098937988 1.822057128 -3.828989744 0.9766854644 
3.969147921 2.206042528 -3.876229763 0.9764012098 
3.628356934 2.965908766 -4.000267029 0.9756553173 
3.415329456 3.340165854 -4.077804565 0.9751893878 
3.172297239 3.709252119 -4.166260719 0.974658072 
2.897890568 4.071861267 -4.266135693 0.9740585089 
2.590688467 4.426357746 -4.377948284 0.9733877182 
2.249125957 4.770831585 -4.502267838 0.9726424813 
1.871623516 5.1029706 -4.639667034 0.9718194604 
1.002539039 5.718735218 -4.955988884 0.9699273109 
-0.6057604551 6.463398457 -5.541368961 0.966435492 
-1.887048244 6.780352116 -6.007719517 0.9636627436 
-2.587554932 6.865297794 -6.262682438 0.9621501565 
-3.323901176 6.89094162 -6.53069067 0.9605627656 
-4.88131094 6.731145382 -7.097541332 0.9572139382 
-5.68540287 6.529231548 -7.390206814 0.9554895163 
-6.490921497 6.236008644 -7.683391094 0.9537651539 
-7.282795429 5.84578371 -7.971610069 0.952072978 
-8.753615379 4.763746262 -8.506944656 0.9489380121 
-9.392133713 4.075257301 -8.739346504 0.9475802779 
-10.37192345 2.443763971 -9.095960617 0.9455006123 
-10.67672729 1.530688167 -9.206899643 0.9448545575 
-10.72102547 -1.34277463 -9.223023415 0.9447607398 
-10.03444386 -3.132528305 -8.973128319 0.9462164044 
-8.887719154 -4.633628845 -8.555754662 0.9486526847 
-5.846821308 -6.478104591 -7.448958397 0.9551436901 
-3.475043774 -6.888232708 -6.585701942 0.9602372646 
-2.732088566 -6.875432491 -6.315288544 0.9618383646 
-2.024091721 -6.801699638 -6.057598591 0.9633666277 
-0.7264086604 -6.502717018 -5.585281372 0.9661740661 
-0.1399914473 -6.291559219 -5.371841431 0.9674454927 
0.4042724371 -6.047546387 -5.173741817 0.968626976 
0.9069274664 -5.775949001 -4.990788937 0.9697193503 
1.368962407 -5.481345654 -4.822621822 0.9707246423 
2.839128256 -4.143463612 -4.2875247 0.9739301205 
3.369164944 -3.414433718 -4.094606876 0.9750884175 
3.588093281 -3.041115046 -4.014923573 0.9755672216 
3.778000355 -2.663517952 -3.945803165 0.9759827852 
4.075080395 -1.899015784 -3.837673187 0.9766331911 
4.184045315 -1.513507009 -3.798013926 0.9768718481 
4.267570496 -1.126553059 -3.767612219 0.9770548344 
4.360229492 -0.3500002325 -3.733888388 0.9772579074 
4.36993885 0.03888026997 -3.730353355 0.9772791862 
4.252873421 1.204051614 -3.77296257 0.9770226479 
4.164306641 1.590755224 -3.805197716 0.9768286347 
2.779040575 4.214726448 -4.30939436 0.9737989306 
1.710209966 5.231768131 -4.69841671 0.9714677334 
-0.2538866997 6.33660078 -5.413295746 0.9671983719 
-0.8487670422 6.540495396 -5.629815102 0.9659090042 
-2.162717342 6.820935726 -6.108054638 0.9630672336 
-6.81021452 6.091819763 -7.799604893 0.9530825019 
-7.591879845 5.66167593 -8.084107399 0.9514133334 
-9.018787384 4.499670506 -8.603459358 0.9483739138 
-10.12612438 2.96442771 -9.006497383 0.9460219145 
-10.5101366 2.084551334 -9.146265984 0.9452075958 
-10.86403751 0.1934322715 -9.275075912 0.9444577694 
-10.62674618 -1.717108846 -9.188708305 0.944960475 
-10.29498959 -2.619925499 -9.067958832 0.9456637502 
-8.616624832 -4.889986992 -8.457083702 0.949229598 
-6.33036375 -6.302268505 -7.62495327 0.9541085958 
-3.173989296 -6.890954494 -6.476127148 0.9608857036 
-1.098452091 -6.611172199 -5.720693111 0.9653683305 
0.6102929711 -5.941937923 -5.09875536 0.9690745473 
1.096558809 -5.660626888 -4.921768665 0.9701318145 
2.320275784 -4.702833176 -4.476371288 0.9727976322 
2.6548388 -4.356182575 -4.354600906 0.9735277295 
2.955356359 -3.999922991 -4.245220661 0.9741840363 
3.223361731 -3.635914326 -4.147674561 0.9747696519 
3.667468071 -2.890541077 -3.986033916 0.9757409096 
4.121757507 -1.745027304 -3.820684195 0.9767354131 
4.220476151 -1.358880639 -3.784753323 0.9769516587 
4.293979168 -0.9714756608 -3.758000374 0.9771127105 
4.342729568 -0.583220005 -3.740257978 0.977219522 
4.367028713 -0.1944337785 -3.731412888 0.9772728086 
4.342727184 0.5832189322 -3.740258694 0.977219522 
4.293979168 0.9714750648 -3.758000374 0.9771127105 
4.220478535 1.358881235 -3.784752607 0.9769516587 
3.460295439 3.265694141 -4.06143856 0.9752876759 
2.955361366 3.99992156 -4.245219231 0.9741840363 
1.542700171 5.357956886 -4.759386063 0.9711028934 
1.096556425 5.660624981 -4.921769142 0.9701318145 
0.6102429032 5.941962719 -5.098773003 0.9690744281 
-0.4867992997 6.42257452 -5.498069286 0.9666933417 
-1.751579523 6.756949425 -5.95841217 0.9639555216 
-3.935385704 6.863211632 -6.753252506 0.9592465162 
-4.721796989 6.761190414 -7.03948307 0.9575563669 
-5.524045467 6.576699257 -7.331478119 0.9558352828 
-7.894777775 5.461369038 -8.194353104 0.9507673383 
-8.616624832 4.889985085 -8.457083702 0.949229598 
-9.837283134 3.459814787 -8.901367188 0.946634829 
-10.29502392 2.619842529 -9.067972183 0.9456636906 
-10.6267786 1.717024922 -9.188720703 0.9449604154 
-10.86403751 -0.1934322268 -9.275075912 0.9444577694 
-10.7595644 -1.153506398 -9.23705101 0.9446790814 
-9.018785477 -4.499670982 -8.603459358 0.9483739138 
-8.334805489 -5.130563259 -8.354510307 0.949829638 
-7.591879845 -5.661676407 -8.084107399 0.9514133334 
-4.404777527 -6.811445713 -6.924097061 0.95823735 
-3.627405882 -6.882753372 -6.641157627 0.9599092007 
-0.2538866997 -6.336601257 -5.413295746 0.9671983719 
1.279748559 -5.541908264 -4.855092525 0.9705304503 
2.102534056 -4.905305862 -4.555622578 0.972322762 
2.779037952 -4.214728355 -4.309396267 0.9737989306 
3.06637454 -3.855164289 -4.204813957 0.9744265676 
3.546660185 -3.116168499 -4.030003071 0.9754766226 
4.050178051 -1.975914598 -3.846736908 0.9765786529 
4.252880573 -1.204014301 -3.772960186 0.9770226479 
4.316435337 -0.8162238598 -3.749827862 0.9771618843 
4.355373383 -0.4277297258 -3.735654831 0.9772472382 
4.36993885 -0.03888080642 -3.730353355 0.9772791862 
4.360229492 0.3500006497 -3.733888388 0.9772579074 
4.075080395 1.899014115 -3.837673187 0.9766331911 
3.940009594 2.282561064 -3.886835337 0.9763374329 
3.778005362 2.66351676 -3.945800781 0.9759827852 
3.588093281 3.041115046 -4.014923573 0.9755672216 
2.839143038 4.143444538 -4.287518978 0.9739301801 
2.176537991 4.838341713 -4.528687477 0.9724841714 
1.368936777 5.481358528 -4.822630405 0.9707245827 
-0.1400195211 6.29156971 -5.371850967 0.9674454331 
-2.024091721 6.801700115 -6.057598591 0.9633666277 
-5.041379452 6.69773531 -7.155801773 0.9568704367 
-6.650864124 6.165892601 -7.741606236 0.9534231424 
-7.437996864 5.755770683 -8.028098106 0.9517416954 
-9.509411812 3.926500082 -8.782032013 0.9473310709 
-10.44368553 2.265226126 -9.122079849 0.9453485012 
-10.67672729 -1.530687928 -9.206899643 0.9448545575 
-10.37192822 -2.443762541 -9.095962524 0.9455006123 
-9.938128471 -3.297688007 -8.938072205 0.9464207888 
-9.392130852 -4.075256824 -8.739345551 0.9475802779 
-8.753613472 -4.763746738 -8.506943703 0.9489380121 
-7.282797813 -5.84578371 -7.971611023 0.952072978 
-6.490922928 -6.236008644 -7.683391571 0.9537651539 
-5.685442924 -6.529213905 -7.390221596 0.9554894567 
-3.323865891 -6.890945911 -6.530677319 0.9605628252 
-2.587523222 -6.865294456 -6.262671471 0.9621502161 
-1.887019038 -6.780347824 -6.007708073 0.9636628032 
-1.225758076 -6.643959999 -5.767029285 0.9650927782 
1.002539039 -5.718735695 -4.955988884 0.9699273109 
1.456601501 -5.420025349 -4.790723801 0.9709153771 
2.249128342 -4.770833015 -4.502267361 0.9726424217 
2.590686083 -4.426360607 -4.377950191 0.9733877182 
3.628364086 -2.9658916 -4.000265598 0.9756553769 
3.812607288 -2.587552071 -3.933206797 0.9760585427 
3.969155073 -2.206025124 -3.876227379 0.9764012694 
4.098945141 -1.822039485 -3.82898736 0.9766854644 
4.20277071 -1.436201692 -3.791198015 0.9769129157 
4.281276703 -1.04901433 -3.762623787 0.9770848751 
4.334943771 -0.660900116 -3.74309063 0.9772024751 
4.364113808 -0.2722241879 -3.732474327 0.9772664309 
4.36896944 0.1166782007 -3.730706692 0.9772770405 
4.237180233 1.281468987 -3.778674126 0.976988256 
4.143549919 1.667903423 -3.812753201 0.9767831564 
4.024233341 2.052695274 -3.856180429 0.9765218496 
3.878488779 2.435285807 -3.909227133 0.976202786 
3.705449104 2.81499958 -3.972208261 0.9758239985 
2.717602491 4.285652637 -4.331756115 0.9736647606 
2.389968157 4.634390354 -4.451004982 0.9729496837 
1.188929439 5.601687431 -4.888148785 0.9703328013 
0.191583246 6.148749352 -5.251155853 0.9681650996 
-0.9727441072 6.576652527 -5.674940109 0.9656405449 
-2.30280757 6.837982655 -6.159042835 0.96276474 
-3.025324583 6.888324261 -6.422017574 0.9612060785 
-3.780820131 6.874436378 -6.696995258 0.9595790505 
-4.562881947 6.787944317 -6.981642723 0.9578976631 
-5.36282444 6.620580673 -7.272797585 0.9561809301 
-10.57119942 1.90173018 -9.168491364 0.9450781941 
-10.40276337 6.141662652e-06 -9.107186317 0.9461974502 
-10.12458324 -1.821396947 -9.005935669 0.9467793703 
-9.787420273 -2.677076578 -8.883218765 0.9474852085 
-8.147458076 -4.817414761 -8.28632164 0.9509257674 
-7.45234108 -5.353874207 -8.033319473 0.9523878694 
-6.714882851 -5.794741631 -7.764906883 0.9539414644 
-5.95273304 -6.141104221 -7.487507343 0.9555497766 
-5.181550026 -6.396740437 -7.206819534 0.957179904 
-4.414620399 -6.567342281 -6.927680016 0.9588037729 
-1.57296145 -6.54543972 -5.893400669 0.9648447633 
-0.9468932748 -6.401858807 -5.665530682 0.9661807418 
0.1868676692 -5.997229099 -5.25287199 0.9686049819 
0.693892777 -5.747605324 -5.06832695 0.9696910381 
1.591018081 -5.177420139 -4.741800308 0.9716157317 
2.339873075 -4.537216663 -4.469238758 0.9732252359 
3.437165499 -3.130098104 -4.069856644 0.9755884409 
4.068906307 -1.637866378 -3.839921236 0.9769515991 
4.161520958 -1.258591771 -3.806212187 0.9771515727 
4.272702694 -0.4965541065 -3.765745878 0.9773917198 
4.291931152 -0.1146178022 -3.758746147 0.9774332643 
4.287124157 0.2674267888 -3.760495424 0.977422893 
4.205148697 1.030369997 -3.790332556 0.9772458076 
4.127482891 1.410486221 -3.818600893 0.9770780802 
4.024795055 1.789093733 -3.855975866 0.9768563509 
3.559843779 2.90990591 -4.025205612 0.9758529663 
3.349609375 3.275898933 -4.101724148 0.9753996134 
3.109953642 3.636368036 -4.188951969 0.9748830795 
2.839616537 3.989955902 -4.287345886 0.9743008018 
2.53725338 4.335041523 -4.397397995 0.9736498594 
2.201440334 4.669675827 -4.519623756 0.9729275107 
1.830759287 4.991543293 -4.654540539 0.9721307158 
1.423782945 5.297906399 -4.802667618 0.9712566733 
0.4958386123 5.850709915 -5.140413284 0.9692666531 
-1.192681909 6.464589119 -5.754990578 0.9656560421 
-1.834024668 6.58987093 -5.988420486 0.9642881751 
-3.961131573 6.631733418 -6.762623787 0.9597653151 
-4.720130444 6.508879185 -7.038876057 0.9581565857 
-5.490200043 6.305042744 -7.319158554 0.9565271735 
-6.259500504 6.013710976 -7.599161148 0.9549021125 
-7.013772011 5.629865646 -7.873693466 0.9533115029 
-7.736508846 5.150715351 -8.136748314 0.9517899156 
-9.937054634 2.341299057 -8.937681198 0.9471718669 
-10.22384834 1.465745568 -9.04206562 0.9465717077 
-10.3774128 0.5546629429 -9.097958565 0.9462504387 
-10.39148426 -0.3700894117 -9.103079796 0.9462210536 
-10.00458431 -2.170012236 -8.962260246 0.9470305443 
-9.619164467 -3.002885103 -8.821978569 0.9478375912 
-7.875693321 -5.043408871 -8.187407494 0.9514971375 
-7.161403656 -5.541701317 -7.927427292 0.9530004859 
-6.412056923 -5.944468021 -7.654687405 0.9545801878 
-4.11155653 -6.613294125 -6.817374229 0.9594462514 
-3.368320227 -6.676678181 -6.546857834 0.9610236883 
-1.966766357 -6.609079838 -6.036734581 0.9640052915 
-0.1364770532 -6.133054256 -5.370562077 0.967912972 
1.33791256 -5.357049942 -4.833922386 0.9710723162 
1.752311945 -5.054154396 -4.683093548 0.9719621539 
2.472812414 -4.402872562 -4.420853138 0.973511219 
2.781750441 -4.059711456 -4.308408737 0.9741761684 
3.867678165 -2.240662813 -3.913162231 0.9765171409 
4.001203537 -1.864587069 -3.864562988 0.9768053889 
4.191594124 -1.106491208 -3.795265913 0.9772165418 
4.278473854 0.4201928377 -3.763644934 0.9774041772 
4.239936352 0.8017736673 -3.77767086 0.9773209691 
3.837817192 2.315558434 -3.924030066 0.9764527082 
3.257341146 3.420822144 -4.135306358 0.9752007723 
3.005576134 3.778711081 -4.226942062 0.9746582508 
2.722590208 4.129114151 -4.329940796 0.9740487933 
2.407023907 4.470269203 -4.444797993 0.973369658 
1.672399879 5.116117001 -4.71217823 0.9717904925 
1.250524879 5.415410042 -4.865729332 0.9708848 
0.7905554175 5.694540501 -5.033144474 0.9698982239 
-0.8263537288 6.367998123 -5.621658325 0.9664382339 
-5.79875946 6.199328423 -7.431466103 0.9558750391 
-6.563889027 5.871489525 -7.70994997 0.954259932 
-7.307646275 5.449705124 -7.980655193 0.9526925087 
-8.01272583 4.932295799 -8.237282753 0.9512090087 
-8.66030407 4.32080698 -8.472982407 0.9498485327 
-9.705559731 2.841286659 -8.853424072 0.9476566315 
-10.06713009 1.996660471 -8.985025406 0.9468996525 
-10.30173302 1.104383826 -9.070413589 0.9464087486 
-10.17684937 -1.644368291 -9.024959564 0.9466699958 
-9.864624977 -2.510365248 -8.911319733 0.9473235607 
-8.279746056 -4.698782444 -8.334469795 0.9506477714 
-7.595341682 -5.254215717 -8.085368156 0.9520869255 
-6.10635376 -6.079237461 -7.543420315 0.9552254081 
-5.335833549 -6.352615356 -7.262974262 0.9568535686 
-4.567115307 -6.539697647 -6.983183384 0.9584807158 
-3.811529398 -6.647230148 -6.708173275 0.9600827098 
-3.07807374 -6.682724476 -6.441216946 0.961640358 
-2.373522997 -6.653962135 -6.184781551 0.9631390572 
-1.06900394 -6.434071541 -5.709974766 0.9659200311 
-0.4742358327 -6.257050514 -5.493497372 0.9671906829 
1.071174264 -5.529689789 -4.931008339 0.9704999924 
2.60035634 -4.266793728 -4.374430656 0.9737856984 
3.393972158 -3.203103781 -4.085577488 0.9754952788 
3.598459482 -2.836145639 -4.011149883 0.9759362936 
3.774880171 -2.464992046 -3.946938276 0.9763168693 
4.144997597 -1.334569693 -3.812225819 0.9771159291 
4.217724323 -0.9542087913 -3.785755634 0.9772729874 
4.290011883 -0.1910251528 -3.759445667 0.9774291515 
4.144999981 1.334569216 -3.812224627 0.9771159291 
3.774880171 2.464989662 -3.946937799 0.9763169289 
3.160295248 3.564780235 -4.170629025 0.97499156 
2.600353956 4.266795158 -4.374431133 0.9737856984 
2.271350145 4.603692055 -4.494178772 0.9730778337 
1.907751441 4.928319454 -4.626517773 0.9722961187 
1.07117188 5.529691219 -4.931008816 0.9704999924 
0.08068847656 6.043747425 -5.291519165 0.9683776498 
-0.4742346108 6.257051468 -5.493496418 0.9671906829 
-1.702751398 6.568638802 -5.940639973 0.9645680189 
-3.078072548 6.682723045 -6.441216469 0.961640358 
-3.811527014 6.647227764 -6.708171844 0.9600827098 
-5.335833549 6.352615833 -7.262974262 0.9568535686 
-7.595347881 5.254208088 -8.085370064 0.9520869255 
-8.898871422 4.05094099 -8.559813499 0.9493477941 
-9.433297157 3.317687273 -8.754328728 0.9482271075 
-10.17685223 1.644369125 -9.024960518 0.9466699958 
-10.35773373 0.738700211 -9.090795517 0.9462916255 
-10.3999424 -0.1851466298 -9.10615921 0.946203351 
-9.230902672 -3.620605469 -8.680663109 0.9486513734 
-8.660295486 -4.320817471 -8.472978592 0.9498485327 
-8.01272583 -4.932296276 -8.237282753 0.9512090087 
-5.798752308 -6.199332237 -7.431462288 0.9558750391 
-5.027431488 -6.437456131 -7.150724888 0.957506001 
-2.792466879 -6.67849493 -6.337264061 0.9622476101 
-2.100941181 -6.626204491 -6.085569382 0.9637194872 
-1.444671631 -6.520332336 -5.846706867 0.9651183486 
-0.2474548221 -6.175744534 -5.410954475 0.9676756263 
0.2914562821 -5.949519634 -5.214804173 0.9688289165 
0.7905578613 -5.694539547 -5.033143997 0.9698982239 
1.67240715 -5.11611557 -4.7121768 0.9717904925 
2.05743885 -4.800096512 -4.572036743 0.9726178646 
2.407021523 -4.470269203 -4.444798946 0.973369658 
3.837814808 -2.31556344 -3.92403245 0.9764527082 
4.089443207 -1.562139273 -3.832446098 0.976995945 
4.239936352 -0.8017790318 -3.77767086 0.9773209691 
4.278473854 -0.4201860726 -3.763644934 0.9774041772 
4.292892933 -0.03820465133 -3.758396626 0.9774353504 
4.249582291 0.7255062461 -3.774160147 0.9773417711 
4.10896492 1.486347318 -3.825340986 0.9770380855 
4.001203537 1.864585996 -3.864562273 0.9768053889 
3.52009511 2.98349309 -4.039672852 0.9757672548 
3.304067373 3.348475933 -4.118299961 0.9753014445 
3.058383703 3.707684278 -4.207722187 0.9747719765 
2.781752825 4.059708595 -4.30840683 0.9741761684 
2.130141497 4.735153675 -4.545574188 0.972774148 
-1.317914963 6.49336338 -5.800571918 0.9653887749 
-4.111569881 6.613286495 -6.817378998 0.9594462514 
-7.161417007 5.541697502 -7.927431583 0.9530004859 
-8.536322594 4.450427532 -8.427856445 0.9501088262 
-9.123866081 3.767347336 -8.641705513 0.9488758445 
-9.619158745 3.002889872 -8.821976662 0.9478376508 
-10.2238369 -1.465759516 -9.042061806 0.9465717077 
-9.528366089 -3.161721945 -8.788930893 0.9480278492 
-9.013152122 -3.91081357 -8.601408958 0.9491080046 
-7.736507416 -5.150718212 -8.136748314 0.9517899156 
-5.490190506 -6.305044651 -7.319155693 0.9565271735 
-3.222641468 -6.681019783 -6.493835449 0.9613331556 
-2.511855364 -6.664484501 -6.235129833 0.9628446102 
-0.5900170803 -6.295549393 -5.535638332 0.9669431448 
-0.02710204944 -6.089037895 -5.330751896 0.9681469798 
0.4958459437 -5.850706577 -5.140410423 0.9692666531 
0.9791870117 -5.585549355 -4.964488506 0.970302701 
2.201450109 -4.669670582 -4.519620419 0.9729275107 
3.109948635 -3.636372328 -4.188952923 0.9748830795 
3.349609375 -3.275895119 -4.101724148 0.975399673 
3.559843779 -2.909904003 -4.025205612 0.9758529663 
4.229318619 0.8780070543 -3.781535625 0.9772980213 
4.161523342 1.258590102 -3.806210756 0.9771515727 
4.068908691 1.63786912 -3.839920521 0.9769515991 
3.950927734 2.015314341 -3.882861137 0.9766968489 
3.80688715 2.390335321 -3.935287476 0.976385951 
3.437165499 3.130101204 -4.069856644 0.9755884409 
2.662133694 4.198142052 -4.351944447 0.9739186764 
1.591018081 5.177420139 -4.741799355 0.9716157317 
0.6938855052 5.747609138 -5.068329811 0.9696910381 
0.1868627816 5.997231483 -5.252873898 0.9686049819 
-2.934669018 6.681864262 -6.389021397 0.9619452357 
-3.662819624 6.659845352 -6.654047012 0.9603983164 
-5.95273447 6.141100883 -7.487507343 0.9555497766 
-7.452330112 5.353883743 -8.033315659 0.952387929 
-8.781208038 4.187616348 -8.516987801 0.9495947361 
-9.334090233 3.470696926 -8.718219757 0.9484350085 
-10.1245842 1.821385503 -9.005935669 0.9467793703 
-10.40276337 6.141662652e-06 -9.107186317 0.9461974502 
-10.33249474 -0.9219956994 -9.081609726 0.9463444352 
-10.12457657 -1.821404934 -9.005933762 0.9467794299 
-9.787414551 -2.677081585 -8.883215904 0.9474852085 
-8.781209946 -4.187618256 -8.516988754 0.9495947361 
-7.452331543 -5.35388422 -8.033316612 0.9523878694 
-6.714879036 -5.794746399 -7.76490593 0.9539414644 
-5.181553841 -6.396736145 -7.206820965 0.957179904 
-4.414611816 -6.567341328 -6.927676678 0.9588038325 
-3.662821054 -6.659846783 -6.654047489 0.9603983164 
-2.934669018 -6.681865215 -6.389021397 0.9619452357 
-2.236551523 -6.64118576 -6.13492775 0.9634306431 
-0.946890831 -6.401858807 -5.665529728 0.9661807418 
0.1868627816 -5.997232437 -5.252873898 0.9686049223 
1.591018081 -5.177420139 -4.741800308 0.9716157317 
2.33987546 -4.537212849 -4.469237804 0.9732252359 
3.209421396 -3.492928028 -4.152748108 0.9750974774 
3.80688715 -2.390337706 -3.935288668 0.976385951 
3.950925112 -2.015315294 -3.882861853 0.9766968489 
4.272702694 -0.496555239 -3.765745878 0.9773917198 
4.291931152 -0.1146215424 -3.758746147 0.9774332643 
4.205148697 1.030369997 -3.790332556 0.9772458076 
4.127485275 1.410483718 -3.818600416 0.9770780802 
3.349604368 3.275904179 -4.101726055 0.9753996134 
3.109948635 3.636369944 -4.188952923 0.9748830795 
2.53725338 4.335039139 -4.397397995 0.9736498594 
1.423779249 5.29791069 -4.802669525 0.9712566137 
0.9791894555 5.585548401 -4.964487076 0.970302701 
0.4958459437 5.850706577 -5.140410423 0.9692666531 
-0.02708618157 6.089033604 -5.330745697 0.9681470394 
-0.5900024176 6.295539379 -5.53563261 0.9669432044 
-2.511873722 6.664485455 -6.235136509 0.9628445506 
-3.961131573 6.631733418 -6.762623787 0.9597653151 
-4.720124245 6.508879662 -7.038874149 0.9581565857 
-6.259488583 6.013712406 -7.599156857 0.9549021721 
-8.409422874 4.576432228 -8.381669044 0.9503753781 
-9.52834034 3.161726236 -8.78892231 0.9480279684 
-9.123867035 -3.767347574 -8.641705513 0.9488758445 
-7.87569952 -5.04340601 -8.187409401 0.9514971375 
-7.161418438 -5.541697979 -7.92743206 0.9530004859 
-5.644528866 -6.253969669 -7.375329971 0.9562009573 
-3.36831665 -6.676680088 -6.546856403 0.9610236883 
-1.966771245 -6.609081268 -6.036735535 0.9640052915 
-1.317914963 -6.493364334 -5.800571918 0.9653887749 
-0.7073999047 -6.332546234 -5.578362465 0.9666923285 
-0.1364624053 -6.133049011 -5.370557308 0.967912972 
0.3944531083 -5.900663853 -5.177315712 0.9690495133 
1.337915063 -5.357044697 -4.833921909 0.9710723162 
2.130141497 -4.735153198 -4.545574188 0.9727742076 
2.472807646 -4.402875423 -4.420855045 0.973511219 
2.78174305 -4.059715748 -4.308411598 0.9741761684 
3.304074526 -3.348467827 -4.118297577 0.9753015041 
4.001203537 -1.864587069 -3.864562988 0.9768053889 
4.191594124 -1.106495738 -3.795265913 0.9772165418 
4.249579906 -0.7255164981 -3.774160624 0.9773417711 
4.292892933 0.03821365163 -3.758396626 0.9774353504 
4.278473854 0.4201961756 -3.763644934 0.9774041772 
4.239936352 0.8017782569 -3.77767086 0.9773209691 
4.177052975 1.182566762 -3.800559044 0.9771851301 
3.976584435 1.939990759 -3.873523474 0.9767522812 
3.672333956 2.688144207 -3.98426199 0.9760956168 
3.257341146 3.420825958 -4.135307312 0.9752007723 
3.005571127 3.778716087 -4.22694397 0.9746581912 
2.722590208 4.129114151 -4.329940796 0.9740487933 
2.05743885 4.800095081 -4.572036743 0.9726178646 
1.250537038 5.41540432 -4.86572504 0.9708848 
0.2914404273 5.949529171 -5.214809895 0.9688288569 
-1.44467032 6.52033186 -5.84670639 0.9651183486 
-2.100941181 6.626200199 -6.085569382 0.9637194872 
-3.515049934 6.66963768 -6.600263119 0.9607120752 
-4.2627635 6.591847897 -6.87240839 0.959125638 
-5.798773289 6.199323177 -7.431470394 0.9558750391 
-6.563893795 5.871483803 -7.709951401 0.954259932 
-8.660297394 4.320817471 -8.472979546 0.9498485327 
-9.705553055 2.84130311 -8.853421211 0.9476566911 
-10.06713867 1.996643662 -8.985028267 0.9468995929 
-9.864629745 -2.510360241 -8.911320686 0.9473235011 
-9.433296204 -3.317687035 -8.754328728 0.9482271075 
-8.89887619 -4.050922871 -8.559815407 0.9493477941 
-8.279729843 -4.69879818 -8.334464073 0.950647831 
-7.595330715 -5.254220963 -8.085363388 0.9520869255 
-6.864871502 -5.714211941 -7.819498062 0.9536253214 
-6.10634613 -6.079242229 -7.543417931 0.9552254081 
-5.335833549 -6.352615356 -7.262974262 0.9568535686 
-4.567115307 -6.539697647 -6.983183384 0.9584807158 
-3.078082323 -6.68272686 -6.44121933 0.961640358 
-1.702735543 -6.568636894 -5.940634251 0.9645680189 
0.08068725467 -6.043747425 -5.291519165 0.9683776498 
1.071169376 -5.529691696 -4.931010246 0.9704999924 
1.907748938 -4.928324223 -4.62651968 0.9722961187 
2.271357298 -4.603681564 -4.494176388 0.9730778337 
3.393972158 -3.203103781 -4.085577488 0.9754952788 
3.924226046 -2.090540409 -3.892580509 0.9766392112 
4.047363281 -1.713509321 -3.847762346 0.9769050479 
4.217724323 -0.9542043805 -3.785755634 0.9772729874 
4.265964031 -0.572892189 -3.768198252 0.9773771763 
4.290011883 -0.1910251528 -3.759445667 0.9774291515 
4.265964031 0.5728917122 -3.768198252 0.9773771763 
3.774880171 2.464992523 -3.946937799 0.9763168693 
3.598459482 2.836148262 -4.01115036 0.9759362936 
3.393972158 3.203103781 -4.085577488 0.9754952788 
3.160297871 3.564774752 -4.170628071 0.9749916196 
2.600361347 4.266786098 -4.374427795 0.9737856984 
2.271342754 4.603698254 -4.494181633 0.9730778337 
-1.702764869 6.568644047 -5.940645218 0.9645679593 
-4.567115307 6.539698124 -6.983183384 0.9584807158 
-6.864870548 5.71421051 -7.819498062 0.9536253214 
-8.898879051 4.050922871 -8.55981636 0.9493477941 
-9.433297157 3.317687273 -8.754328728 0.9482271075 
-9.864624023 2.510360956 -8.911318779 0.9473235607 
-10.35773373 0.738700211 -9.090795517 0.9462916255 
-10.39993763 -0.1851219535 -9.106157303 0.946203351 
-10.06712532 -1.996683717 -8.985022545 0.9468996525 
-8.01272583 -4.932296276 -8.237282753 0.9512090087 
-7.307645321 -5.449705601 -7.980654716 0.9526925087 
-2.792466879 -6.67849493 -6.337264061 0.9622476101 
-2.100941181 -6.626204491 -6.085569382 0.9637194872 
-1.444671631 -6.520332336 -5.846706867 0.9651183486 
-0.8263537288 -6.367998123 -5.621658325 0.9664382339 
0.2914416492 -5.949516296 -5.214808941 0.9688289165 
0.7905663848 -5.694532871 -5.033140182 0.9698982835 
1.67240715 -5.11611557 -4.7121768 0.9717904925 
2.05743885 -4.800096512 -4.572036743 0.9726178646 
2.407021523 -4.470269203 -4.444798946 0.973369658 
2.722587824 -4.129114151 -4.329942703 0.9740487933 
3.257341146 -3.420828104 -4.135307312 0.9752007127 
3.976584435 -1.939991713 -3.873523474 0.9767522812 
4.089443207 -1.562139273 -3.832446098 0.976995945 
4.278473854 -0.4201972783 -3.763644934 0.9774041772 
4.292892933 -0.0382138826 -3.758396626 0.9774353504 
4.283278942 0.3438226581 -3.761894941 0.977414608 
4.249579906 0.7255142331 -3.774160624 0.9773417711 
4.10896492 1.486347318 -3.825340986 0.9770380855 
4.001203537 1.864585996 -3.864562273 0.9768053889 
